ply
format ascii 1.0
element vertex 564
property float x
property float y
property float z
end_header
0.110110 -0.040591 0.000393
0.110700 -0.039499 -0.008560
0.110790 -0.039559 0.008053
0.116130 -0.039735 -0.006686
0.119180 -0.039932 0.005216
0.120050 -0.039100 -0.010718
0.115900 -0.040508 0.000962
0.122240 -0.040173 -0.003242
0.125750 -0.039433 0.008870
0.128480 -0.039665 -0.007144
0.126990 -0.040498 -0.000685
0.132190 -0.038949 0.011197
0.138310 -0.040589 0.000113
0.136080 -0.039834 0.005809
0.137760 -0.039674 -0.007003
0.143240 -0.039581 0.007634
0.143990 -0.039304 -0.009832
0.142710 -0.040009 -0.004366
0.149440 -0.039370 -0.006503
0.145570 -0.040554 0.000380
0.106850 -0.038371 -0.004712
0.109720 -0.035803 -0.018762
0.106850 -0.037564 -0.012485
0.113470 -0.037986 -0.013440
0.114100 -0.037997 0.013529
0.114190 -0.034465 0.021247
0.119640 -0.038310 0.012764
0.119590 -0.036422 -0.017236
0.124100 -0.036559 0.016942
0.120520 -0.034755 0.020859
0.125870 -0.036445 -0.017169
0.134660 -0.033851 0.022002
0.132420 -0.035688 0.005532
0.132420 -0.038310 -0.000578
0.132430 -0.036268 0.017056
0.130980 -0.038429 -0.012330
0.137630 -0.038261 0.012825
0.137830 -0.034302 -0.021321
0.136740 -0.038319 -0.012587
0.144220 -0.036044 -0.018113
0.141410 -0.035540 0.019331
0.149450 -0.038002 0.003538
0.149420 -0.038257 -0.012717
0.146310 -0.037691 0.014166
0.147020 -0.035398 0.019654
0.149430 -0.035334 -0.019791
0.149450 -0.034889 0.009955
0.106840 -0.030902 -0.020301
0.107510 -0.032285 0.024085
0.111590 -0.030031 0.026996
0.112000 -0.032872 -0.023212
0.111930 -0.028679 -0.028615
0.116720 -0.031112 0.025587
0.120940 -0.031722 -0.024714
0.122230 -0.030003 0.027011
0.125340 -0.033233 0.022822
0.126050 -0.033086 -0.022920
0.130280 -0.031040 -0.025601
0.132400 -0.031170 -0.020531
0.131690 -0.030115 0.026849
0.132410 -0.028839 0.006655
0.132400 -0.033346 -0.013893
0.136430 -0.029924 -0.027060
0.142150 -0.030993 0.025690
0.142550 -0.031303 -0.025248
0.149450 -0.030412 0.013288
0.149420 -0.029301 -0.023924
0.149440 -0.031857 0.001980
0.149440 -0.032551 -0.006613
0.149460 -0.031577 0.023738
0.149090 -0.028491 0.028832
0.149430 -0.032784 -0.012235
0.100460 -0.026665 -0.004814
0.105040 -0.024067 0.019188
0.106830 -0.027647 -0.026827
0.106830 -0.024732 -0.018341
0.106860 -0.026012 0.023869
0.106900 -0.028005 0.029264
0.114960 -0.026392 0.030484
0.120170 -0.025115 0.031450
0.122290 -0.025336 -0.031194
0.125470 -0.026125 0.030671
0.127590 -0.027882 -0.029228
0.132410 -0.023459 0.007166
0.132400 -0.027820 -0.005211
0.132400 -0.027284 -0.013229
0.132400 -0.024320 -0.000672
0.132410 -0.025054 0.013067
0.132390 -0.025392 -0.022839
0.134280 -0.026217 -0.030513
0.138910 -0.024585 0.031828
0.144870 -0.024482 0.031897
0.142620 -0.026865 -0.030012
0.149390 -0.026088 -0.030611
0.149440 -0.025877 0.007591
0.149430 -0.027891 -0.014982
0.149430 -0.024422 0.001586
0.149430 -0.024742 -0.005924
0.100460 -0.021844 -0.002430
0.100470 -0.020422 0.011291
0.100450 -0.022882 -0.015901
0.100470 -0.019673 0.017242
0.100460 -0.020290 0.002939
0.100450 -0.019671 -0.008544
0.100440 -0.022934 -0.028644
0.108970 -0.021673 -0.034024
0.107150 -0.023144 0.032972
0.106860 -0.019434 0.025044
0.112470 -0.018690 0.035799
0.117750 -0.022410 -0.033453
0.119540 -0.019129 0.035610
0.127780 -0.021854 -0.033882
0.127920 -0.019835 0.035312
0.132380 -0.021029 -0.028966
0.132400 -0.019206 0.001250
0.132390 -0.020901 -0.019408
0.132420 -0.022983 0.031337
0.132410 -0.018835 0.015502
0.132420 -0.023318 0.019506
0.132390 -0.021517 -0.012839
0.139840 -0.018962 -0.035581
0.138250 -0.023351 -0.032724
0.135610 -0.019632 0.035387
0.149440 -0.022368 0.018795
0.149420 -0.019403 -0.009710
0.149420 -0.022791 -0.018825
0.149430 -0.019167 0.007451
0.149410 -0.020755 -0.029692
0.149450 -0.021922 0.024441
0.149450 -0.021559 0.032060
0.147690 -0.020377 -0.034992
0.149440 -0.021877 0.012183
0.149420 -0.022768 -0.024578
0.100460 -0.014471 0.005457
0.100440 -0.017923 -0.021934
0.099672 -0.017943 0.036994
0.100450 -0.014174 -0.009417
0.100450 -0.017088 -0.015317
0.100450 -0.016127 -0.003734
0.100470 -0.013764 0.024685
0.106660 -0.018296 -0.024629
0.108160 -0.014319 -0.037511
0.106810 -0.015681 -0.032458
0.106860 -0.014565 0.036448
0.114090 -0.016195 -0.036730
0.115670 -0.013711 0.037841
0.120430 -0.015549 -0.037001
0.124440 -0.014700 0.037425
0.126210 -0.017074 -0.036366
0.132400 -0.014447 0.037520
0.132410 -0.018325 0.025195
0.132390 -0.016547 -0.015103
0.132370 -0.014547 -0.029067
0.132400 -0.014578 0.006413
0.132390 -0.018343 -0.004724
0.132380 -0.017217 -0.024042
0.132940 -0.017059 -0.036374
0.139640 -0.013761 -0.037753
0.141510 -0.018339 0.035911
0.149440 -0.014786 0.017966
0.149440 -0.013736 0.024213
0.149410 -0.017251 -0.018650
0.149450 -0.017038 0.035395
0.149410 -0.013912 -0.025667
0.149430 -0.017508 0.000260
0.149450 -0.017381 0.028476
0.100440 -0.011964 -0.023489
0.100450 -0.011338 -0.000915
0.100460 -0.011574 0.019389
0.098889 -0.013173 0.039806
0.099394 -0.009515 -0.037599
0.100460 -0.010489 0.013513
0.100280 -0.011504 -0.032433
0.106810 -0.010858 -0.029873
0.106850 -0.013021 0.031253
0.112550 -0.011331 -0.038761
0.119190 -0.009105 0.039332
0.119080 -0.009231 -0.039213
0.124490 -0.010409 -0.039057
0.129620 -0.013133 -0.038013
0.127420 -0.009161 0.039319
0.132410 -0.011234 0.022882
0.132380 -0.011055 -0.010567
0.132390 -0.011017 0.001160
0.134270 -0.008984 0.039335
0.132390 -0.012652 -0.004552
0.132380 -0.011362 -0.022171
0.132400 -0.011754 0.015417
0.132370 -0.010347 -0.033268
0.132410 -0.012031 0.029958
0.132390 -0.008569 0.008373
0.142440 -0.010862 0.038982
0.149420 -0.008473 0.005708
0.149400 -0.012835 -0.037268
0.149410 -0.009716 -0.019157
0.149410 -0.009649 -0.012767
0.149420 -0.012129 -0.007389
0.149450 -0.010609 0.038044
0.149440 -0.012000 0.031147
0.149430 -0.013315 0.010866
0.149420 -0.008819 -0.002009
0.100460 -0.006152 0.016740
0.100460 -0.006229 0.028028
0.100440 -0.005547 -0.010588
0.100450 -0.004417 0.006416
0.100440 -0.008257 -0.016495
0.100430 -0.007376 -0.027667
0.100440 -0.004267 0.000313
0.100460 -0.006548 0.022341
0.100440 -0.007504 -0.004759
0.106800 -0.005986 -0.037197
0.106850 -0.007309 0.030754
0.106800 -0.004185 -0.030312
0.106850 -0.008274 0.037462
0.112720 -0.007898 0.039493
0.112220 -0.005754 -0.039677
0.117670 -0.003707 -0.039956
0.122590 -0.003646 0.040032
0.127990 -0.005451 -0.039727
0.132370 -0.005316 -0.021315
0.133400 -0.005514 -0.039721
0.132390 -0.006096 0.014349
0.132410 -0.006197 0.031663
0.132370 -0.005575 -0.027977
0.132390 -0.004577 0.004605
0.132400 -0.006101 0.025748
0.132380 -0.005028 -0.009380
0.132380 -0.005469 -0.002401
0.132400 -0.004961 0.019714
0.142220 -0.004928 -0.039805
0.142520 -0.004667 0.039885
0.149390 -0.005135 -0.038814
0.149430 -0.006210 0.016716
0.149410 -0.003600 0.000302
0.149390 -0.007634 -0.033690
0.149430 -0.005865 0.027805
0.149410 -0.005647 -0.007998
0.149430 -0.008204 0.022651
0.149400 -0.007292 -0.028098
0.100440 0.001108 0.002622
0.100430 0.000752 -0.015366
0.100440 -0.000612 -0.003782
0.100090 0.000207 0.035074
0.100430 -0.003304 -0.020083
0.100450 -0.001306 0.020797
0.100450 -0.000797 0.011148
0.106840 -0.001793 0.031238
0.106850 -0.002471 0.038310
0.113370 -0.002034 0.040248
0.111130 -0.000525 -0.040380
0.123200 -0.002603 -0.040107
0.130370 0.000679 -0.040306
0.132410 -0.000731 0.038723
0.132370 -0.001517 -0.014126
0.132390 -0.000978 0.012063
0.132370 0.000540 -0.006186
0.132360 -0.003181 -0.033554
0.132380 0.000856 0.001502
0.132360 -0.000212 -0.026802
0.132390 0.000789 0.021677
0.136150 0.000160 -0.040377
0.141810 0.000696 -0.040313
0.149430 -0.002348 0.032813
0.149420 -0.002059 0.010554
0.149420 0.000982 0.022555
0.149390 -0.001852 -0.033076
0.149390 0.000065 -0.022481
0.149400 0.001167 -0.012409
0.149410 0.000917 -0.002803
0.148160 -0.002089 0.040212
0.147510 -0.000164 -0.040428
0.149400 -0.002997 -0.016384
0.100430 0.005654 -0.002732
0.100450 0.002371 0.024837
0.100430 0.004542 -0.008050
0.100440 0.005964 0.014143
0.100440 0.005940 0.007948
0.100420 0.004724 -0.019132
0.098950 0.005458 0.039507
0.100450 0.006445 0.019772
0.100420 0.004622 -0.024829
0.102070 0.006455 -0.029961
0.102530 0.002243 0.030615
0.106800 0.003260 -0.030720
0.106790 0.002854 -0.038860
0.106840 0.002920 0.034393
0.109380 0.005077 0.039817
0.117290 0.002829 0.040115
0.117210 0.003224 -0.039967
0.124080 0.005220 -0.039716
0.123780 0.001797 0.040251
0.132400 0.002425 0.030836
0.132350 0.004302 -0.034654
0.132400 0.006123 0.036015
0.132390 0.003787 0.016871
0.132360 0.003661 -0.020713
0.132380 0.005532 0.006545
0.132370 0.005134 -0.012821
0.137980 0.006073 -0.039617
0.136860 0.003940 0.039955
0.143610 0.002116 0.040196
0.149390 0.004310 -0.017264
0.149430 0.003364 0.035387
0.149380 0.005413 -0.038941
0.149410 0.005205 0.008549
0.149420 0.001995 0.014934
0.149410 0.002274 0.002457
0.149380 0.003894 -0.030632
0.149430 0.002118 0.027845
0.149400 0.004794 -0.007573
0.100420 0.009970 -0.011843
0.100430 0.010664 0.002795
0.100010 0.010896 0.035501
0.100410 0.010226 -0.021273
0.100450 0.009450 0.025536
0.106830 0.007249 0.031145
0.113310 0.007182 -0.039455
0.113480 0.009408 0.039232
0.119670 0.009061 -0.039218
0.127260 0.006599 0.039603
0.132380 0.006907 0.012345
0.132350 0.011490 -0.019134
0.132370 0.008513 -0.004515
0.132390 0.008994 0.026340
0.132380 0.011306 0.019966
0.132370 0.009290 0.001051
0.131510 0.007623 -0.039413
0.132350 0.006818 -0.028088
0.132350 0.010555 -0.032760
0.132360 0.009945 -0.010319
0.136220 0.009570 0.039198
0.144490 0.008214 -0.039347
0.142610 0.007674 0.039449
0.149420 0.007873 0.022312
0.149420 0.007898 0.029825
0.149390 0.009819 -0.011649
0.149410 0.009520 0.016383
0.149390 0.010541 -0.019143
0.149380 0.008446 -0.027480
0.149420 0.010589 0.037408
0.149400 0.010475 -0.002837
0.149380 0.008487 -0.033666
0.149400 0.008473 0.004112
0.100430 0.012059 0.009597
0.100420 0.015935 0.001263
0.100410 0.016488 -0.023328
0.100410 0.012876 -0.028443
0.099478 0.016492 0.037477
0.100420 0.011779 -0.005839
0.100430 0.015677 0.015452
0.100420 0.016198 -0.011614
0.100410 0.014127 -0.016716
0.100440 0.012903 0.020448
0.100540 0.015382 0.026718
0.106830 0.013445 0.029696
0.107830 0.011886 0.038485
0.106780 0.016091 -0.036375
0.111740 0.013001 -0.037914
0.112450 0.015898 0.036810
0.117920 0.014705 -0.037221
0.120620 0.011705 0.038558
0.126700 0.012980 0.038025
0.127830 0.011600 -0.038508
0.132380 0.015245 0.030517
0.132390 0.013497 0.036477
0.133630 0.013766 -0.037624
0.132350 0.014317 -0.028058
0.132380 0.012385 0.013068
0.132360 0.013907 -0.002114
0.132370 0.013086 0.005026
0.143240 0.013093 0.037973
0.140600 0.014461 -0.037345
0.149370 0.014251 -0.032249
0.149060 0.013659 -0.037684
0.149400 0.013777 0.001591
0.149400 0.014048 0.008496
0.149380 0.013446 -0.024440
0.149410 0.015783 0.027381
0.149410 0.015560 0.021115
0.100420 0.017586 -0.005923
0.100440 0.018159 0.021976
0.100430 0.018040 0.008627
0.100410 0.020657 -0.017674
0.100110 0.021330 0.034632
0.106560 0.017885 -0.024683
0.106820 0.020954 0.028209
0.106780 0.017110 -0.030505
0.107300 0.017649 0.036079
0.113120 0.018916 -0.035486
0.120710 0.017005 0.036345
0.121940 0.018052 -0.035850
0.128040 0.018170 0.035857
0.130100 0.018557 -0.035651
0.134890 0.020837 -0.034423
0.132350 0.016923 -0.017504
0.132380 0.016980 0.024303
0.133440 0.020777 0.034560
0.132360 0.018102 0.002734
0.132380 0.021114 0.028050
0.132360 0.018312 -0.008049
0.132370 0.018744 0.010865
0.132340 0.018103 -0.023817
0.132370 0.018746 0.017804
0.137300 0.017136 0.036287
0.140320 0.021438 -0.033972
0.143520 0.020930 0.034443
0.149380 0.018689 -0.016941
0.145820 0.018724 -0.035599
0.149400 0.020608 0.019063
0.149390 0.017308 -0.008609
0.149390 0.020402 0.009235
0.149370 0.019551 -0.030082
0.149410 0.016587 0.032866
0.149370 0.019309 -0.024606
0.149390 0.021233 -0.000271
0.149400 0.016641 0.014338
0.100410 0.023074 -0.009554
0.100380 0.026397 0.031397
0.100420 0.021583 -0.000249
0.100430 0.023812 0.019067
0.100430 0.021780 0.012728
0.100400 0.026451 -0.017476
0.100420 0.023550 0.006012
0.100400 0.025785 -0.024777
0.106810 0.024816 0.020285
0.105600 0.022272 -0.020980
0.109520 0.022714 0.033061
0.106780 0.022430 -0.027894
0.111040 0.023224 -0.032567
0.118120 0.022719 -0.032963
0.121020 0.022205 0.033455
0.128250 0.023128 0.032743
0.125710 0.023377 -0.032471
0.132340 0.025181 -0.013289
0.132340 0.023666 -0.029483
0.132340 0.023649 -0.022361
0.132370 0.022192 0.022758
0.132350 0.023628 -0.003984
0.132360 0.024288 0.003222
0.132360 0.023987 0.014263
0.139180 0.024522 0.031668
0.145010 0.024884 -0.031350
0.144800 0.025263 0.031097
0.149380 0.022016 -0.011431
0.149390 0.026487 0.013603
0.149380 0.025802 -0.005346
0.149370 0.025202 -0.021942
0.149410 0.022513 0.031714
0.149390 0.024969 0.004701
0.149370 0.025337 -0.016150
0.100430 0.030596 0.024991
0.100410 0.027506 -0.005759
0.100270 0.028303 -0.032200
0.100410 0.028859 0.005112
0.100410 0.027008 0.000021
0.102570 0.027159 0.014087
0.106780 0.031472 -0.008716
0.106770 0.028061 -0.023980
0.106380 0.028851 0.009976
0.106780 0.027990 -0.015583
0.106510 0.030578 0.000991
0.106800 0.030678 0.018147
0.109250 0.027927 0.029037
0.106800 0.030005 0.023733
0.110830 0.028667 -0.028253
0.114520 0.031266 0.024987
0.120340 0.029449 0.027373
0.116940 0.030430 -0.025982
0.115720 0.026636 0.030035
0.125340 0.026895 0.029836
0.121520 0.027418 -0.029383
0.125640 0.031298 0.024954
0.127460 0.027943 -0.028991
0.132360 0.030603 0.016031
0.132340 0.029607 -0.020252
0.132360 0.026884 0.008751
0.132350 0.030095 0.003555
0.132350 0.029153 -0.003048
0.132730 0.026608 0.030058
0.132680 0.029173 -0.027642
0.138820 0.029512 0.027303
0.139180 0.028965 -0.027924
0.144110 0.030838 0.025567
0.149400 0.027287 0.027338
0.149370 0.029822 -0.011339
0.147480 0.028631 -0.028373
0.149390 0.029788 0.008913
0.149380 0.028415 0.000048
0.100390 0.031677 -0.025797
0.100390 0.032471 -0.017235
0.100390 0.036337 -0.022128
0.100420 0.032807 0.019694
0.100400 0.032464 -0.002323
0.109710 0.035446 -0.018769
0.106790 0.035592 0.008835
0.110290 0.032464 -0.023334
0.106780 0.033958 -0.003260
0.106770 0.035579 -0.013140
0.111720 0.034113 0.021259
0.115890 0.035362 -0.018992
0.118570 0.034967 0.020109
0.124350 0.035552 -0.018571
0.123690 0.031614 -0.024467
0.128750 0.032874 -0.022845
0.125670 0.035669 0.018426
0.133820 0.031884 0.024193
0.132460 0.035596 0.018592
0.130990 0.035729 -0.018168
0.132340 0.034593 0.000150
0.132340 0.032032 -0.010776
0.132350 0.034126 0.008234
0.136120 0.034236 -0.021090
0.140080 0.033603 0.021940
0.140710 0.032424 -0.023447
0.140720 0.035790 -0.018042
0.149370 0.032617 -0.004677
0.149370 0.036227 -0.011423
0.145930 0.036017 0.017599
0.149360 0.031934 -0.023184
0.149360 0.033710 -0.017436
0.149390 0.032719 0.020680
0.149380 0.033101 0.003887
0.149390 0.032583 0.015155
0.100410 0.036854 0.015230
0.100410 0.039458 0.009592
0.100400 0.038118 -0.004409
0.110160 0.039537 0.005865
0.109870 0.040106 -0.001498
0.109540 0.036596 0.016138
0.106780 0.037985 -0.007839
0.113380 0.038040 0.012619
0.111860 0.037442 -0.014016
0.114460 0.039477 -0.006224
0.117250 0.038273 -0.012025
0.115840 0.039817 0.003689
0.119930 0.039564 -0.005614
0.120000 0.039185 0.008628
0.123830 0.037867 -0.013025
0.122460 0.040137 0.001282
0.124490 0.038190 0.012279
0.125360 0.039253 -0.007956
0.128790 0.039808 -0.003840
0.126700 0.039612 0.005342
0.132060 0.039735 0.004426
0.132350 0.037810 0.013026
0.132600 0.039230 -0.008180
0.137590 0.040181 0.001020
0.138770 0.039267 -0.007920
0.140370 0.037719 0.013439
0.137130 0.037598 -0.013702
0.140190 0.039323 0.007743
0.144010 0.039078 -0.009367
0.144660 0.037254 -0.014562
0.142900 0.039991 0.002548
0.149370 0.039391 -0.006599
0.149200 0.037838 0.013187
0.146740 0.040153 -0.001454
0.147620 0.039477 0.006579
0.106830 -0.027647 -0.026827
0.108970 -0.021673 -0.034024
0.110160 0.039537 0.005865
0.124490 0.038190 0.012279
0.106780 0.033958 -0.003260
0.106510 0.030578 0.000991
