ply
format ascii 1.0
element vertex 1724
property float x
property float y
property float z
end_header
0.094376 0.004831 0.006872
0.094665 0.005133 -0.006886
0.096935 0.008366 0.006869
0.096857 0.007516 0.006870
0.094158 0.004031 -0.006885
0.099017 0.007633 0.006870
0.094987 0.004283 -0.006885
0.096436 0.004889 0.006872
0.099007 0.004592 0.006872
0.098685 0.005280 0.006871
0.094886 0.007817 0.006870
0.095142 0.006061 -0.006886
0.097683 0.005761 -0.006886
0.098273 0.005674 0.006871
0.094302 0.006207 0.006871
0.094165 0.008220 -0.006888
0.095587 0.004465 0.006872
0.094425 0.008209 0.006869
0.096939 0.006851 -0.006887
0.097920 0.006773 0.006870
0.097885 0.007944 -0.006888
0.095498 0.007322 0.006870
0.098157 0.004428 -0.006885
0.098314 0.005409 -0.006886
0.097254 0.008472 -0.006888
0.097735 0.005077 -0.006886
0.098119 0.003868 0.006872
0.095057 0.004689 0.006872
0.099015 0.008053 -0.006888
0.096631 0.006302 0.006870
0.096789 0.006862 0.006870
0.095282 0.006194 0.006871
0.096924 0.005475 -0.006886
0.098093 0.008555 -0.006888
0.097488 0.004095 0.006872
0.096929 0.004006 0.006872
0.095044 0.005574 0.006871
0.095635 0.005083 0.006871
0.095854 0.005346 -0.006886
0.097567 0.004440 -0.006885
0.097749 0.003831 -0.006885
0.094316 0.004618 -0.006885
0.098664 0.008522 -0.006888
0.098751 0.006389 0.006870
0.094164 0.005392 0.006871
0.096674 0.008323 -0.006888
0.096357 0.004457 -0.006885
0.097741 0.006322 -0.006886
0.094137 0.007665 0.006870
0.096308 0.007185 -0.006887
0.097524 0.005422 0.006871
0.094956 0.007756 -0.006887
0.096001 0.006380 0.006870
0.094467 0.007480 -0.006887
0.094990 0.006768 0.006870
0.098319 0.003821 -0.006885
0.097642 0.006173 0.006871
0.094660 0.006557 -0.006887
0.094542 0.005820 -0.006886
0.095607 0.007508 -0.006887
0.096344 0.005511 0.006871
0.097915 0.008083 0.006869
0.096555 0.005024 -0.006886
0.097388 0.007236 0.006870
0.096968 0.004216 -0.006885
0.096078 0.007427 0.006870
0.095607 0.004374 -0.006885
0.096871 0.006145 -0.006886
0.097115 0.004938 -0.006886
0.096428 0.004260 0.006872
0.095365 0.008152 -0.006888
0.098247 0.004417 0.006872
0.096466 0.007983 0.006869
0.098277 0.007397 -0.006887
0.098863 0.005634 -0.006886
0.097387 0.004667 0.006872
0.097948 0.007376 0.006870
0.098115 0.005130 0.006871
0.097113 0.005889 0.006871
0.096446 0.007788 -0.006888
0.097286 0.007922 0.006869
0.097036 0.007870 -0.006888
0.096048 0.003973 -0.006885
0.100950 0.008159 -0.006888
0.103210 0.006770 0.006870
0.100540 0.003950 0.006872
0.101270 0.007258 0.006870
0.102830 0.005974 -0.006886
0.099193 0.005895 0.006871
0.101430 0.007337 -0.006887
0.100630 0.005908 0.006871
0.101860 0.004161 -0.006885
0.099335 0.008346 0.006869
0.100430 0.007612 0.006870
0.102430 0.004701 0.006872
0.102670 0.004044 -0.006885
0.101650 0.005978 -0.006886
0.101280 0.008436 0.006869
0.103030 0.007370 -0.006887
0.099727 0.004598 0.006872
0.099788 0.007440 0.006870
0.099577 0.007521 -0.006887
0.103010 0.006529 -0.006887
0.101500 0.006288 0.006870
0.103430 0.004325 0.006872
0.099209 0.006985 0.006870
0.099959 0.006889 -0.006887
0.102670 0.005588 0.006871
0.101880 0.006741 -0.006887
0.103220 0.008285 0.006869
0.101030 0.005450 0.006871
0.100230 0.008461 -0.006888
0.103610 0.004928 -0.006886
0.101770 0.007936 0.006869
0.103500 0.007701 0.006869
0.103680 0.005805 -0.006886
0.101700 0.003734 0.006872
0.102120 0.006053 0.006871
0.102430 0.006447 -0.006887
0.099728 0.004083 -0.006885
0.103060 0.005347 -0.006886
0.100800 0.004672 -0.006886
0.100040 0.005364 -0.006886
0.102100 0.005489 0.006871
0.101910 0.004946 -0.006886
0.102980 0.008278 -0.006888
0.103880 0.003817 -0.006885
0.099565 0.004999 -0.006886
0.101050 0.006510 -0.006887
0.100750 0.005608 -0.006886
0.100460 0.006384 -0.006887
0.099940 0.003731 0.006872
0.103610 0.005367 0.006871
0.099501 0.006440 0.006870
0.103070 0.004934 0.006871
0.103980 0.004917 0.006871
0.101720 0.004674 0.006872
0.100920 0.007942 0.006869
0.101090 0.003715 0.006872
0.099157 0.004439 -0.006885
0.101070 0.004877 0.006871
0.099299 0.006853 -0.006887
0.099202 0.006078 -0.006886
0.100470 0.005073 0.006871
0.099969 0.006862 0.006870
0.103080 0.004476 -0.006885
0.102860 0.004322 0.006872
0.099744 0.005412 0.006871
0.104060 0.007908 -0.006888
0.101010 0.004319 0.006872
0.102620 0.007537 0.006870
0.100630 0.007019 0.006870
0.103880 0.004417 -0.006885
0.102500 0.005398 -0.006886
0.102560 0.004694 -0.006886
0.102350 0.007200 -0.006887
0.103410 0.005991 0.006871
0.100070 0.006032 0.006871
0.099915 0.008177 0.006869
0.104110 0.006630 -0.006887
0.103650 0.007433 -0.006887
0.102080 0.008076 -0.006888
0.102600 0.008128 0.006869
0.099962 0.006084 -0.006886
0.100700 0.007094 -0.006887
0.100870 0.006461 0.006870
0.100260 0.004395 -0.006885
0.101620 0.008437 -0.006888
0.101840 0.007209 0.006870
0.102400 0.006714 0.006870
0.103520 0.006832 -0.006887
0.101490 0.003687 -0.006885
0.102860 0.006205 0.006870
0.101150 0.005139 -0.006886
0.100460 0.007896 -0.006888
0.100420 0.003696 -0.006885
0.102610 0.007780 -0.006888
0.100910 0.003980 -0.006885
0.099463 0.005551 -0.006886
0.099449 0.004078 0.006872
0.102150 0.004131 0.006872
0.107000 0.008259 -0.006888
0.105000 0.005040 -0.006886
0.104180 0.005467 -0.006886
0.107200 0.005902 0.006870
0.107760 0.008387 0.006869
0.104640 0.006894 0.006870
0.107860 0.004319 -0.006885
0.107000 0.004499 0.006872
0.104920 0.005736 0.006871
0.104620 0.005052 0.006871
0.105710 0.007679 0.006869
0.106820 0.007120 0.006870
0.108210 0.007828 -0.006888
0.107690 0.007349 -0.006888
0.109120 0.004944 -0.006886
0.105410 0.007862 -0.006888
0.108980 0.006391 0.006870
0.105940 0.003903 0.006872
0.106560 0.006406 0.006870
0.108450 0.007142 0.006870
0.108470 0.005890 0.006870
0.107140 0.006674 -0.006887
0.105170 0.004236 -0.006885
0.104170 0.006416 0.006870
0.108530 0.004609 -0.006886
0.105540 0.008392 0.006869
0.107860 0.004919 -0.006886
0.104880 0.007123 -0.006887
0.107620 0.006137 -0.006887
0.105580 0.005784 -0.006886
0.105330 0.003728 0.006872
0.106300 0.005680 -0.006886
0.108570 0.007348 -0.006888
0.108260 0.006719 -0.006887
0.106300 0.008374 0.006869
0.104800 0.007798 -0.006888
0.108460 0.005809 -0.006886
0.108960 0.006371 -0.006887
0.106750 0.007917 0.006869
0.107440 0.007577 0.006869
0.106810 0.007610 -0.006888
0.107320 0.005428 -0.006886
0.106410 0.003912 -0.006885
0.107190 0.004333 -0.006885
0.106860 0.008551 0.006869
0.108100 0.005053 0.006871
0.109090 0.008296 0.006869
0.104320 0.008246 0.006869
0.106280 0.007524 0.006869
0.105870 0.005218 -0.006886
0.105040 0.008548 -0.006888
0.105690 0.004750 0.006871
0.107350 0.005105 0.006871
0.108760 0.008340 -0.006888
0.106110 0.008514 -0.006888
0.105740 0.005699 0.006871
0.105940 0.006260 -0.006887
0.104720 0.006291 -0.006887
0.107280 0.006466 0.006870
0.108550 0.007868 0.006869
0.104450 0.004107 0.006872
0.108900 0.004310 0.006872
0.106210 0.006861 -0.006887
0.107850 0.006709 0.006870
0.106330 0.005402 0.006871
0.105850 0.004539 -0.006886
0.105700 0.007225 -0.006887
0.108660 0.005307 0.006871
0.106650 0.004534 -0.006886
0.105980 0.006229 0.006870
0.105210 0.006408 0.006870
0.108400 0.006447 0.006870
0.107890 0.005615 -0.006886
0.106940 0.006008 -0.006887
0.106300 0.004843 0.006871
0.105660 0.003797 -0.006885
0.105020 0.005656 -0.006886
0.104300 0.004906 -0.006886
0.104220 0.007273 0.006870
0.105620 0.007125 0.006870
0.104190 0.005474 0.006871
0.108500 0.005187 -0.006886
0.104480 0.008340 -0.006888
0.105290 0.006424 -0.006887
0.104940 0.008208 0.006869
0.107940 0.004255 0.006872
0.107850 0.005753 0.006871
0.104520 0.004162 -0.006885
0.104960 0.007558 0.006869
0.106000 0.007785 -0.006888
0.106820 0.005124 -0.006886
0.107470 0.003801 -0.006885
0.106440 0.004236 0.006872
0.108500 0.003850 -0.006885
0.104180 0.007273 -0.006887
0.107330 0.003928 0.006872
0.105080 0.004556 0.006872
0.108010 0.007704 0.006869
0.107520 0.008455 -0.006888
0.107480 0.007871 -0.006888
0.105300 0.005244 0.006871
0.114070 0.004664 -0.006886
0.111600 0.007591 -0.006888
0.109310 0.008095 -0.006888
0.109510 0.004439 0.006871
0.113820 0.005547 0.006870
0.111780 0.005062 0.006871
0.110060 0.004857 -0.006886
0.109250 0.004389 -0.006886
0.110120 0.005546 0.006871
0.110220 0.007967 -0.006888
0.109640 0.006410 -0.006887
0.111080 0.008508 -0.006888
0.111600 0.005223 -0.006886
0.111540 0.005893 -0.006887
0.113380 0.005174 0.006871
0.112630 0.005673 0.006870
0.110910 0.007075 0.006870
0.113580 0.005178 -0.006886
0.110150 0.004291 -0.006886
0.113570 0.008412 0.006869
0.109990 0.003814 0.006872
0.111400 0.008259 0.006869
0.109490 0.003681 -0.006885
0.112260 0.008299 0.006869
0.110000 0.008152 0.006869
0.113480 0.005824 -0.006887
0.113750 0.003867 0.006872
0.113650 0.008178 -0.006888
0.112910 0.004691 0.006871
0.110920 0.005214 0.006871
0.110610 0.007686 0.006869
0.113700 0.006528 -0.006887
0.113300 0.007566 -0.006888
0.112230 0.006480 -0.006887
0.112720 0.008076 -0.006888
0.112760 0.006312 -0.006887
0.113060 0.006915 0.006870
0.112330 0.005596 -0.006886
0.113780 0.007573 0.006869
0.112110 0.007292 -0.006888
0.110380 0.006758 -0.006887
0.110250 0.004794 0.006871
0.110960 0.005444 -0.006886
0.111640 0.006870 -0.006887
0.110180 0.006975 0.006870
0.109830 0.008520 -0.006888
0.111090 0.006280 0.006870
0.109450 0.007358 0.006869
0.111510 0.007411 0.006869
0.110940 0.004709 -0.006886
0.111930 0.008226 -0.006888
0.110350 0.006384 0.006870
0.111350 0.003763 0.006872
0.111770 0.006773 0.006870
0.113020 0.007042 -0.006888
0.110000 0.007319 -0.006888
0.111090 0.006483 -0.006887
0.112120 0.004883 -0.006886
0.110770 0.005775 0.006870
0.110600 0.003737 0.006872
0.111900 0.003990 -0.006885
0.113890 0.006258 0.006870
0.109220 0.003776 0.006872
0.113200 0.006241 0.006870
0.109320 0.007334 -0.006888
0.112640 0.007467 -0.006888
0.111410 0.003707 -0.006885
0.110780 0.007519 -0.006888
0.112040 0.004561 0.006871
0.112820 0.008396 0.006869
0.114090 0.004794 0.006871
0.112450 0.005142 0.006871
0.112500 0.006777 0.006870
0.112090 0.007580 0.006869
0.111550 0.005856 0.006870
0.113200 0.007466 0.006869
0.114050 0.006050 -0.006887
0.113580 0.004165 -0.006886
0.112240 0.006154 0.006870
0.111040 0.004438 0.006871
0.110780 0.003713 -0.006885
0.113650 0.006868 0.006870
0.113970 0.003683 -0.006885
0.112710 0.005131 -0.006886
0.110530 0.006188 -0.006887
0.109490 0.006771 0.006870
0.113130 0.008581 -0.006888
0.110570 0.008493 0.006869
0.113420 0.004382 0.006871
0.112240 0.003968 0.006872
0.109980 0.005548 -0.006886
0.109640 0.006156 0.006870
0.109340 0.005544 -0.006886
0.110050 0.007533 0.006869
0.109530 0.005237 0.006871
0.112650 0.004475 -0.006886
0.109210 0.005742 0.006871
0.113780 0.007212 -0.006888
0.111450 0.004460 -0.006886
0.112900 0.005712 -0.006886
0.111110 0.007059 -0.006887
0.117350 0.007977 -0.006158
0.116890 0.008216 0.003011
0.118020 0.007624 -0.003373
0.116060 0.006028 0.006870
0.115660 0.005334 0.006871
0.117840 0.006117 0.006870
0.117810 0.007740 -0.005280
0.116740 0.008280 -0.006694
0.116940 0.007338 0.006869
0.118220 0.006496 -0.006887
0.118240 0.007455 -0.006888
0.116080 0.008616 -0.000048
0.116980 0.004531 -0.006886
0.117180 0.008064 -0.001699
0.117330 0.007990 -0.003925
0.117440 0.005028 -0.006886
0.114380 0.003669 0.006872
0.118810 0.007169 0.001495
0.114990 0.007306 -0.006888
0.117040 0.008140 0.004322
0.116060 0.003731 0.006872
0.116700 0.008306 0.001416
0.118730 0.007216 -0.006451
0.118140 0.007561 -0.000215
0.118510 0.007354 -0.001423
0.116100 0.008601 -0.006741
0.117810 0.005578 -0.006887
0.115130 0.006260 0.006870
0.118510 0.005547 0.006870
0.118340 0.007454 -0.002299
0.114560 0.005490 0.006871
0.118440 0.007399 -0.005199
0.116480 0.008418 0.002162
0.116640 0.008337 0.006025
0.118450 0.007392 -0.005990
0.115600 0.007526 0.006869
0.114180 0.005303 -0.006886
0.114790 0.008065 -0.006888
0.117660 0.007822 -0.001248
0.117310 0.007989 0.006869
0.118120 0.004689 0.006871
0.116050 0.007634 -0.006888
0.114330 0.007433 -0.006888
0.117540 0.007882 0.000038
0.118060 0.007610 0.002276
0.116940 0.004455 0.006871
0.114650 0.006013 -0.006887
0.118460 0.007389 0.003979
0.117710 0.007797 0.000976
0.115620 0.004496 -0.006886
0.116150 0.008577 -0.005478
0.118690 0.007244 -0.000434
0.116490 0.008414 0.005468
0.117670 0.006846 -0.006888
0.117220 0.008046 0.002262
0.118190 0.007531 -0.004578
0.117970 0.006762 0.006870
0.117780 0.007758 -0.004180
0.118280 0.007485 -0.000898
0.118050 0.007616 0.006461
0.118260 0.007494 -0.003946
0.116640 0.004031 -0.006886
0.114550 0.007716 0.006869
0.116100 0.008607 -0.002625
0.117550 0.003833 -0.006885
0.117310 0.008001 0.001374
0.118320 0.007470 0.005633
0.118760 0.006814 -0.006888
0.116810 0.008247 -0.003673
0.115540 0.008256 -0.006888
0.119070 0.003729 -0.006885
0.118960 0.007073 -0.002174
0.118710 0.007229 -0.003609
0.116850 0.008224 -0.005644
0.116960 0.008179 0.000154
0.118860 0.006325 0.006870
0.116490 0.008407 -0.006031
0.116570 0.008366 -0.000642
0.117270 0.008023 0.006222
0.118700 0.007236 0.002215
0.115420 0.006582 -0.006887
0.116740 0.006175 -0.006887
0.116450 0.008431 0.000791
0.118800 0.007168 -0.004659
0.118930 0.007092 0.000739
0.116850 0.005558 -0.006887
0.116680 0.003767 0.006872
0.117070 0.008120 -0.001148
0.115370 0.004793 0.006871
0.115270 0.007997 0.006869
0.118360 0.003717 -0.006885
0.114500 0.006813 -0.006887
0.117360 0.007979 0.005569
0.117210 0.008048 -0.000398
0.117790 0.007757 0.005961
0.116290 0.008512 0.003474
0.117350 0.007984 0.003822
0.118980 0.007062 -0.000904
0.117370 0.005683 0.006870
0.114560 0.008315 0.006869
0.116720 0.008297 0.006795
0.116200 0.008148 0.006869
0.117010 0.007402 -0.006888
0.116780 0.006328 0.006870
0.118030 0.005017 -0.006886
0.118630 0.006925 0.006870
0.115910 0.006592 0.006870
0.117420 0.007945 -0.003329
0.117990 0.007645 0.004204
0.118290 0.007483 0.001665
0.118820 0.007163 0.005649
0.116560 0.005221 0.006871
0.118880 0.007128 0.003139
0.114780 0.004178 0.006872
0.116300 0.007384 0.006869
0.117800 0.007744 -0.005849
0.117680 0.007812 -0.002737
0.119080 0.006998 0.002612
0.118260 0.007498 0.002885
0.118690 0.004421 -0.006886
0.116440 0.006789 0.006870
0.118740 0.007214 0.000147
0.118130 0.007573 0.004969
0.116570 0.008368 -0.004972
0.118970 0.007068 -0.002779
0.115920 0.005974 -0.006887
0.117440 0.006321 -0.006887
0.118950 0.003940 0.006872
0.117590 0.007859 0.002877
0.116320 0.008500 0.004279
0.117430 0.007940 0.004901
0.116750 0.008278 0.003685
0.116640 0.008329 -0.004405
0.117900 0.007695 0.003432
0.119040 0.005152 0.006871
0.115090 0.005691 0.006870
0.115790 0.007013 -0.006888
0.117380 0.007963 -0.004958
0.116810 0.008251 0.004963
0.116590 0.006835 -0.006887
0.116710 0.008294 -0.002891
0.114670 0.006682 0.006870
0.117630 0.004418 -0.006886
0.115550 0.003720 -0.006885
0.117400 0.007949 -0.006736
0.115170 0.005447 -0.006886
0.118630 0.005099 -0.006886
0.118650 0.005776 -0.006887
0.115500 0.004156 0.006871
0.119000 0.006296 -0.006887
0.118380 0.007429 -0.002898
0.114600 0.004110 -0.006886
0.116590 0.008358 -0.001329
0.114960 0.007234 0.006869
0.117900 0.007693 -0.002032
0.117570 0.007402 -0.006888
0.116250 0.005167 -0.006886
0.116250 0.008527 -0.001965
0.117510 0.007449 0.006869
0.117040 0.008133 -0.002351
0.114250 0.007131 0.006870
0.116100 0.004299 0.006871
0.118190 0.007535 0.000827
0.117120 0.005079 0.006871
0.117020 0.008149 0.000845
0.118260 0.004093 0.006871
0.115040 0.004583 -0.006886
0.118980 0.007059 -0.001591
0.116130 0.006504 -0.006887
0.118650 0.007273 0.004810
0.118540 0.007344 0.006179
0.118900 0.004505 0.006871
0.117620 0.004144 0.006871
0.117730 0.005226 0.006871
0.114720 0.004875 0.006871
0.117340 0.006406 0.006870
0.119070 0.007007 0.004510
0.115410 0.006888 0.006870
0.116070 0.004117 -0.006886
0.117730 0.007787 0.001695
0.116000 0.004866 0.006871
0.114540 0.006062 0.006870
0.120260 0.006126 -0.004436
0.120820 0.005650 0.003994
0.121190 0.005306 0.001689
0.121020 0.005462 0.006831
0.119410 0.006773 -0.001970
0.119390 0.004914 -0.006886
0.119670 0.006579 -0.005607
0.122420 0.003954 -0.002792
0.122300 0.004096 0.000361
0.122480 0.003876 0.001883
0.121360 0.005146 0.005468
0.121040 0.005444 -0.004159
0.119450 0.006739 -0.006733
0.119200 0.005878 0.006870
0.120070 0.006282 0.001848
0.121010 0.005470 -0.006052
0.122030 0.004420 0.000971
0.120060 0.006293 0.004541
0.121610 0.004877 -0.002574
0.121900 0.004565 -0.003847
0.120070 0.004371 -0.006886
0.121900 0.004571 0.006244
0.120330 0.006068 -0.005687
0.119660 0.006593 0.002189
0.122140 0.004289 0.002505
0.122570 0.003751 0.002419
0.119610 0.004586 0.006871
0.122000 0.004420 0.006871
0.122400 0.003983 0.006780
0.121440 0.005058 -0.001588
0.122020 0.004430 0.004924
0.119870 0.006387 -0.006887
0.120270 0.003924 0.006872
0.120640 0.005816 0.005218
0.120130 0.006228 -0.006213
0.119430 0.006758 0.003009
0.121470 0.005024 -0.005623
0.122660 0.003629 -0.000020
0.119760 0.006514 -0.004768
0.120270 0.006120 -0.000416
0.121950 0.004510 -0.000388
0.120120 0.006239 -0.001225
0.119940 0.006387 0.003738
0.121770 0.004721 0.003781
0.121250 0.005240 -0.006735
0.122030 0.004414 0.004353
0.121860 0.004619 0.005549
0.122340 0.004044 -0.006177
0.120500 0.005929 -0.005059
0.122560 0.003756 -0.004977
0.121920 0.004546 -0.002120
0.120060 0.006286 -0.001823
0.120680 0.005773 -0.001085
0.122280 0.004118 0.003633
0.122370 0.004013 0.002973
0.120540 0.005900 0.002810
0.119180 0.006936 -0.004239
0.122440 0.003920 0.001209
0.119450 0.006739 -0.001323
0.120010 0.006333 0.002898
0.120690 0.005077 -0.006886
0.121420 0.005083 0.000453
0.120840 0.005627 -0.004678
0.121290 0.005196 -0.004760
0.121120 0.005371 0.004678
0.122370 0.004016 -0.000300
0.120790 0.005671 0.002017
0.119480 0.004144 -0.006886
0.122500 0.003849 -0.001440
0.122080 0.004360 -0.000924
0.121700 0.004788 -0.004447
0.120100 0.006149 0.006870
0.120550 0.005895 0.006354
0.120890 0.005576 -0.000531
0.119170 0.006942 0.001867
0.119170 0.006942 0.003643
0.120350 0.006059 0.005661
0.120810 0.005647 -0.006879
0.119740 0.006540 0.006610
0.121180 0.005317 0.006254
0.121380 0.005120 0.004195
0.121440 0.005061 0.002870
0.121130 0.005362 0.000946
0.119870 0.005647 -0.006887
0.120390 0.006023 0.004106
0.119150 0.006953 -0.000284
0.119420 0.006762 0.000866
0.122080 0.004353 -0.005655
0.120740 0.004260 -0.006886
0.119590 0.006643 0.004606
0.121980 0.004478 -0.002901
0.120500 0.005930 0.000058
0.122190 0.004230 -0.003375
0.120560 0.005883 -0.001829
0.121820 0.004659 0.000477
0.120430 0.005982 -0.003911
0.122050 0.004394 -0.004841
0.121150 0.005338 -0.002291
0.121070 0.005413 0.003529
0.121950 0.004511 0.003015
0.121030 0.005451 0.002780
0.120720 0.005737 -0.002652
0.119390 0.006790 0.005172
0.120490 0.004699 0.006871
0.122320 0.004068 -0.004468
0.120050 0.006294 -0.003120
0.119930 0.006391 0.000240
0.122600 0.003711 -0.003702
0.120910 0.005556 -0.003186
0.121160 0.004513 0.006871
0.119930 0.006399 0.000829
0.121780 0.004704 0.002293
0.122250 0.004165 0.005760
0.119280 0.006863 -0.003453
0.121600 0.004890 0.001723
0.121710 0.004768 -0.005144
0.122640 0.003655 0.003785
0.120830 0.005638 0.005780
0.121980 0.004466 -0.006528
0.121270 0.005216 -0.002906
0.120710 0.005743 0.000838
0.120490 0.005639 0.006870
0.120020 0.004984 -0.006886
0.119590 0.006641 -0.003004
0.120630 0.005819 0.004622
0.122630 0.003671 -0.000817
0.122070 0.004366 0.001780
0.121250 0.003908 0.006871
0.120340 0.006061 0.001198
0.121490 0.005007 -0.000298
0.120060 0.006290 0.005117
0.121070 0.005411 0.000031
0.120090 0.006274 0.006194
0.121280 0.005216 -0.000918
0.122270 0.004133 -0.006883
0.120490 0.005942 -0.003268
0.121560 0.004936 0.006548
0.121620 0.004868 -0.006383
0.120760 0.005702 0.001418
0.119260 0.006883 0.006744
0.122070 0.004363 -0.001605
0.121010 0.005469 -0.005420
0.119690 0.005589 0.006870
0.119500 0.006708 -0.000752
0.119720 0.006557 0.005580
0.121690 0.004803 0.004562
0.122400 0.003982 0.005030
0.119170 0.006936 -0.005927
0.121680 0.004811 -0.000968
0.119680 0.006574 -0.002438
0.120010 0.005006 0.006871
0.121390 0.005098 -0.003711
0.119890 0.006429 -0.003785
0.121600 0.004891 0.001035
0.122620 0.003676 -0.005684
0.121330 0.004112 -0.006886
0.121030 0.005447 -0.001720
0.119670 0.006586 0.001590
0.120340 0.006054 -0.006704
0.119230 0.006896 -0.005190
0.122400 0.003980 0.004381
0.120260 0.006125 -0.002420
0.122320 0.004078 -0.002115
0.119170 0.005481 -0.006887
0.121620 0.004871 -0.003229
0.120390 0.006020 0.003538
0.122580 0.003738 0.000693
0.120340 0.006065 0.002297
0.119250 0.006892 0.005929
-0.012678 0.010885 -0.005836
-0.013029 0.009244 0.006136
-0.011597 0.010892 -0.001380
-0.011251 0.010898 0.005215
-0.013029 0.009104 -0.004543
-0.012366 0.010891 0.000396
-0.013033 0.010378 -0.006282
-0.013030 0.009628 0.002681
-0.013030 0.009540 -0.003661
-0.010955 0.010894 -0.001371
-0.011389 0.010880 -0.006886
-0.011176 0.010894 -0.000820
-0.011378 0.010894 0.000547
-0.012568 0.010891 0.001336
-0.012602 0.010894 0.006186
-0.011183 0.010897 0.003194
-0.012007 0.010895 0.005426
-0.010888 0.010893 -0.002702
-0.012667 0.010886 -0.005091
-0.013027 0.008646 0.004050
-0.011637 0.010896 0.004710
-0.012868 0.010892 0.003935
-0.011027 0.010896 0.002028
-0.013028 0.008884 -0.005956
-0.010884 0.010895 0.000177
-0.013034 0.010877 0.001845
-0.012986 0.008888 -0.006885
-0.012659 0.010887 -0.004354
-0.010930 0.010900 0.006377
-0.011858 0.010892 -0.000326
-0.011447 0.010889 -0.006325
-0.012865 0.010891 0.002738
-0.013033 0.010398 0.006200
-0.012294 0.010558 -0.006886
-0.011792 0.010894 0.002907
-0.011821 0.010897 0.006328
-0.013030 0.009614 0.006612
-0.013029 0.009323 0.004217
-0.013027 0.008670 -0.003645
-0.012911 0.009116 0.006872
-0.012123 0.008919 0.006872
-0.013033 0.010346 0.003984
-0.013034 0.010680 0.004889
-0.013030 0.009577 0.004825
-0.012420 0.010888 -0.003035
-0.011263 0.009900 0.006871
-0.012048 0.010890 -0.002604
-0.012591 0.010885 -0.006427
-0.011730 0.010260 -0.006886
-0.013031 0.009778 -0.004804
-0.013032 0.010278 0.002321
-0.011931 0.010889 -0.003813
-0.013020 0.010891 0.003361
-0.013033 0.010329 -0.004701
-0.011077 0.010898 0.004208
-0.011677 0.010895 0.003576
-0.011374 0.009813 -0.006886
-0.012306 0.010892 0.002484
-0.012545 0.009939 -0.006886
-0.011252 0.010891 -0.004057
-0.013034 0.010653 -0.003880
-0.012865 0.010893 0.005605
-0.012072 0.010887 -0.005911
-0.013031 0.009899 0.005303
-0.011575 0.009193 0.006872
-0.010989 0.010457 0.006871
-0.011521 0.010897 0.005738
-0.012965 0.009455 -0.006885
-0.012344 0.010894 0.004953
-0.013016 0.010164 0.006871
-0.013031 0.009791 -0.006355
-0.011606 0.010894 0.001850
-0.011024 0.010891 -0.005273
-0.012255 0.010893 0.003703
-0.012235 0.010890 -0.001848
-0.011420 0.008755 -0.006885
-0.012527 0.010887 -0.003759
-0.012262 0.010890 -0.001162
-0.012407 0.010892 0.003077
-0.013032 0.010214 -0.005457
-0.012196 0.009315 -0.006885
-0.012011 0.010144 0.006871
-0.011876 0.010889 -0.004831
-0.011521 0.010898 0.006861
-0.013032 0.010103 0.003250
-0.012374 0.009485 0.006872
-0.013030 0.009522 -0.005824
-0.011317 0.010892 -0.003339
-0.011128 0.010893 -0.002030
-0.013031 0.009775 0.003755
-0.011097 0.009285 -0.006885
-0.012947 0.010878 0.006871
-0.011632 0.010889 -0.005344
-0.012016 0.010892 0.000945
-0.013031 0.009895 0.005924
-0.012874 0.010598 -0.006886
-0.011883 0.010890 -0.003241
-0.011756 0.010895 0.004141
-0.012365 0.010893 0.004286
-0.012335 0.010895 0.006706
-0.013030 0.009417 -0.005231
-0.013028 0.008995 0.005544
-0.011200 0.010895 0.001112
-0.013031 0.009629 -0.004259
-0.011468 0.010892 -0.002796
-0.006666 0.009340 -0.006885
-0.010296 0.010895 -0.003854
-0.006069 0.010914 0.004558
-0.009054 0.010901 -0.000396
-0.009795 0.009700 0.006871
-0.005916 0.010910 -0.002736
-0.010456 0.010896 -0.000631
-0.008948 0.010898 -0.005489
-0.009795 0.010896 -0.004659
-0.008016 0.010908 0.005524
-0.008444 0.010899 -0.006239
-0.006585 0.010635 0.006871
-0.010592 0.010901 0.006862
-0.010178 0.010496 0.006871
-0.009824 0.010897 -0.002710
-0.010636 0.010898 0.003013
-0.006056 0.010309 0.006871
-0.007083 0.010912 0.006227
-0.009839 0.010901 0.003623
-0.009038 0.010904 0.003645
-0.008393 0.010901 -0.003115
-0.010785 0.008798 -0.006885
-0.008674 0.010901 -0.002370
-0.009631 0.010897 -0.004065
-0.008002 0.010907 0.003298
-0.009154 0.009261 -0.006885
-0.007920 0.010903 -0.002787
-0.007876 0.009907 -0.006886
-0.006722 0.010907 -0.002208
-0.006414 0.010910 -0.000140
-0.007734 0.010903 -0.003649
-0.009591 0.010904 0.006430
-0.010217 0.010896 -0.001558
-0.006927 0.010908 -0.000994
-0.008976 0.010899 -0.003881
-0.008345 0.010905 0.001497
-0.006270 0.010696 -0.006886
-0.008740 0.010901 -0.001764
-0.008864 0.010901 -0.001192
-0.009783 0.010895 -0.005996
-0.008745 0.010648 0.006871
-0.010623 0.010892 -0.006733
-0.008275 0.010903 -0.000553
-0.006276 0.010910 -0.000920
-0.010205 0.010895 -0.003232
-0.009134 0.010905 0.005666
-0.009461 0.010899 -0.001587
-0.009883 0.010898 -0.000121
-0.009425 0.010900 0.000558
-0.010125 0.010898 0.000760
-0.007612 0.010909 0.004324
-0.006967 0.010904 -0.006588
-0.006781 0.010348 -0.006886
-0.010727 0.010898 0.003592
-0.010851 0.008756 0.006872
-0.007835 0.010910 0.006262
-0.006432 0.010913 0.005269
-0.010664 0.010893 -0.004579
-0.007474 0.010907 0.001489
-0.010583 0.010892 -0.006159
-0.010068 0.010894 -0.005208
-0.010138 0.010900 0.002594
-0.007035 0.009991 0.006871
-0.007161 0.010905 -0.003464
-0.006736 0.010907 -0.002842
-0.009743 0.010119 -0.006886
-0.006273 0.009058 0.006872
-0.007332 0.010907 0.000150
-0.007085 0.010910 0.003998
-0.007547 0.010906 -0.000645
-0.009408 0.010904 0.005013
-0.008558 0.010905 0.002738
-0.008625 0.010903 0.000198
-0.008355 0.010900 -0.005637
-0.010766 0.010061 -0.006886
-0.006649 0.010906 -0.005075
-0.008468 0.010738 -0.006886
-0.006318 0.010906 -0.005916
-0.008467 0.010906 0.003610
-0.009709 0.009199 -0.006885
-0.007477 0.010411 0.006871
-0.009127 0.010897 -0.006092
-0.007799 0.010826 -0.006886
-0.010248 0.008828 0.006872
-0.008335 0.010901 -0.003938
-0.007866 0.010901 -0.006283
-0.006131 0.010910 -0.001610
-0.006085 0.010912 0.002178
-0.010131 0.010596 -0.006886
-0.009347 0.010899 -0.002192
-0.007290 0.010903 -0.005737
-0.005994 0.010912 0.000542
-0.009104 0.010902 0.001658
-0.010580 0.009454 0.006872
-0.010604 0.010900 0.005315
-0.006066 0.010913 0.003359
-0.008188 0.009179 -0.006885
-0.009434 0.010895 -0.006664
-0.008975 0.010905 0.004454
-0.010308 0.010896 -0.002394
-0.007467 0.010903 -0.004639
-0.006490 0.009665 0.006871
-0.008130 0.009277 0.006872
-0.009140 0.009254 0.006872
-0.006889 0.009180 0.006872
-0.009311 0.010898 -0.003011
-0.009128 0.010898 -0.004580
-0.006158 0.010908 -0.003469
-0.009658 0.010900 0.001194
-0.010282 0.010902 0.006192
-0.008540 0.009850 -0.006886
-0.008259 0.010904 0.000763
-0.009630 0.010902 0.004251
-0.007462 0.010905 -0.002410
-0.010312 0.009943 0.006871
-0.008218 0.010901 -0.004869
-0.008032 0.010258 0.006871
-0.006710 0.010909 0.000351
-0.009779 0.010898 -0.000771
-0.009072 0.010062 -0.006886
-0.006809 0.010910 0.001920
-0.006201 0.010912 0.002759
-0.007350 0.009242 -0.006885
-0.007704 0.010907 0.002461
-0.009049 0.010903 0.003081
-0.008562 0.010904 0.002127
-0.006976 0.010905 -0.004072
-0.008735 0.009664 0.006871
-0.007422 0.010906 -0.001257
-0.007291 0.010911 0.005224
-0.010858 0.010899 0.004772
-0.010542 0.010897 0.001198
-0.010009 0.010902 0.005210
-0.007414 0.010290 -0.006886
-0.009348 0.010505 0.006871
-0.006820 0.010909 0.001098
-0.008088 0.010904 -0.001234
-0.008067 0.010905 0.000201
-0.009615 0.010902 0.003019
-0.007393 0.010905 -0.001850
-0.007312 0.010909 0.002972
-0.008570 0.010907 0.006380
-0.006750 0.010912 0.004664
-0.007687 0.010902 -0.005180
-0.007528 0.009481 0.006872
-0.010130 0.008748 -0.006885
-0.006239 0.010911 0.001474
-0.008278 0.010907 0.004823
-0.010237 0.010901 0.004552
-0.006992 0.010910 0.002461
-0.005983 0.009545 -0.006886
-0.007600 0.008669 -0.006885
-0.006422 0.010914 0.006210
-0.009863 0.010900 0.002100
-0.007299 0.010908 0.000774
-0.006777 0.010911 0.003270
-0.009186 0.010903 0.002539
-0.008596 0.010906 0.005371
-0.006410 0.010907 -0.004095
-0.005904 0.010907 -0.006323
-0.006137 0.010908 -0.004746
-0.009664 0.009044 0.006872
-0.007945 0.010906 0.001937
-0.006539 0.010912 0.003792
-0.006848 0.010912 0.005662
-0.007610 0.010909 0.003750
-0.006083 0.010907 -0.005382
-0.009809 0.010903 0.005758
-0.006975 0.009814 -0.006886
-0.006974 0.008701 -0.006885
-0.010404 0.010898 0.001846
-0.010429 0.009540 -0.006886
-0.008032 0.010903 -0.001853
-0.008889 0.010903 0.001132
-0.007243 0.010912 0.006773
-0.007029 0.010908 -0.000329
-0.008342 0.010906 0.004180
-0.009446 0.010896 -0.005173
-0.007958 0.010910 0.006830
-0.006105 0.010916 0.006801
-0.002960 0.008920 -0.006885
-0.005461 0.010914 0.001788
-0.003630 0.010922 0.003898
-0.004304 0.010920 0.004060
-0.004793 0.010632 -0.006886
-0.002265 0.010920 -0.004507
-0.001783 0.010927 0.003167
-0.004456 0.010912 -0.006269
-0.004061 0.010916 -0.002697
-0.001076 0.010927 -0.000190
-0.002837 0.010924 0.003528
-0.001092 0.010925 -0.002687
-0.004670 0.010913 -0.003321
-0.002651 0.010922 -0.000624
-0.004006 0.010917 -0.000931
-0.001873 0.010925 0.000021
-0.004947 0.010246 0.006871
-0.003093 0.010918 -0.003211
-0.005284 0.008918 -0.006885
-0.005819 0.010914 0.003930
-0.002403 0.010919 -0.005075
-0.005476 0.010912 -0.000995
-0.002590 0.010921 -0.002173
-0.003235 0.010923 0.004592
-0.003301 0.010916 -0.005236
-0.002029 0.010920 -0.006204
-0.004032 0.010788 -0.006886
-0.001720 0.010923 -0.003430
-0.001703 0.010160 -0.006886
-0.003193 0.010921 0.000514
-0.003170 0.010916 -0.006759
-0.003160 0.010920 -0.000371
-0.001928 0.010924 -0.000872
-0.003927 0.010921 0.004720
-0.005020 0.008945 0.006872
-0.002071 0.010368 0.006871
-0.002689 0.010926 0.006441
-0.005197 0.010911 -0.003516
-0.005548 0.010909 -0.005631
-0.001462 0.010923 -0.004411
-0.002687 0.010321 -0.006886
-0.005478 0.010912 -0.001998
-0.002637 0.008923 0.006872
-0.005725 0.010916 0.005600
-0.000992 0.010370 0.006871
-0.005606 0.010912 -0.000448
-0.002796 0.010918 -0.005562
-0.000939 0.010925 -0.003803
-0.005094 0.010917 0.004468
-0.003411 0.009274 -0.006886
-0.001628 0.010929 0.004800
-0.002293 0.009071 -0.006885
-0.004384 0.010917 0.000074
-0.005500 0.010914 0.001185
-0.003885 0.010923 0.006546
-0.004480 0.010920 0.005994
-0.001460 0.010926 0.000630
-0.004542 0.010918 0.002691
-0.002205 0.009530 0.006871
-0.002079 0.010925 0.000919
-0.002811 0.010920 -0.002697
-0.005072 0.009531 -0.006886
-0.001513 0.010930 0.006294
-0.002326 0.009758 -0.006886
-0.002721 0.010922 0.000878
-0.001509 0.010930 0.005562
-0.001952 0.010923 -0.001452
-0.005314 0.010909 -0.006261
-0.001293 0.009852 0.006871
-0.002321 0.010921 -0.003453
-0.005688 0.010084 -0.006886
-0.001033 0.010929 0.001963
-0.005068 0.010917 0.003705
-0.002896 0.009519 -0.006886
-0.005014 0.010918 0.005239
-0.003048 0.009626 0.006871
-0.004598 0.010915 -0.000849
-0.004988 0.010914 0.006870
-0.005627 0.010914 0.002965
-0.001055 0.010926 -0.001685
-0.004764 0.010914 -0.002305
-0.001123 0.009320 0.006871
-0.004143 0.010391 0.006871
-0.005719 0.010916 0.006386
-0.003358 0.010921 0.001178
-0.003759 0.010231 -0.006886
-0.004960 0.010911 -0.004596
-0.002728 0.010924 0.002906
-0.002204 0.010927 0.005243
-0.003415 0.010921 0.001799
-0.003416 0.010917 -0.004455
-0.001313 0.010923 -0.005624
-0.002845 0.010918 -0.004732
-0.002051 0.010919 -0.006840
-0.003868 0.010922 0.005783
-0.003184 0.010206 0.006871
-0.002769 0.010925 0.004193
-0.002608 0.010926 0.004776
-0.001497 0.010928 0.003824
-0.001160 0.010926 -0.001007
-0.003792 0.010917 -0.001606
-0.005730 0.010907 -0.006882
-0.002115 0.010925 0.001480
-0.002195 0.010925 0.002557
-0.004762 0.010912 -0.005148
-0.004301 0.010917 0.001103
-0.003984 0.010919 0.002295
-0.001802 0.010926 0.001999
-0.002538 0.010923 0.000067
-0.001674 0.010881 0.006870
-0.003094 0.010835 0.006870
-0.003913 0.008633 0.006872
-0.003626 0.009565 0.006871
-0.002663 0.010921 -0.001372
-0.003451 0.010918 -0.002588
-0.003867 0.010916 -0.003619
-0.000955 0.010923 -0.006596
-0.001777 0.010921 -0.005146
-0.005757 0.009822 0.006871
-0.003261 0.008930 0.006872
-0.001464 0.010928 0.002491
-0.001519 0.010921 -0.006505
-0.002066 0.010927 0.003973
-0.005324 0.010914 0.000476
-0.004486 0.010919 0.004597
-0.001714 0.010924 -0.002206
-0.004382 0.010920 0.005231
-0.001111 0.009387 -0.006886
-0.005128 0.010918 0.006278
-0.003710 0.010919 -0.000112
-0.005319 0.010915 0.002447
-0.004864 0.010916 0.000877
-0.004248 0.010913 -0.005419
-0.002651 0.010918 -0.006388
-0.004324 0.009333 -0.006886
-0.003272 0.010919 -0.001160
-0.002621 0.010266 0.006871
-0.005817 0.008678 0.006872
-0.004572 0.010913 -0.003952
-0.001420 0.010927 0.001524
-0.001652 0.008907 0.006872
-0.001930 0.010922 -0.004009
-0.001730 0.009473 -0.006886
-0.000874 0.010128 -0.006886
-0.004735 0.010914 -0.001536
-0.003278 0.010924 0.005234
-0.004195 0.010918 0.001653
-0.003238 0.010919 -0.001741
-0.004086 0.010914 -0.004808
-0.003565 0.010915 -0.005851
-0.004405 0.009325 0.006872
-0.003361 0.009836 -0.006886
-0.003129 0.010925 0.006033
-0.005178 0.009672 0.006871
-0.005517 0.010909 -0.004992
-0.002722 0.010919 -0.003978
-0.003989 0.010918 0.000564
-0.004328 0.010919 0.003418
-0.005652 0.010916 0.005025
-0.005168 0.010912 -0.002763
-0.001737 0.010923 -0.002769
-0.004735 0.010018 -0.006886
-0.002946 0.010923 0.002145
-0.003402 0.010922 0.002706
-0.002119 0.010928 0.006435
-0.002538 0.010926 0.005874
-0.000909 0.010932 0.006486
-0.004186 0.010916 -0.002097
-0.003274 0.010917 -0.003841
-0.001304 0.010565 -0.006886
-0.001515 0.008943 -0.006885
-0.003703 0.010921 0.003286
-0.005528 0.010910 -0.004349
-0.005073 0.010914 -0.000194
-0.004877 0.010911 -0.005901
-0.004848 0.010916 0.001575
-0.004975 0.010917 0.003087
-0.004712 0.010917 0.002116
-0.005530 0.010711 0.006871
-0.003702 0.010914 -0.006410
-0.001113 0.010930 0.004250
0.002005 0.010941 0.005286
0.000999 0.010936 0.003026
0.002997 0.009989 -0.006886
0.000690 0.010197 -0.006886
0.001724 0.008787 0.006872
-0.000341 0.010927 -0.003158
0.002896 0.010941 0.000513
-0.000557 0.010929 0.000690
0.003075 0.010943 0.003833
0.003891 0.010943 -0.000598
-0.000459 0.010929 -0.000192
0.003688 0.010945 0.003368
0.002691 0.010938 0.006870
0.002595 0.010935 -0.006782
0.001024 0.010096 0.006871
0.001480 0.010938 0.004103
0.002091 0.010940 0.003350
0.000577 0.010934 0.002214
-0.000103 0.010931 0.001485
0.003585 0.010945 0.004479
0.000584 0.010930 -0.003697
0.002230 0.010942 0.006265
-0.000240 0.010516 0.006871
-0.000146 0.010933 0.003759
0.003490 0.008744 0.006872
-0.000157 0.010927 -0.005221
0.001577 0.010940 0.006154
0.001480 0.010938 0.003534
-0.000397 0.009320 -0.006886
0.001486 0.010934 -0.002740
0.000395 0.010934 0.003368
0.000732 0.010934 0.001535
0.001895 0.010940 0.004574
0.003017 0.010944 0.005678
0.002222 0.010936 -0.002915
0.002477 0.010940 0.002058
0.002198 0.010934 -0.005653
0.000401 0.010936 0.005972
0.003545 0.010932 -0.006887
0.001213 0.008658 -0.006885
0.001122 0.010938 0.004580
0.001631 0.009418 0.006871
-0.000008 0.010933 0.002781
0.000917 0.009205 0.006871
0.003746 0.010942 -0.001379
0.001761 0.010934 -0.004116
0.003137 0.010937 -0.005201
0.004028 0.010948 0.005764
-0.000106 0.010930 -0.001205
0.001486 0.010931 -0.006074
-0.000848 0.010924 -0.006003
-0.000188 0.010870 -0.006887
0.000701 0.010929 -0.006539
0.002153 0.010938 0.000173
0.002886 0.008959 0.006872
0.001294 0.010935 0.000600
0.002341 0.010369 -0.006886
0.002628 0.010939 -0.000504
-0.000068 0.010926 -0.006061
0.001227 0.010931 -0.005551
0.004101 0.010940 -0.005428
0.002654 0.010943 0.004988
0.003256 0.010937 -0.006387
0.001862 0.010935 -0.002145
0.004008 0.010939 -0.006557
0.003312 0.010943 0.001948
0.000106 0.010929 -0.002787
0.001514 0.010933 -0.003578
-0.000193 0.010934 0.006187
0.002058 0.010938 0.001309
0.002908 0.010942 0.002598
0.002886 0.010936 -0.005880
0.002551 0.009080 -0.006886
-0.000707 0.010932 0.005821
0.001936 0.010937 -0.000407
0.001006 0.010931 -0.004597
0.004019 0.010946 0.003832
-0.000778 0.010932 0.004867
-0.000272 0.010931 0.002054
0.002321 0.010935 -0.004724
0.002482 0.010936 -0.003426
-0.000045 0.010934 0.005515
0.001697 0.010932 -0.006881
0.002735 0.010942 0.003269
0.002235 0.010937 -0.001524
-0.000253 0.009927 -0.006886
0.001463 0.010937 0.002637
0.002025 0.009836 0.006871
0.002425 0.010942 0.004211
0.000301 0.010931 -0.001648
0.003717 0.010945 0.002650
0.003529 0.009715 -0.006886
-0.000678 0.010931 0.003145
0.000361 0.010935 0.004303
0.001867 0.010936 -0.001042
0.003247 0.010941 -0.000243
0.001319 0.009311 -0.006886
0.000357 0.010932 0.000577
0.003462 0.010940 -0.003074
-0.000179 0.010929 -0.001945
0.003796 0.008766 -0.006885
0.003314 0.009118 -0.006886
0.003522 0.009863 0.006871
0.001166 0.010934 -0.001038
0.002847 0.010938 -0.002994
0.000101 0.010936 0.006707
0.001292 0.009937 -0.006886
0.002926 0.009586 0.006871
0.003540 0.010946 0.006051
0.001352 0.010936 0.001622
0.002670 0.010940 0.001253
0.001915 0.010007 -0.006886
0.000494 0.010928 -0.005685
0.000181 0.010441 -0.006886
-0.000732 0.010930 0.002573
0.003400 0.010939 -0.004697
0.001569 0.010932 -0.005030
-0.000811 0.010931 0.003758
0.003919 0.010945 0.002117
0.000251 0.009453 0.006871
0.001137 0.010933 -0.002282
0.003588 0.010946 0.005339
0.003800 0.010943 0.000252
0.000603 0.008840 -0.006885
0.002920 0.010945 0.006305
0.003584 0.010943 0.001056
0.002577 0.010938 -0.002091
0.001375 0.010935 -0.000361
0.000233 0.010928 -0.004410
0.000734 0.010931 -0.002807
-0.000443 0.010932 0.004404
0.003846 0.010948 0.006694
0.001682 0.010939 0.006870
0.003302 0.010940 -0.002106
0.000623 0.009409 -0.006886
0.002551 0.010208 0.006871
0.003267 0.010941 -0.001032
0.003771 0.010405 0.006870
0.000873 0.010937 0.005091
0.001113 0.010891 0.006870
0.000542 0.010381 0.006871
0.001998 0.010933 -0.006367
-0.000091 0.008971 0.006872
0.002268 0.010940 0.002758
0.002066 0.010523 0.006870
-0.000596 0.010928 -0.000878
-0.000658 0.010925 -0.004573
0.003650 0.010940 -0.003957
0.000612 0.010932 -0.001124
0.000719 0.010936 0.003857
0.001909 0.009372 -0.006886
0.001059 0.010657 -0.006887
0.004128 0.010943 -0.002447
0.002227 0.009217 0.006871
-0.000589 0.009639 0.006871
0.000137 0.010931 -0.000548
0.000495 0.008819 0.006872
0.003677 0.010939 -0.005871
-0.000097 0.009955 0.006871
0.003630 0.010280 -0.006886
0.003230 0.010656 0.006870
0.001287 0.010939 0.005602
0.004018 0.009112 0.006871
0.001206 0.010932 -0.004053
0.000211 0.010935 0.004921
-0.000680 0.008809 0.006872
0.000642 0.010929 -0.005079
0.003096 0.010938 -0.003637
0.002142 0.010938 0.000737
-0.000860 0.010929 0.001275
-0.000790 0.010925 -0.005180
-0.000202 0.010927 -0.003854
0.000945 0.010938 0.006298
0.000884 0.010934 -0.000050
-0.000549 0.010927 -0.002430
0.001575 0.010935 -0.001586
0.000878 0.010932 -0.001659
0.002773 0.010937 -0.004135
0.002915 0.010939 -0.001609
0.000501 0.010931 -0.002201
0.002675 0.010939 -0.001071
0.008489 0.010956 -0.003044
0.005823 0.010953 0.005424
0.009028 0.010959 -0.001155
0.005462 0.010950 0.001675
0.005203 0.010950 0.004072
0.007310 0.009677 0.006871
0.008627 0.010956 -0.004837
0.008243 0.010961 0.004638
0.006580 0.010956 0.005103
0.008523 0.010958 -0.000772
0.007189 0.010954 -0.000255
0.004693 0.010942 -0.006581
0.008820 0.009062 -0.006886
0.006795 0.010950 -0.003984
0.005400 0.010949 0.000955
0.004307 0.010943 -0.003245
0.006069 0.009206 -0.006886
0.008697 0.010963 0.005725
0.007680 0.010954 -0.002854
0.008593 0.010959 0.000105
0.008586 0.010633 -0.006887
0.005525 0.010953 0.006122
0.007556 0.010951 -0.006359
0.004848 0.010948 0.002901
0.007802 0.010602 -0.006887
0.007988 0.010957 0.000090
0.005667 0.010948 -0.001819
0.008431 0.009689 0.006871
0.008117 0.010956 -0.001508
0.005442 0.010945 -0.005220
0.008270 0.010953 -0.006274
0.006401 0.010951 -0.001194
0.004859 0.010950 0.004526
0.007237 0.010953 -0.002113
0.004223 0.010943 -0.001725
0.004952 0.010950 0.005165
0.004229 0.010945 0.000944
0.004494 0.010947 0.002313
0.008012 0.010960 0.003967
0.005900 0.010951 0.001210
0.005681 0.009969 -0.006886
0.007839 0.009485 0.006871
0.009100 0.010958 -0.003346
0.008416 0.010954 -0.005636
0.005258 0.010944 0.006870
0.008302 0.010959 0.001753
0.008861 0.010955 -0.006502
0.006580 0.009965 -0.006886
0.008414 0.010957 -0.002327
0.009049 0.010960 -0.000530
0.007921 0.010953 -0.004655
0.008670 0.010961 0.003712
0.006702 0.010954 0.002801
0.008894 0.008972 0.006871
0.007471 0.010957 0.002307
0.005956 0.010952 0.002311
0.005864 0.010814 0.006870
0.005233 0.010181 0.006871
0.005664 0.010948 -0.001150
0.007055 0.010957 0.005527
0.005211 0.009626 -0.006886
0.006229 0.010955 0.006363
0.006884 0.010954 0.001630
0.004386 0.010385 0.006870
0.007268 0.010958 0.004915
0.004787 0.010942 -0.005971
0.008136 0.010962 0.006311
0.007033 0.010852 0.006870
0.007763 0.010958 0.003384
0.005634 0.010804 -0.006887
0.005390 0.010948 -0.000270
0.007235 0.010951 -0.005497
0.006137 0.010946 -0.006602
0.006753 0.010956 0.004525
0.005251 0.010945 -0.004560
0.008770 0.010960 0.000670
0.004736 0.010943 -0.004954
0.007724 0.010960 0.006719
0.006288 0.010950 -0.001886
0.007811 0.010955 -0.002129
0.009130 0.010964 0.004580
0.008368 0.010960 0.003141
0.008407 0.009932 -0.006886
0.007355 0.010952 -0.003404
0.006041 0.010410 -0.006887
0.004819 0.010947 0.001044
0.005582 0.010951 0.003615
0.006673 0.010955 0.003375
0.004755 0.010950 0.005878
0.006824 0.010950 -0.004764
0.004377 0.008739 -0.006885
0.005412 0.009026 -0.006886
0.005698 0.009082 0.006871
0.005077 0.010949 0.002079
0.004421 0.010946 0.006870
0.004145 0.010948 0.005154
0.004182 0.010945 0.001532
0.004187 0.010941 -0.004397
0.008984 0.010957 -0.004092
0.009064 0.010959 -0.002104
0.008047 0.010959 0.002520
0.006944 0.008733 -0.006885
0.005816 0.010947 -0.003514
0.007652 0.008747 -0.006886
0.006043 0.010952 0.003033
0.006055 0.010947 -0.004545
0.007112 0.010958 0.006229
0.006623 0.008660 0.006872
0.004373 0.010944 -0.001177
0.005467 0.010944 -0.006270
0.004936 0.010945 -0.002482
0.006629 0.010952 -0.000472
0.004178 0.010397 -0.006886
0.007435 0.010958 0.004137
0.007486 0.009457 -0.006886
0.007538 0.010430 0.006870
0.004978 0.010947 0.000410
0.004177 0.009822 0.006871
0.006754 0.010229 0.006871
0.006835 0.009351 -0.006886
0.006052 0.010272 0.006870
0.008216 0.010958 0.001018
0.006084 0.009503 0.006871
0.006560 0.010953 0.001174
0.004794 0.009166 -0.006886
0.006319 0.010948 -0.005263
0.007898 0.010960 0.005690
0.006568 0.010950 -0.003084
0.006854 0.010956 0.003955
0.004996 0.010945 -0.003245
0.007459 0.010956 0.001078
0.005970 0.010948 -0.002834
0.005856 0.010946 -0.005661
0.004252 0.009551 -0.006886
0.006014 0.010953 0.004146
0.008255 0.009189 -0.006886
0.006618 0.010956 0.005889
0.008160 0.010575 0.006870
0.009074 0.010571 0.006870
0.008373 0.010962 0.005267
0.004220 0.010940 -0.006014
0.007934 0.010953 -0.005356
0.008958 0.010962 0.003220
0.006345 0.010953 0.001877
0.004426 0.010945 0.000157
0.004475 0.010948 0.003461
0.005012 0.009058 0.006871
0.004687 0.010943 -0.003897
0.004916 0.010946 -0.000800
0.007366 0.010954 -0.001216
0.007650 0.010953 -0.003970
0.006858 0.010951 -0.002571
0.005545 0.009697 0.006871
0.005964 0.010950 -0.000357
0.005488 0.010952 0.004881
0.008976 0.010221 -0.006886
0.009046 0.010961 0.001257
0.007595 0.010957 0.001682
0.004936 0.010946 -0.001403
0.007430 0.010069 -0.006886
0.005420 0.010946 -0.004000
0.006791 0.010953 0.000480
0.004259 0.010948 0.004488
0.006908 0.010523 -0.006887
0.006107 0.010951 0.000691
0.007754 0.010956 -0.000691
0.006425 0.010948 -0.005879
0.008608 0.010960 0.002340
0.007403 0.010955 0.000485
0.004763 0.010459 -0.006886
0.005489 0.010950 0.002683
0.006770 0.009406 0.006871
0.006746 0.010948 -0.006526
0.008411 0.010955 -0.004026
0.006915 0.010952 -0.001567
0.007612 0.008897 0.006871
0.006038 0.010954 0.004708
0.004279 0.010947 0.002877
0.004728 0.009730 0.006871
0.008622 0.010963 0.006636
0.007961 0.010954 -0.003370
0.005552 0.010949 0.000264
0.006894 0.010955 0.002202
0.013956 0.010979 0.006870
0.009797 0.010960 -0.004260
0.013169 0.010969 -0.006827
0.012820 0.010970 -0.004105
0.009453 0.010964 0.003977
0.013353 0.010975 0.001728
0.010181 0.010964 -0.000476
0.013150 0.010977 0.005027
0.010345 0.010968 0.004605
0.012227 0.010363 -0.006887
0.010042 0.009171 0.006871
0.012174 0.010974 0.005032
0.012874 0.010441 -0.006887
0.009888 0.010752 -0.006887
0.012080 0.009542 -0.006886
0.014119 0.010981 0.006243
0.010800 0.010966 -0.000188
0.010295 0.010965 0.000819
0.013271 0.010978 0.006314
0.013001 0.010972 -0.001719
0.010696 0.010962 -0.005510
0.010508 0.010961 -0.006305
0.010394 0.009228 -0.006886
0.011839 0.010969 0.000167
0.010343 0.010962 -0.003391
0.011372 0.010972 0.006619
0.013480 0.010971 -0.004628
0.012431 0.010974 0.004498
0.013257 0.010236 0.006870
0.012282 0.010818 0.006870
0.009614 0.010958 -0.006231
0.011101 0.010964 -0.003558
0.013787 0.010976 0.001160
0.013821 0.010974 -0.001861
0.012281 0.010968 -0.003287
0.013178 0.010973 -0.000958
0.010007 0.010965 0.002243
0.011044 0.010968 0.001385
0.010182 0.010968 0.006646
0.009172 0.010965 0.006409
0.013317 0.010972 -0.003770
0.012305 0.010970 -0.000567
0.012821 0.010969 -0.005791
0.010974 0.010965 -0.002188
0.010750 0.010964 -0.002707
0.011803 0.010968 -0.002119
0.012434 0.009341 0.006871
0.011988 0.010972 0.003202
0.010760 0.010970 0.006496
0.012237 0.010971 0.001173
0.012209 0.010969 -0.001466
0.009528 0.010960 -0.002446
0.012858 0.010974 0.002327
0.013807 0.010975 -0.001158
0.010830 0.010969 0.003875
0.012547 0.010973 0.001720
0.012918 0.010971 -0.003013
0.012756 0.010975 0.003960
0.011678 0.010965 -0.005888
0.013804 0.010972 -0.005136
0.012511 0.010968 -0.004764
0.009283 0.010706 -0.006887
0.013989 0.010974 -0.003540
0.009228 0.010962 0.002056
0.012556 0.010967 -0.006370
0.009558 0.008747 0.006872
0.012219 0.010967 -0.005580
0.012675 0.010976 0.006401
0.009618 0.010959 -0.004856
0.011836 0.010966 -0.004409
0.009648 0.010963 0.001015
0.009301 0.009713 -0.006886
0.009999 0.010967 0.005354
0.013082 0.010974 0.001163
0.010407 0.010966 0.002644
0.012350 0.010971 0.000580
0.013111 0.009086 0.006871
0.013489 0.010979 0.005788
0.011025 0.010358 0.006870
0.010154 0.010962 -0.002665
0.013980 0.010978 0.001964
0.014021 0.009469 0.006871
0.010635 0.010969 0.005712
0.011157 0.010967 0.000514
0.013128 0.009011 -0.006886
0.009846 0.010963 0.000004
0.010966 0.008933 -0.006886
0.010957 0.010939 -0.006887
0.009612 0.010966 0.005783
0.010500 0.010962 -0.004064
0.012667 0.009824 -0.006886
0.013940 0.010979 0.004247
0.009357 0.010957 -0.005640
0.012627 0.010974 0.003410
0.013647 0.010975 -0.000096
0.011378 0.010971 0.004110
0.011268 0.010964 -0.004399
0.011532 0.010196 -0.006887
0.013966 0.010979 0.003566
0.011671 0.010964 -0.006763
0.010765 0.009094 0.006871
0.013764 0.010379 -0.006887
0.012535 0.010136 0.006870
0.009131 0.010964 0.005249
0.013420 0.010975 0.000548
0.013562 0.010976 0.002350
0.013436 0.010971 -0.005664
0.010279 0.009810 -0.006886
0.013413 0.010977 0.004468
0.011831 0.008643 0.006872
0.012513 0.010975 0.005540
0.011091 0.010969 0.003286
0.011772 0.009480 0.006871
0.011997 0.010974 0.006126
0.013720 0.010974 -0.002510
0.013697 0.010979 0.005255
0.010683 0.010967 0.002134
0.011330 0.008920 0.006871
0.011609 0.010966 -0.003840
0.010797 0.010965 -0.001240
0.010849 0.009631 -0.006886
0.009519 0.010964 0.003057
0.011897 0.010263 0.006870
0.012892 0.010972 -0.000461
0.013182 0.010970 -0.005103
0.009786 0.010966 0.004657
0.009787 0.009187 -0.006886
0.012117 0.010972 0.002552
0.011074 0.010963 -0.006159
0.009578 0.010961 -0.000793
0.011104 0.010969 0.002613
0.009540 0.010961 -0.001638
0.013326 0.010792 0.006870
0.014027 0.010293 0.006870
0.012748 0.010971 -0.002308
0.009838 0.010328 0.006870
0.010433 0.010963 -0.001834
0.010343 0.010967 0.003217
0.011058 0.010966 -0.000701
0.011774 0.010972 0.004589
0.013422 0.010977 0.003118
0.012782 0.010972 0.000113
0.010946 0.010244 -0.006887
0.010968 0.010970 0.004794
0.010062 0.010960 -0.005605
0.010056 0.010966 0.004100
0.013612 0.010973 -0.003099
0.009736 0.010960 -0.003548
0.011262 0.009841 0.006871
0.009253 0.009600 0.006871
0.011736 0.010968 -0.000786
0.011271 0.010966 -0.001697
0.011502 0.010972 0.005860
0.011510 0.010966 -0.003075
0.010487 0.010962 -0.004858
0.009444 0.010962 0.000493
0.011610 0.010972 0.005200
0.013921 0.008868 0.006871
0.011516 0.010965 -0.004977
0.011695 0.010970 0.001324
