ply
format ascii 1.0
element vertex 1680
property float x
property float y
property float z
end_header
-0.065158 0.004643 0.000281
-0.063474 0.004011 0.000282
-0.063468 0.005691 0.000315
-0.062753 0.006085 -0.000286
-0.062171 0.005130 -0.000285
-0.063519 0.007274 -0.000286
-0.063309 0.006650 -0.000286
-0.065231 0.008141 -0.000287
-0.061030 0.004597 -0.000285
-0.064732 0.007853 0.000279
-0.065050 0.005906 -0.000285
-0.061925 0.004685 0.000281
-0.061925 0.007121 0.000280
-0.064348 0.006857 -0.000286
-0.064242 0.004542 0.000281
-0.065572 0.006613 0.000280
-0.062176 0.007743 0.000279
-0.062324 0.005121 0.000281
-0.062979 0.008158 -0.000287
-0.064432 0.004005 0.000282
-0.063970 0.006441 -0.000286
-0.065505 0.004315 -0.000284
-0.063249 0.006222 0.000280
-0.065390 0.005239 0.000281
-0.063880 0.005333 -0.000285
-0.060939 0.004031 -0.000284
-0.065162 0.003444 -0.000284
-0.061609 0.004290 -0.000284
-0.061702 0.006809 -0.000286
-0.062797 0.007742 0.000279
-0.061353 0.004972 0.000281
-0.063029 0.004204 -0.000284
-0.064390 0.006710 0.000280
-0.061948 0.003421 0.000282
-0.061814 0.008172 0.000279
-0.062795 0.003532 -0.000284
-0.061712 0.003958 0.000282
-0.061777 0.006218 -0.000286
-0.063100 0.003388 0.000282
-0.062917 0.005339 0.000281
-0.064381 0.004398 -0.000284
-0.063557 0.006957 0.000280
-0.063780 0.003532 0.000282
-0.065503 0.007216 0.000280
-0.062106 0.005816 0.000315
-0.064488 0.006127 -0.000286
-0.062218 0.004208 0.000282
-0.061104 0.007158 0.000280
-0.056918 0.005587 0.000315
-0.057411 0.005905 0.000315
-0.058741 0.006084 0.000280
-0.059497 0.004315 0.000281
-0.056346 0.005726 0.000280
-0.057665 0.004558 0.000281
-0.058277 0.007901 0.000279
-0.059592 0.004179 -0.000284
-0.056038 0.007719 -0.000287
-0.060162 0.004928 -0.000285
-0.060708 0.007971 0.000279
-0.059618 0.006637 0.000280
-0.057825 0.007884 -0.000287
-0.058856 0.007918 0.000279
-0.058038 0.007250 -0.000286
-0.056687 0.006288 -0.000286
-0.060303 0.003455 -0.000284
-0.059872 0.008001 0.000279
-0.058083 0.003985 -0.000284
-0.058277 0.005392 -0.000285
-0.056839 0.003605 -0.000284
-0.059625 0.007143 -0.000286
-0.056422 0.004012 -0.000284
-0.059229 0.005875 -0.000285
-0.058054 0.005928 0.000280
-0.059800 0.003812 0.000282
-0.059318 0.007494 0.000279
-0.060600 0.005242 0.000281
-0.056701 0.007724 0.000279
-0.056789 0.007109 -0.000286
-0.058496 0.006725 -0.000286
-0.055980 0.003444 -0.000284
-0.058949 0.003896 -0.000284
-0.056538 0.004216 0.000281
-0.059217 0.003498 0.000282
-0.057511 0.007186 0.000279
-0.059563 0.005059 0.000281
-0.056867 0.004738 -0.000285
-0.057098 0.008204 0.000279
-0.056157 0.006774 -0.000286
-0.058810 0.004436 0.000281
-0.060196 0.004765 0.000281
-0.058323 0.004748 0.000281
-0.057536 0.005234 -0.000285
-0.060272 0.005798 -0.000285
-0.057486 0.003802 0.000282
-0.056047 0.005216 -0.000285
-0.056315 0.007103 0.000279
-0.060486 0.003984 0.000282
-0.060022 0.006330 -0.000286
-0.058889 0.005367 -0.000285
-0.057108 0.004863 0.000281
-0.056891 0.003288 0.000282
-0.059878 0.007268 0.000279
-0.057349 0.006575 -0.000286
-0.058682 0.007321 0.000279
-0.058072 0.006185 -0.000286
-0.057700 0.005423 0.000281
-0.058577 0.005943 -0.000286
-0.060441 0.006403 0.000280
-0.060231 0.004027 -0.000284
-0.056114 0.007981 0.000279
-0.058437 0.005513 0.000281
-0.058555 0.003853 0.000282
-0.056915 0.007000 0.000280
-0.056442 0.004795 0.000281
-0.059376 0.004714 -0.000285
-0.058932 0.007429 -0.000287
-0.060862 0.007962 -0.000287
-0.056439 0.006380 0.000280
-0.057745 0.008145 0.000279
-0.056714 0.008266 -0.000287
-0.056460 0.005657 -0.000285
-0.057267 0.007670 -0.000287
-0.059421 0.005800 0.000315
-0.059056 0.008196 -0.000287
-0.056960 0.005391 -0.000285
-0.057220 0.004269 -0.000284
-0.060177 0.005624 0.000315
-0.058115 0.006517 0.000280
-0.057679 0.003554 -0.000284
-0.057288 0.006500 0.000280
-0.058653 0.004640 -0.000285
-0.055883 0.003362 0.000282
-0.057967 0.004837 -0.000285
-0.058094 0.007219 0.000279
-0.057216 0.005910 -0.000286
-0.058879 0.005051 0.000281
-0.060648 0.006848 -0.000286
-0.059143 0.006480 -0.000286
-0.058935 0.006641 0.000280
-0.060775 0.005203 -0.000285
-0.060142 0.007482 -0.000287
-0.059849 0.005417 -0.000285
-0.059543 0.007882 -0.000287
-0.060363 0.006973 0.000280
-0.055997 0.004448 0.000281
-0.056081 0.006155 -0.000286
-0.052170 0.003309 -0.000284
-0.052140 0.007560 -0.000287
-0.053629 0.005638 -0.000285
-0.053772 0.004780 0.000281
-0.051362 0.007851 -0.000287
-0.055161 0.005122 0.000281
-0.051481 0.006322 0.000280
-0.053716 0.007998 -0.000287
-0.053352 0.007171 -0.000287
-0.051882 0.004560 -0.000285
-0.050888 0.003837 -0.000284
-0.052661 0.004769 0.000281
-0.051813 0.007528 0.000279
-0.054412 0.004955 0.000281
-0.053252 0.008065 0.000279
-0.055162 0.003348 -0.000284
-0.053283 0.003873 -0.000284
-0.051362 0.005313 -0.000285
-0.055753 0.006510 0.000280
-0.053005 0.007293 0.000279
-0.055861 0.004574 -0.000285
-0.051785 0.005842 0.000315
-0.052054 0.006539 0.000280
-0.050873 0.007010 0.000279
-0.054742 0.004467 -0.000285
-0.055010 0.006230 0.000280
-0.055519 0.005958 -0.000286
-0.052216 0.004055 -0.000284
-0.052507 0.005341 -0.000285
-0.053070 0.006036 0.000280
-0.051468 0.004121 0.000281
-0.051443 0.006946 -0.000286
-0.052956 0.006487 -0.000286
-0.055130 0.005522 -0.000285
-0.053111 0.004336 0.000281
-0.051564 0.005240 0.000281
-0.055613 0.008211 -0.000287
-0.054901 0.006983 -0.000286
-0.053338 0.004977 -0.000285
-0.054824 0.004006 0.000282
-0.054184 0.006437 0.000280
-0.055812 0.005000 0.000281
-0.054093 0.005574 0.000280
-0.054256 0.008232 -0.000287
-0.054092 0.004740 -0.000285
-0.053570 0.006195 -0.000286
-0.052555 0.006936 -0.000286
-0.052638 0.005652 0.000280
-0.055598 0.004026 0.000282
-0.055625 0.007498 0.000279
-0.055523 0.007149 -0.000286
-0.053863 0.003926 -0.000284
-0.055292 0.003384 0.000282
-0.054131 0.006955 -0.000286
-0.054554 0.003736 -0.000284
-0.053174 0.005176 0.000281
-0.054407 0.007548 -0.000287
-0.054748 0.007529 0.000279
-0.054369 0.003564 0.000282
-0.055312 0.004584 0.000281
-0.051128 0.005693 0.000280
-0.053558 0.003385 -0.000284
-0.055308 0.007964 0.000279
-0.051923 0.003749 0.000282
-0.051012 0.003689 0.000282
-0.052695 0.008210 0.000279
-0.052323 0.007097 0.000279
-0.053783 0.007603 0.000279
-0.055612 0.005823 0.000315
-0.053023 0.007648 -0.000287
-0.052398 0.007736 0.000279
-0.052166 0.005278 0.000281
-0.055295 0.004153 -0.000284
-0.055312 0.006582 -0.000286
-0.054847 0.006204 -0.000286
-0.051924 0.005395 -0.000285
-0.051227 0.007860 0.000279
-0.052914 0.004319 -0.000285
-0.052668 0.003372 0.000282
-0.052548 0.006045 -0.000286
-0.053394 0.003760 0.000282
-0.055290 0.006977 0.000280
-0.051964 0.006171 -0.000286
-0.052719 0.003665 -0.000284
-0.052534 0.004012 0.000281
-0.052560 0.006279 0.000280
-0.054923 0.007795 -0.000287
-0.051995 0.006774 -0.000286
-0.053088 0.005792 -0.000286
-0.052091 0.004627 0.000281
-0.054302 0.005326 -0.000285
-0.054787 0.005560 0.000315
-0.051471 0.006885 0.000279
-0.050880 0.007299 -0.000287
-0.051109 0.004893 0.000281
-0.054135 0.006376 -0.000286
-0.053555 0.006702 0.000280
-0.054699 0.006861 0.000280
-0.052021 0.008154 -0.000287
-0.054170 0.008176 0.000279
-0.053548 0.005740 0.000280
-0.055426 0.004969 -0.000285
-0.051119 0.004807 -0.000285
-0.054099 0.004216 0.000281
-0.054204 0.007213 0.000279
-0.051226 0.006088 -0.000286
-0.051456 0.003778 -0.000284
-0.048766 0.004950 0.000281
-0.048863 0.003424 0.000282
-0.046789 0.006136 0.000280
-0.046789 0.004709 0.000281
-0.047417 0.003369 0.000282
-0.049306 0.008031 -0.000287
-0.050329 0.007049 -0.000287
-0.046048 0.005455 0.000280
-0.046876 0.007170 0.000279
-0.049823 0.008256 0.000278
-0.046771 0.003798 -0.000284
-0.050858 0.005646 -0.000286
-0.050310 0.007781 -0.000287
-0.047070 0.004222 0.000281
-0.050557 0.005130 0.000281
-0.048848 0.008235 0.000278
-0.047295 0.007830 -0.000287
-0.049301 0.006196 0.000314
-0.049991 0.004349 -0.000285
-0.048129 0.004011 0.000281
-0.048196 0.007970 0.000279
-0.048324 0.007130 0.000279
-0.049253 0.005502 0.000280
-0.047312 0.006386 0.000280
-0.047450 0.007289 0.000279
-0.050788 0.006695 -0.000286
-0.050090 0.007519 0.000279
-0.047989 0.006378 0.000280
-0.049648 0.006125 -0.000286
-0.046351 0.005420 -0.000286
-0.047920 0.007490 -0.000287
-0.047267 0.004825 -0.000285
-0.049452 0.007324 -0.000287
-0.047487 0.004956 0.000281
-0.050743 0.004466 0.000281
-0.048504 0.006333 -0.000286
-0.047589 0.007991 0.000279
-0.048494 0.005591 -0.000286
-0.049528 0.004116 0.000281
-0.049006 0.004357 -0.000285
-0.046199 0.003843 0.000281
-0.048953 0.004112 0.000281
-0.046524 0.006686 0.000279
-0.048284 0.004875 -0.000285
-0.046183 0.006072 -0.000286
-0.047296 0.005579 -0.000286
-0.049134 0.005803 -0.000286
-0.049696 0.007086 0.000279
-0.050153 0.006639 0.000280
-0.046537 0.008100 0.000278
-0.047848 0.005818 0.000315
-0.050573 0.004663 -0.000285
-0.046211 0.007269 0.000279
-0.047900 0.005384 -0.000285
-0.048666 0.003749 -0.000284
-0.050194 0.003313 -0.000284
-0.047960 0.004359 -0.000285
-0.050075 0.003281 0.000282
-0.050127 0.003907 0.000281
-0.046791 0.003429 0.000282
-0.050359 0.005747 0.000315
-0.049483 0.004872 -0.000285
-0.047456 0.003720 -0.000284
-0.049356 0.004765 0.000281
-0.050624 0.008068 0.000279
-0.049487 0.007737 0.000279
-0.046304 0.004174 -0.000285
-0.047298 0.005590 0.000315
-0.048764 0.007744 -0.000287
-0.048516 0.005520 0.000280
-0.050088 0.004821 0.000281
-0.046730 0.005843 -0.000286
-0.050775 0.006239 0.000314
-0.048130 0.004910 0.000281
-0.047808 0.006092 -0.000286
-0.047110 0.006903 -0.000287
-0.050268 0.005905 -0.000286
-0.049543 0.003342 -0.000284
-0.046830 0.004443 -0.000285
-0.047208 0.006216 -0.000286
-0.048837 0.007488 0.000279
-0.050004 0.005360 -0.000285
-0.046379 0.006686 -0.000286
-0.048988 0.005190 -0.000285
-0.050118 0.006487 -0.000286
-0.046616 0.005384 0.000280
-0.049421 0.003913 -0.000284
-0.046688 0.007418 -0.000287
-0.045936 0.004422 0.000281
-0.048038 0.003796 -0.000284
-0.047744 0.006656 -0.000286
-0.048802 0.007150 -0.000287
-0.047689 0.004418 0.000281
-0.046249 0.008030 -0.000287
-0.048845 0.006709 0.000280
-0.049804 0.005931 0.000280
-0.046062 0.006320 0.000314
-0.049531 0.003529 0.000282
-0.049838 0.005353 0.000280
-0.049120 0.006489 -0.000286
-0.043892 0.005043 0.000281
-0.045078 0.007645 0.000279
-0.045780 0.006789 -0.000287
-0.044749 0.006908 -0.000287
-0.044973 0.003513 -0.000284
-0.044864 0.007963 -0.000287
-0.042386 0.005429 0.000280
-0.045371 0.004394 0.000281
-0.045196 0.005398 0.000280
-0.043178 0.006870 -0.000287
-0.041886 0.006384 0.000280
-0.043357 0.004629 -0.000285
-0.044198 0.006702 0.000279
-0.045790 0.007670 -0.000287
-0.040982 0.005492 -0.000286
-0.044277 0.008152 -0.000288
-0.041028 0.007445 0.000279
-0.045334 0.006453 -0.000286
-0.045740 0.003513 0.000282
-0.043877 0.003960 -0.000285
-0.041460 0.004902 -0.000285
-0.043631 0.003934 0.000281
-0.044076 0.003396 -0.000284
-0.042445 0.008064 0.000278
-0.042332 0.007420 -0.000287
-0.045102 0.007040 0.000279
-0.042978 0.007237 0.000279
-0.042479 0.004035 -0.000285
-0.041948 0.005269 -0.000286
-0.041297 0.004511 0.000281
-0.044515 0.003922 -0.000285
-0.042865 0.006006 0.000314
-0.044343 0.008188 0.000278
-0.041579 0.005773 0.000314
-0.044368 0.003580 0.000282
-0.043561 0.006389 -0.000286
-0.044439 0.006113 -0.000286
-0.041848 0.007749 0.000279
-0.043986 0.007408 -0.000287
-0.045443 0.004098 -0.000285
-0.042860 0.003533 0.000282
-0.042514 0.008200 -0.000288
-0.041325 0.006614 -0.000287
-0.041601 0.007712 -0.000287
-0.044050 0.004326 0.000281
-0.043491 0.007715 -0.000287
-0.045856 0.004565 -0.000285
-0.043423 0.005708 0.000314
-0.041251 0.003575 -0.000284
-0.041915 0.005967 -0.000286
-0.044182 0.005938 0.000314
-0.041254 0.003626 0.000281
-0.044853 0.004918 0.000281
-0.044877 0.006467 0.000280
-0.044614 0.004832 -0.000285
-0.041666 0.007095 0.000279
-0.045087 0.005908 -0.000286
-0.041826 0.003737 -0.000285
-0.042543 0.006723 0.000279
-0.042743 0.004253 0.000281
-0.043332 0.005460 -0.000286
-0.042097 0.004359 0.000281
-0.041737 0.006999 -0.000287
-0.044772 0.005867 0.000280
-0.041074 0.004379 -0.000285
-0.045839 0.003657 -0.000284
-0.045620 0.006804 0.000279
-0.043006 0.007903 0.000279
-0.041928 0.005050 0.000280
-0.044036 0.004613 -0.000285
-0.044949 0.003902 0.000281
-0.043061 0.004024 -0.000285
-0.044488 0.007273 0.000279
-0.041064 0.006183 0.000314
-0.042248 0.003783 0.000281
-0.045423 0.004923 -0.000285
-0.044417 0.005382 0.000280
-0.040883 0.004112 0.000281
-0.043716 0.008045 0.000278
-0.043092 0.004932 0.000281
-0.043823 0.007150 0.000279
-0.041132 0.005116 0.000280
-0.045749 0.008221 0.000278
-0.042498 0.004825 0.000281
-0.042350 0.003314 -0.000284
-0.043453 0.006588 0.000279
-0.042554 0.006817 -0.000287
-0.043254 0.003317 -0.000284
-0.045417 0.008143 -0.000287
-0.042599 0.005635 -0.000286
-0.042302 0.004597 -0.000285
-0.044180 0.005244 -0.000286
-0.045483 0.006163 0.000280
-0.042769 0.005021 -0.000285
-0.045780 0.005542 -0.000286
-0.042439 0.007422 0.000279
-0.044184 0.006824 -0.000287
-0.045188 0.007480 -0.000287
-0.045646 0.007528 0.000279
-0.043071 0.006030 -0.000286
-0.042849 0.007659 -0.000287
-0.040923 0.006758 0.000279
-0.037863 0.006250 0.000314
-0.036771 0.007648 -0.000287
-0.039915 0.006669 -0.000287
-0.037479 0.007869 0.000278
-0.040647 0.003782 -0.000285
-0.037322 0.006998 -0.000287
-0.036352 0.005078 0.000280
-0.039865 0.006877 0.000279
-0.040827 0.006250 -0.000286
-0.040137 0.005188 0.000280
-0.040239 0.004069 0.000281
-0.040591 0.005867 0.000314
-0.040455 0.004597 0.000281
-0.038585 0.007960 0.000278
-0.040360 0.008134 0.000278
-0.036863 0.004808 0.000280
-0.035932 0.006684 -0.000287
-0.039146 0.003669 0.000281
-0.039372 0.005932 0.000280
-0.037200 0.005276 0.000280
-0.035955 0.004064 -0.000285
-0.038500 0.007345 -0.000287
-0.035993 0.005712 0.000314
-0.038781 0.006442 0.000279
-0.038138 0.006042 -0.000286
-0.039789 0.003594 -0.000285
-0.036940 0.003309 0.000281
-0.036585 0.005977 0.000280
-0.038693 0.003705 -0.000285
-0.039102 0.007181 -0.000287
-0.039432 0.005368 -0.000286
-0.038744 0.004883 0.000280
-0.038056 0.005393 -0.000286
-0.040262 0.006196 -0.000286
-0.036174 0.006889 0.000279
-0.040591 0.007731 -0.000287
-0.038783 0.005647 -0.000286
-0.036733 0.006821 -0.000287
-0.040415 0.004426 -0.000285
-0.037408 0.004548 0.000281
-0.037190 0.007132 0.000279
-0.037685 0.006545 -0.000287
-0.037428 0.005213 -0.000286
-0.038947 0.005409 0.000280
-0.039350 0.004831 0.000281
-0.039347 0.008095 0.000278
-0.036501 0.007977 0.000278
-0.039398 0.007395 0.000279
-0.037242 0.006202 0.000314
-0.037481 0.003607 -0.000285
-0.036217 0.004854 -0.000285
-0.038176 0.008039 -0.000288
-0.038347 0.004325 -0.000285
-0.037600 0.003520 0.000281
-0.036827 0.004227 0.000281
-0.038048 0.003635 -0.000285
-0.036071 0.008211 -0.000288
-0.039223 0.006809 0.000279
-0.036326 0.003422 0.000281
-0.037479 0.005875 -0.000286
-0.039075 0.006439 -0.000286
-0.036133 0.007505 -0.000287
-0.036637 0.004001 -0.000285
-0.038636 0.004825 -0.000285
-0.038798 0.007331 0.000279
-0.038361 0.004392 0.000281
-0.040307 0.005273 -0.000286
-0.036490 0.006291 -0.000286
-0.036572 0.005662 -0.000286
-0.038715 0.007891 -0.000287
-0.038073 0.007702 0.000279
-0.040442 0.006436 0.000279
-0.037816 0.004974 0.000280
-0.036776 0.004984 -0.000286
-0.037038 0.008161 -0.000288
-0.040857 0.004898 -0.000285
-0.040821 0.006884 -0.000287
-0.037131 0.004356 -0.000285
-0.039126 0.004186 -0.000285
-0.038253 0.003805 0.000281
-0.038229 0.006836 -0.000287
-0.039723 0.005893 -0.000286
-0.039273 0.008219 -0.000288
-0.037786 0.004254 -0.000285
-0.036807 0.006720 0.000279
-0.038262 0.007096 0.000279
-0.039890 0.007536 -0.000287
-0.039583 0.005368 0.000280
-0.037814 0.007395 -0.000287
-0.038254 0.005431 0.000280
-0.039833 0.004511 -0.000285
-0.039841 0.006250 0.000280
-0.039745 0.003760 0.000281
-0.036142 0.007537 0.000279
-0.039143 0.003318 -0.000284
-0.040176 0.007456 0.000279
-0.039304 0.004792 -0.000285
-0.037711 0.005627 0.000280
-0.039067 0.004259 0.000281
-0.037962 0.004832 -0.000285
-0.037713 0.006928 0.000279
-0.039748 0.004424 0.000281
-0.033782 0.006491 0.000279
-0.035532 0.006876 0.000279
-0.034442 0.007348 0.000279
-0.031977 0.008235 0.000278
-0.034590 0.004963 -0.000286
-0.031456 0.005174 0.000280
-0.032412 0.005374 0.000280
-0.031904 0.004535 -0.000285
-0.033075 0.005113 0.000280
-0.035576 0.005094 0.000280
-0.032627 0.006779 0.000279
-0.033488 0.003755 -0.000285
-0.034989 0.007362 -0.000287
-0.032553 0.006167 -0.000286
-0.030937 0.004985 -0.000286
-0.031273 0.003769 0.000281
-0.033199 0.006560 -0.000287
-0.035469 0.004616 -0.000285
-0.035016 0.004052 0.000281
-0.033160 0.004825 -0.000286
-0.030878 0.004379 -0.000285
-0.035791 0.005667 -0.000286
-0.032062 0.004499 0.000281
-0.034823 0.008165 0.000278
-0.032354 0.007069 -0.000287
-0.035760 0.003337 0.000281
-0.034202 0.008060 0.000278
-0.034210 0.004328 -0.000285
-0.031023 0.008124 0.000278
-0.031028 0.005819 -0.000286
-0.032890 0.003952 -0.000285
-0.032995 0.005600 -0.000286
-0.031423 0.007372 -0.000287
-0.031779 0.003630 -0.000285
-0.031830 0.006003 0.000279
-0.035069 0.003421 0.000281
-0.034226 0.003394 0.000281
-0.033567 0.007207 -0.000287
-0.033012 0.007556 0.000278
-0.033735 0.005182 0.000280
-0.034939 0.004721 0.000280
-0.035225 0.006110 0.000280
-0.033913 0.008147 -0.000288
-0.032152 0.003701 0.000281
-0.035584 0.007302 -0.000287
-0.034297 0.004248 0.000281
-0.031570 0.006704 -0.000287
-0.034493 0.005660 0.000280
-0.031471 0.007946 -0.000288
-0.033063 0.007449 -0.000287
-0.031276 0.007317 0.000279
-0.034132 0.006758 -0.000287
-0.035820 0.004180 0.000281
-0.034888 0.006331 -0.000287
-0.033818 0.005681 -0.000286
-0.033404 0.003317 0.000281
-0.034927 0.005527 -0.000286
-0.033547 0.004392 -0.000285
-0.031300 0.006663 0.000279
-0.035482 0.007774 0.000278
-0.032286 0.007728 0.000278
-0.034932 0.006910 0.000279
-0.034420 0.007300 -0.000287
-0.031214 0.005728 0.000280
-0.035325 0.007817 -0.000288
-0.032117 0.006551 -0.000287
-0.031912 0.006593 0.000279
-0.033515 0.005745 0.000280
-0.034353 0.005004 0.000280
-0.031274 0.003984 -0.000285
-0.031921 0.007233 0.000279
-0.033761 0.004963 -0.000286
-0.031612 0.007789 0.000278
-0.033303 0.004587 0.000281
-0.034624 0.006405 0.000279
-0.031927 0.005999 -0.000286
-0.033400 0.003962 0.000281
-0.032864 0.004225 0.000281
-0.032998 0.006307 0.000279
-0.034918 0.004509 -0.000285
-0.032259 0.003989 -0.000285
-0.035063 0.005345 0.000280
-0.034604 0.007852 -0.000288
-0.033647 0.007566 0.000278
-0.032992 0.008189 -0.000288
-0.034922 0.003361 -0.000285
-0.032420 0.007994 -0.000288
-0.031509 0.004934 -0.000286
-0.033471 0.006973 0.000279
-0.034693 0.003908 -0.000285
-0.034158 0.003640 -0.000285
-0.035582 0.003482 -0.000285
-0.032505 0.004504 -0.000285
-0.031175 0.003300 -0.000285
-0.035418 0.005200 -0.000286
-0.032716 0.003611 0.000281
-0.032930 0.005744 0.000280
-0.031529 0.004300 0.000281
-0.034429 0.005921 -0.000286
-0.031067 0.004730 0.000280
-0.035795 0.006241 0.000314
-0.032188 0.005132 -0.000286
-0.030883 0.004168 0.000281
-0.031984 0.007502 -0.000287
-0.032556 0.004786 0.000280
-0.035359 0.006667 -0.000287
-0.025941 0.004014 -0.000285
-0.026426 0.006086 0.000279
-0.026510 0.004508 0.000280
-0.026830 0.006759 0.000279
-0.028698 0.004261 -0.000285
-0.027068 0.005103 0.000280
-0.028773 0.008111 -0.000288
-0.028629 0.004288 0.000281
-0.028888 0.005470 0.000280
-0.028834 0.006068 -0.000287
-0.029866 0.005983 0.000279
-0.027115 0.008036 0.000278
-0.029459 0.004198 -0.000285
-0.025953 0.005784 -0.000286
-0.028544 0.007131 -0.000287
-0.029623 0.004173 0.000281
-0.028065 0.004099 0.000281
-0.030402 0.004627 0.000280
-0.029479 0.008057 0.000278
-0.026965 0.004312 -0.000285
-0.030464 0.005301 0.000280
-0.028802 0.003292 -0.000285
-0.028014 0.007484 -0.000288
-0.029225 0.007545 0.000278
-0.029540 0.006609 0.000279
-0.026159 0.007149 -0.000287
-0.028288 0.005175 0.000280
-0.029793 0.004839 0.000280
-0.026167 0.004739 -0.000286
-0.026354 0.007968 0.000278
-0.027141 0.005932 0.000279
-0.029486 0.003522 -0.000285
-0.026456 0.003877 0.000281
-0.028337 0.005771 0.000280
-0.030087 0.007300 -0.000287
-0.028006 0.003407 0.000281
-0.026223 0.006833 0.000279
-0.027339 0.006654 -0.000287
-0.029948 0.007847 -0.000288
-0.026142 0.003427 -0.000285
-0.026762 0.007080 -0.000287
-0.030596 0.007458 0.000278
-0.030426 0.005902 -0.000286
-0.028117 0.007844 0.000278
-0.026434 0.005506 0.000280
-0.027686 0.005132 0.000280
-0.027782 0.004557 -0.000286
-0.030548 0.008064 -0.000288
-0.028442 0.006816 0.000279
-0.027789 0.006015 -0.000287
-0.026884 0.003610 -0.000285
-0.027241 0.007420 0.000278
-0.029438 0.004827 -0.000286
-0.030263 0.006490 -0.000287
-0.028860 0.006273 0.000279
-0.027733 0.006887 0.000279
-0.026048 0.004977 0.000280
-0.030587 0.003657 -0.000285
-0.027196 0.003856 0.000281
-0.030409 0.003380 0.000281
-0.029867 0.005335 -0.000286
-0.027455 0.004401 0.000280
-0.030000 0.007745 0.000278
-0.029758 0.005402 0.000280
-0.028987 0.005503 -0.000286
-0.030500 0.006055 0.000279
-0.025975 0.003436 0.000281
-0.030103 0.004333 -0.000285
-0.029943 0.007078 0.000279
-0.029197 0.004629 0.000280
-0.029077 0.007529 -0.000288
-0.030581 0.006706 0.000279
-0.028815 0.008220 0.000278
-0.027156 0.005653 -0.000286
-0.030853 0.006982 -0.000287
-0.026614 0.007328 0.000278
-0.028052 0.006511 -0.000287
-0.026732 0.006396 -0.000287
-0.028380 0.004720 -0.000286
-0.028493 0.007379 0.000278
-0.027590 0.007997 -0.000288
-0.027472 0.005131 -0.000286
-0.026981 0.007782 -0.000288
-0.030814 0.006375 -0.000287
-0.028602 0.003504 0.000281
-0.028382 0.005713 -0.000286
-0.027682 0.003408 -0.000285
-0.027774 0.005735 0.000280
-0.029731 0.006284 -0.000287
-0.029184 0.003731 0.000281
-0.029203 0.006791 -0.000287
-0.028264 0.003778 -0.000285
-0.027616 0.004011 -0.000285
-0.029678 0.003325 0.000281
-0.030448 0.005285 -0.000286
-0.027464 0.007198 -0.000287
-0.029340 0.008206 -0.000288
-0.026563 0.005658 -0.000286
-0.028080 0.005230 -0.000286
-0.030278 0.003932 0.000281
-0.026397 0.007676 -0.000288
-0.026801 0.005036 -0.000286
-0.029054 0.006967 0.000279
-0.028106 0.006332 0.000279
-0.024109 0.005390 -0.000286
-0.020941 0.005830 0.000279
-0.024875 0.006620 0.000279
-0.021895 0.003349 0.000281
-0.025510 0.007769 -0.000288
-0.024340 0.005086 0.000280
-0.020941 0.008169 -0.000288
-0.023177 0.007728 0.000278
-0.020975 0.004443 0.000280
-0.022417 0.004702 -0.000286
-0.025339 0.005791 -0.000286
-0.022704 0.006719 0.000279
-0.024025 0.006921 0.000279
-0.025598 0.006993 -0.000287
-0.021404 0.007773 -0.000288
-0.022805 0.004104 0.000281
-0.022087 0.004166 0.000280
-0.021949 0.005854 0.000279
-0.024157 0.005904 0.000279
-0.021866 0.004724 0.000280
-0.022549 0.007291 0.000278
-0.023996 0.003954 0.000281
-0.025212 0.005408 0.000280
-0.023226 0.003511 0.000281
-0.023221 0.004687 -0.000286
-0.020904 0.006921 0.000279
-0.022858 0.005557 0.000280
-0.024423 0.005890 -0.000287
-0.025292 0.004244 -0.000285
-0.023588 0.006834 -0.000287
-0.022298 0.005239 0.000280
-0.021392 0.007368 0.000278
-0.025325 0.004828 -0.000286
-0.021187 0.003494 -0.000285
-0.024156 0.006528 -0.000287
-0.021093 0.006956 -0.000287
-0.021282 0.005362 -0.000286
-0.024928 0.008123 0.000278
-0.023605 0.007567 -0.000288
-0.022062 0.006581 -0.000287
-0.025796 0.007675 0.000278
-0.024926 0.007465 0.000278
-0.022197 0.007464 -0.000288
-0.023976 0.004560 -0.000286
-0.023075 0.004020 -0.000285
-0.025025 0.006812 -0.000287
-0.022000 0.008021 0.000278
-0.022555 0.007868 0.000278
-0.023379 0.005005 0.000280
-0.022789 0.005889 -0.000287
-0.024550 0.003834 -0.000285
-0.023503 0.006186 0.000279
-0.021602 0.006300 0.000279
-0.021286 0.004151 -0.000285
-0.024223 0.008109 -0.000288
-0.024527 0.004948 -0.000286
-0.021648 0.004577 -0.000286
-0.021374 0.006145 -0.000287
-0.025833 0.006349 -0.000287
-0.022446 0.005321 -0.000286
-0.023838 0.005983 -0.000287
-0.025460 0.006797 0.000279
-0.021417 0.005507 0.000280
-0.023369 0.006893 0.000279
-0.024761 0.004486 0.000280
-0.025768 0.005243 -0.000286
-0.022848 0.006629 -0.000287
-0.023126 0.007181 -0.000287
-0.023823 0.005379 0.000280
-0.024272 0.008074 0.000278
-0.025303 0.004729 0.000280
-0.024917 0.006165 -0.000287
-0.022757 0.007837 -0.000288
-0.023808 0.003502 -0.000285
-0.025664 0.006142 0.000279
-0.025054 0.005984 0.000279
-0.021733 0.003611 -0.000285
-0.022485 0.004035 -0.000285
-0.022108 0.006873 0.000279
-0.023764 0.004481 0.000280
-0.022857 0.006144 0.000279
-0.021891 0.005674 -0.000286
-0.023450 0.005535 -0.000286
-0.023623 0.008199 0.000278
-0.025077 0.007406 -0.000288
-0.025697 0.003967 0.000281
-0.021897 0.008053 -0.000288
-0.025114 0.003654 -0.000285
-0.024607 0.003894 0.000281
-0.022511 0.004638 0.000280
-0.023664 0.004085 -0.000285
-0.025245 0.003622 0.000281
-0.024378 0.007110 -0.000287
-0.024277 0.007422 0.000278
-0.024777 0.008006 -0.000288
-0.021419 0.003958 0.000281
-0.025786 0.005554 0.000280
-0.020195 0.004370 -0.000286
-0.016984 0.006960 0.000278
-0.017504 0.006569 -0.000287
-0.020836 0.003714 0.000281
-0.017446 0.003512 0.000281
-0.019556 0.003615 -0.000285
-0.019470 0.004189 -0.000286
-0.017772 0.005623 -0.000287
-0.016431 0.004087 0.000280
-0.018973 0.007491 -0.000288
-0.018213 0.006016 -0.000287
-0.016232 0.004869 0.000280
-0.019246 0.006229 -0.000287
-0.019494 0.008074 0.000278
-0.018669 0.004900 -0.000286
-0.019721 0.004696 -0.000286
-0.019987 0.003767 0.000281
-0.015988 0.005557 -0.000287
-0.016574 0.005955 0.000279
-0.017085 0.005724 -0.000287
-0.018093 0.006991 -0.000287
-0.016714 0.003367 0.000281
-0.016654 0.006580 -0.000287
-0.020185 0.007139 -0.000288
-0.020743 0.005004 -0.000286
-0.016293 0.007457 0.000278
-0.019126 0.005253 -0.000286
-0.020065 0.004985 0.000280
-0.018060 0.005278 0.000280
-0.017594 0.003949 -0.000285
-0.016752 0.005087 -0.000286
-0.018541 0.006278 0.000279
-0.017558 0.007152 0.000278
-0.017552 0.004592 -0.000286
-0.016701 0.007676 -0.000288
-0.016050 0.007900 -0.000288
-0.019440 0.005489 0.000279
-0.020416 0.006353 0.000279
-0.018329 0.003889 0.000281
-0.018771 0.008014 -0.000288
-0.018063 0.008051 -0.000288
-0.016000 0.006450 -0.000287
-0.019770 0.007511 -0.000288
-0.016966 0.003923 -0.000285
-0.016901 0.004567 0.000280
-0.019765 0.006467 0.000279
-0.018667 0.006926 0.000278
-0.018215 0.004399 -0.000286
-0.019850 0.005878 0.000279
-0.017729 0.006005 0.000279
-0.018595 0.003726 -0.000285
-0.017833 0.007665 0.000278
-0.018072 0.006610 0.000279
-0.020279 0.007765 -0.000288
-0.019330 0.006886 -0.000287
-0.020748 0.007572 0.000278
-0.017181 0.005689 0.000279
-0.019112 0.006368 0.000279
-0.019193 0.003609 0.000281
-0.016391 0.007125 -0.000288
-0.017280 0.006476 0.000279
-0.015955 0.006448 0.000279
-0.019691 0.005565 -0.000286
-0.016364 0.003816 -0.000285
-0.020580 0.005900 -0.000287
-0.017831 0.004751 0.000280
-0.020071 0.006135 -0.000287
-0.016147 0.003450 0.000281
-0.020623 0.006466 -0.000287
-0.016831 0.007760 0.000278
-0.019136 0.004654 0.000280
-0.020765 0.004357 -0.000286
-0.020273 0.004416 0.000280
-0.020083 0.007238 0.000278
-0.016236 0.004760 -0.000286
-0.015934 0.004383 0.000280
-0.020638 0.005202 0.000280
-0.017730 0.004080 0.000280
-0.017057 0.003949 0.000280
-0.017415 0.007176 -0.000288
-0.016843 0.004533 -0.000286
-0.018500 0.007808 0.000278
-0.018688 0.005242 0.000280
-0.019242 0.007443 0.000278
-0.016459 0.005879 -0.000287
-0.017347 0.005087 0.000280
-0.016705 0.005323 0.000280
-0.019497 0.004110 0.000280
-0.018869 0.004228 -0.000286
-0.018767 0.005729 -0.000287
-0.020057 0.007842 0.000278
-0.020193 0.005241 -0.000286
-0.018172 0.005160 -0.000286
-0.020493 0.003845 -0.000285
-0.017575 0.007776 -0.000288
-0.018698 0.006986 -0.000287
-0.018444 0.004594 0.000280
-0.019338 0.006878 0.000279
-0.020757 0.007473 -0.000288
-0.016364 0.006870 0.000278
-0.017336 0.005185 -0.000286
-0.156470 0.008503 -0.000156
-0.156090 0.008713 0.000281
-0.153050 0.009894 -0.000285
-0.153330 0.009161 -0.000285
-0.153370 0.009984 0.000280
-0.152870 0.008358 0.000282
-0.151350 0.009992 -0.000286
-0.153880 0.009828 -0.000085
-0.152680 0.009522 0.000281
-0.152360 0.008733 -0.000285
-0.153060 0.008945 0.000281
-0.155650 0.008933 -0.000285
-0.154910 0.008718 0.000281
-0.152480 0.009980 -0.000286
-0.154570 0.009542 -0.000009
-0.151050 0.010379 0.000074
-0.154150 0.008488 0.000281
-0.154220 0.009189 0.000281
-0.151840 0.009108 -0.000285
-0.153540 0.008511 0.000281
-0.155340 0.009153 0.000281
-0.151040 0.009406 0.000281
-0.152020 0.009243 0.000281
-0.151530 0.009683 0.000281
-0.154970 0.008405 -0.000284
-0.155560 0.008479 0.000282
-0.154110 0.009069 -0.000285
-0.155140 0.009177 -0.000285
-0.152240 0.008698 0.000281
-0.152820 0.010141 0.000264
-0.152080 0.009999 0.000280
-0.153610 0.009368 0.000281
-0.151580 0.010308 0.000258
-0.150940 0.008981 -0.000285
-0.152360 0.009395 -0.000285
-0.151320 0.009419 -0.000285
-0.151730 0.008314 0.000281
-0.151510 0.008973 0.000281
-0.149420 0.010445 0.000098
-0.148660 0.010447 0.000145
-0.148810 0.010024 -0.000286
-0.148090 0.010405 -0.000286
-0.146140 0.008862 0.000281
-0.150330 0.008326 -0.000284
-0.147340 0.009879 -0.000286
-0.146110 0.010455 0.000263
-0.146560 0.009484 -0.000285
-0.147200 0.008849 -0.000285
-0.149250 0.009219 0.000281
-0.147520 0.010451 -0.000015
-0.146480 0.010454 -0.000193
-0.147720 0.008635 0.000281
-0.147310 0.009551 0.000281
-0.149750 0.008336 0.000281
-0.148220 0.009565 0.000281
-0.146020 0.008397 -0.000285
-0.150360 0.009464 -0.000285
-0.147590 0.009314 -0.000285
-0.150310 0.010235 -0.000286
-0.150840 0.008545 0.000281
-0.148000 0.010162 0.000280
-0.148870 0.008689 0.000281
-0.145950 0.010314 -0.000286
-0.149760 0.008545 -0.000285
-0.147860 0.008279 -0.000284
-0.146760 0.010026 0.000280
-0.150100 0.008830 0.000281
-0.149460 0.009426 -0.000285
-0.149840 0.009951 0.000280
-0.148300 0.008730 0.000281
-0.150450 0.010441 0.000223
-0.148220 0.009640 -0.000285
-0.146160 0.009818 0.000280
-0.148140 0.008794 -0.000285
-0.146670 0.009316 0.000281
-0.149690 0.009979 -0.000286
-0.146160 0.008953 -0.000285
-0.150300 0.009543 0.000281
-0.146280 0.008290 0.000281
-0.150380 0.008905 -0.000285
-0.148850 0.008723 -0.000285
-0.145910 0.009633 -0.000285
-0.147010 0.008772 0.000281
-0.148810 0.009697 0.000280
-0.148650 0.009255 -0.000285
-0.146590 0.008589 -0.000285
-0.142210 0.010338 -0.000286
-0.145130 0.008665 0.000281
-0.140970 0.009066 -0.000285
-0.144520 0.008281 0.000281
-0.141260 0.009627 -0.000286
-0.143890 0.010462 -0.000140
-0.145550 0.009235 0.000281
-0.143520 0.009360 -0.000285
-0.142810 0.009465 0.000280
-0.142540 0.008667 -0.000285
-0.141240 0.010471 0.000243
-0.140890 0.009184 0.000281
-0.145470 0.009151 -0.000285
-0.141280 0.008564 0.000281
-0.141510 0.009962 0.000280
-0.143770 0.009535 0.000280
-0.143130 0.009948 -0.000286
-0.142270 0.010468 0.000268
-0.144650 0.009324 0.000281
-0.142190 0.009664 0.000280
-0.143880 0.008816 -0.000285
-0.143180 0.010465 0.000084
-0.142510 0.009839 -0.000286
-0.144290 0.009814 0.000280
-0.144180 0.009971 -0.000286
-0.145370 0.010385 0.000280
-0.143010 0.008756 0.000281
-0.141710 0.010470 -0.000067
-0.144690 0.010460 -0.000171
-0.141870 0.008900 -0.000285
-0.145690 0.008525 0.000281
-0.145420 0.008312 -0.000285
-0.144530 0.008990 -0.000285
-0.143710 0.008664 0.000281
-0.145230 0.009739 -0.000286
-0.142900 0.009143 -0.000285
-0.143330 0.009922 0.000280
-0.143280 0.008714 -0.000285
-0.144670 0.009653 -0.000286
-0.142120 0.009072 0.000281
-0.145340 0.010438 -0.000286
-0.142750 0.010118 0.000280
-0.145530 0.009809 0.000280
-0.144830 0.010019 0.000280
-0.144870 0.008394 -0.000285
-0.144220 0.008942 0.000281
-0.139030 0.010478 -0.000166
-0.139140 0.009731 -0.000286
-0.137950 0.010482 0.000193
-0.136710 0.008930 -0.000285
-0.139920 0.008952 -0.000285
-0.137530 0.009234 0.000280
-0.140630 0.010473 0.000087
-0.138450 0.009270 -0.000285
-0.137060 0.010485 -0.000205
-0.139630 0.010221 -0.000286
-0.138220 0.009462 0.000280
-0.136870 0.010256 0.000280
-0.136250 0.010487 -0.000086
-0.140050 0.010475 0.000066
-0.140190 0.009909 0.000280
-0.136840 0.009561 0.000280
-0.136360 0.009417 -0.000286
-0.140720 0.009962 -0.000286
-0.135990 0.009949 -0.000286
-0.138150 0.008806 0.000281
-0.139030 0.010029 0.000280
-0.138080 0.009925 -0.000286
-0.137480 0.010160 0.000280
-0.136930 0.008291 -0.000285
-0.137490 0.008337 -0.000285
-0.137250 0.008634 0.000281
-0.138920 0.008890 -0.000285
-0.139420 0.009035 0.000281
-0.140110 0.009189 0.000281
-0.136460 0.009129 0.000280
-0.137550 0.009366 -0.000286
-0.138500 0.010276 0.000280
-0.136230 0.008463 0.000281
-0.139970 0.008564 0.000281
-0.140340 0.009488 -0.000286
-0.137940 0.008700 -0.000285
-0.139390 0.008474 -0.000285
-0.138390 0.010400 -0.000286
-0.139710 0.009575 -0.000286
-0.139560 0.009595 0.000280
-0.140450 0.008736 -0.000285
-0.137180 0.009844 -0.000286
-0.138530 0.008471 -0.000285
-0.137780 0.008377 0.000281
-0.138820 0.008607 0.000281
-0.140790 0.009839 0.000280
-0.138790 0.009355 0.000280
-0.140610 0.008312 0.000281
-0.135920 0.009539 0.000280
-0.135560 0.008735 0.000281
-0.131880 0.009730 0.000280
-0.134340 0.010494 0.000169
-0.133620 0.009186 0.000280
-0.131470 0.009107 -0.000286
-0.131930 0.009879 -0.000286
-0.135060 0.009507 -0.000286
-0.133300 0.010497 0.000224
-0.132730 0.010499 0.000062
-0.133980 0.010231 -0.000286
-0.131250 0.010504 0.000258
-0.133050 0.010011 -0.000286
-0.132190 0.008601 -0.000285
-0.131860 0.010502 -0.000155
-0.135460 0.010490 0.000014
-0.133730 0.008801 -0.000285
-0.134010 0.009592 0.000280
-0.131080 0.010043 -0.000286
-0.135110 0.010118 0.000280
-0.134310 0.008806 0.000281
-0.134250 0.008369 -0.000285
-0.133800 0.010123 0.000280
-0.132220 0.010345 0.000280
-0.132320 0.009346 -0.000286
-0.133240 0.008612 0.000281
-0.135090 0.009142 0.000280
-0.131160 0.008857 0.000281
-0.132590 0.008310 0.000281
-0.135770 0.010104 0.000280
-0.135640 0.009193 -0.000285
-0.134790 0.010492 -0.000273
-0.133060 0.009403 -0.000286
-0.132600 0.009932 0.000280
-0.133280 0.009702 0.000280
-0.134600 0.009850 0.000280
-0.132900 0.009183 0.000280
-0.135000 0.008601 -0.000285
-0.134480 0.009023 -0.000285
-0.132900 0.008566 -0.000285
-0.132330 0.009166 0.000280
-0.131770 0.009022 0.000280
-0.134400 0.009602 -0.000286
-0.131270 0.009423 0.000280
-0.132450 0.010092 -0.000286
-0.133850 0.009472 -0.000286
-0.128230 0.008500 -0.000285
-0.130820 0.009783 0.000280
-0.126880 0.010246 0.000279
-0.128560 0.008793 0.000280
-0.130480 0.009255 0.000280
-0.130330 0.010347 -0.000286
-0.127450 0.010093 0.000280
-0.129100 0.009947 0.000280
-0.126660 0.008574 0.000281
-0.125970 0.009349 -0.000286
-0.127950 0.010512 0.000279
-0.129990 0.008517 0.000281
-0.129410 0.010294 -0.000286
-0.128540 0.010090 0.000280
-0.126860 0.008686 -0.000285
-0.127540 0.008523 -0.000285
-0.127480 0.008806 0.000280
-0.128440 0.009287 -0.000286
-0.126640 0.009660 -0.000286
-0.129390 0.009174 -0.000286
-0.126330 0.010520 0.000141
-0.127800 0.009543 0.000280
-0.129090 0.009064 0.000280
-0.126130 0.009058 0.000280
-0.129920 0.010508 0.000197
-0.129130 0.009710 -0.000286
-0.127390 0.009544 -0.000286
-0.130120 0.009118 -0.000286
-0.129750 0.009820 0.000280
-0.127390 0.010516 -0.000203
-0.128300 0.010513 -0.000205
-0.126370 0.009970 0.000280
-0.128950 0.010511 0.000082
-0.130810 0.009479 -0.000286
-0.130300 0.009743 -0.000286
-0.126620 0.009459 0.000280
-0.130650 0.010381 0.000279
-0.130740 0.008461 0.000281
-0.126180 0.008520 -0.000285
-0.130860 0.008809 -0.000285
-0.126730 0.010260 -0.000286
-0.128110 0.008455 0.000281
-0.129660 0.009164 0.000280
-0.129370 0.008612 -0.000285
-0.125930 0.009628 0.000280
-0.128440 0.009512 0.000280
-0.128710 0.010127 -0.000286
-0.127950 0.009020 -0.000286
-0.127890 0.009847 -0.000286
-0.129340 0.008516 0.000281
-0.128030 0.009027 0.000280
-0.121530 0.008782 0.000280
-0.122820 0.009888 -0.000286
-0.124620 0.008296 0.000281
-0.123450 0.009115 0.000280
-0.120960 0.009807 -0.000286
-0.125460 0.010522 0.000050
-0.121160 0.010044 0.000279
-0.125710 0.009989 -0.000286
-0.122210 0.008780 0.000280
-0.125500 0.008960 -0.000286
-0.125770 0.008491 0.000281
-0.123510 0.010529 -0.000240
-0.121030 0.009379 0.000280
-0.124830 0.010524 -0.000280
-0.124050 0.009066 -0.000286
-0.124200 0.010504 -0.000287
-0.121330 0.008342 -0.000285
-0.122470 0.008403 -0.000285
-0.123990 0.010527 0.000266
-0.122120 0.010534 0.000277
-0.120950 0.010533 -0.000287
-0.125290 0.008279 -0.000285
-0.122750 0.008937 0.000280
-0.124910 0.009252 0.000280
-0.124590 0.008555 -0.000285
-0.122620 0.009364 -0.000286
-0.124150 0.009212 0.000280
-0.122020 0.009944 0.000280
-0.124700 0.009911 0.000280
-0.120890 0.009205 -0.000286
-0.123550 0.010184 0.000279
-0.122490 0.010532 -0.000152
-0.125480 0.009967 0.000280
-0.124530 0.009607 -0.000286
-0.123560 0.009729 -0.000286
-0.121500 0.010535 0.000046
-0.122030 0.009781 -0.000286
-0.124040 0.009854 0.000280
-0.125150 0.009916 -0.000286
-0.123360 0.008547 0.000281
-0.122840 0.009875 0.000280
-0.124690 0.010525 0.000267
-0.123130 0.009026 -0.000286
-0.121600 0.008900 -0.000286
-0.123070 0.010530 0.000174
-0.122810 0.008354 0.000281
-0.120900 0.008690 0.000280
-0.125490 0.009248 0.000280
-0.121470 0.009512 -0.000286
-0.125170 0.008562 0.000281
-0.122370 0.009347 0.000280
-0.123930 0.008609 0.000280
-0.121950 0.010380 -0.000287
-0.123710 0.008547 -0.000285
-0.121600 0.009395 0.000280
-0.124920 0.009174 -0.000286
-0.117890 0.008388 0.000280
-0.120120 0.008513 -0.000285
-0.119420 0.009430 0.000280
-0.117650 0.008365 -0.000285
-0.119960 0.009920 -0.000286
-0.117960 0.010547 -0.000228
-0.118700 0.008936 0.000280
-0.119990 0.010540 -0.000237
-0.117790 0.009994 0.000279
-0.120170 0.008743 0.000280
-0.116930 0.009950 0.000279
-0.118480 0.010245 0.000279
-0.117310 0.010549 0.000211
-0.119390 0.010542 -0.000014
-0.116730 0.010551 0.000034
-0.117170 0.008963 -0.000286
-0.117170 0.010188 -0.000287
-0.116330 0.009996 -0.000287
-0.118020 0.009078 -0.000286
-0.118860 0.009478 0.000280
-0.120550 0.010178 0.000279
-0.118360 0.009544 -0.000286
-0.116310 0.008991 0.000280
-0.120200 0.009676 0.000280
-0.115980 0.010553 0.000149
-0.116890 0.008612 0.000280
-0.117390 0.009541 -0.000286
-0.118730 0.010544 -0.000125
-0.119240 0.009997 0.000279
-0.116720 0.009383 -0.000286
-0.116880 0.008310 -0.000285
-0.119560 0.009074 -0.000286
-0.120760 0.008509 -0.000285
-0.116670 0.009440 0.000280
-0.119040 0.009531 -0.000286
-0.118140 0.009379 0.000280
-0.117880 0.009947 -0.000287
-0.116340 0.010080 0.000279
-0.119570 0.008768 0.000280
-0.118840 0.008955 -0.000286
-0.117360 0.009207 0.000280
-0.119380 0.008317 -0.000285
-0.118450 0.008361 0.000280
-0.120470 0.010153 -0.000287
-0.119850 0.010228 0.000279
-0.116490 0.008861 -0.000286
-0.115960 0.008633 -0.000286
-0.115870 0.008394 0.000280
-0.120250 0.009398 -0.000286
-0.111860 0.010567 0.000142
-0.110920 0.009881 -0.000287
-0.114100 0.009530 -0.000286
-0.113210 0.010562 -0.000013
-0.111220 0.010252 0.000279
-0.113840 0.009158 0.000280
-0.112300 0.009209 0.000280
-0.111140 0.008800 0.000280
-0.113260 0.008347 -0.000286
-0.112290 0.009608 -0.000286
-0.114950 0.009856 -0.000287
-0.113130 0.008777 0.000280
-0.115300 0.008345 -0.000286
-0.114410 0.010559 0.000138
-0.113520 0.009791 0.000279
-0.115170 0.010200 0.000279
-0.113690 0.008448 0.000280
-0.114940 0.010557 -0.000258
-0.113830 0.010228 -0.000287
-0.113100 0.009898 -0.000287
-0.114330 0.009993 0.000279
-0.111500 0.010399 -0.000287
-0.112600 0.010564 0.000180
-0.114350 0.008602 -0.000286
-0.111590 0.008478 0.000280
-0.114570 0.008873 0.000280
-0.112420 0.010174 -0.000287
-0.115560 0.009983 -0.000287
-0.115440 0.009010 -0.000286
-0.111730 0.008888 -0.000286
-0.115860 0.009400 -0.000286
-0.112760 0.009903 0.000279
-0.115600 0.009833 0.000279
-0.111860 0.009549 0.000279
-0.113120 0.009294 -0.000286
-0.113650 0.008879 -0.000286
-0.113810 0.010412 0.000279
-0.111070 0.009295 -0.000286
-0.114560 0.009211 -0.000286
-0.111690 0.009459 -0.000286
-0.112550 0.008687 -0.000286
-0.112090 0.008368 -0.000286
-0.114950 0.009601 0.000280
-0.115370 0.009220 0.000280
-0.113180 0.009349 0.000280
-0.111270 0.009611 0.000279
-0.112430 0.008462 0.000280
-0.110410 0.010001 0.000279
-0.106370 0.009228 0.000280
-0.106080 0.009009 -0.000286
-0.108950 0.010138 0.000279
-0.108500 0.009309 0.000280
-0.107040 0.008810 -0.000286
-0.106690 0.008605 0.000280
-0.109390 0.008494 -0.000286
-0.106460 0.009915 0.000279
-0.109030 0.010576 -0.000109
-0.106650 0.010464 0.000279
-0.107180 0.010582 -0.000125
-0.109590 0.009624 0.000279
-0.110390 0.008735 0.000280
-0.108090 0.008828 -0.000286
-0.107950 0.010577 -0.000287
-0.108690 0.008377 -0.000286
-0.107770 0.010550 0.000279
-0.108470 0.010578 0.000244
-0.109220 0.008968 0.000280
-0.108170 0.008619 0.000280
-0.107680 0.009466 -0.000286
-0.109970 0.010503 -0.000287
-0.106840 0.009424 -0.000286
-0.108360 0.010196 -0.000287
-0.109690 0.009055 -0.000286
-0.110740 0.010570 -0.000029
-0.110230 0.010562 0.000279
-0.109640 0.010574 0.000247
-0.108810 0.009484 -0.000286
-0.110360 0.009621 -0.000287
-0.106470 0.010575 -0.000287
-0.106010 0.008384 -0.000286
-0.107380 0.009960 0.000279
-0.110680 0.009256 0.000280
-0.109480 0.009889 -0.000287
-0.107930 0.009707 0.000279
-0.107030 0.009289 0.000280
-0.106050 0.010194 -0.000287
-0.107520 0.008539 0.000280
-0.109130 0.008335 0.000280
-0.108900 0.008930 -0.000286
-0.105950 0.009562 -0.000287
-0.110550 0.008381 -0.000286
-0.106870 0.010092 -0.000287
-0.110050 0.009231 0.000280
-0.107650 0.008425 -0.000286
-0.110340 0.009039 -0.000286
-0.102810 0.010399 -0.000287
-0.103760 0.009651 0.000279
-0.102980 0.010457 0.000279
-0.101050 0.010602 0.000143
-0.102160 0.009584 0.000279
-0.100870 0.008382 -0.000286
-0.102920 0.008349 -0.000286
-0.102520 0.008715 0.000280
-0.105810 0.010315 0.000279
-0.104120 0.010200 0.000279
-0.104320 0.009201 0.000279
-0.100910 0.009257 -0.000287
-0.101290 0.010016 0.000279
-0.101950 0.010334 -0.000287
-0.101090 0.009092 0.000279
-0.103750 0.010593 -0.000213
-0.103060 0.008426 0.000280
-0.102940 0.009328 -0.000287
-0.104940 0.010525 -0.000287
-0.103570 0.008874 0.000280
-0.105600 0.010587 -0.000248
-0.102400 0.010598 0.000047
-0.104370 0.008539 -0.000286
-0.103920 0.009166 -0.000286
-0.103390 0.009906 -0.000287
-0.101460 0.008413 0.000280
-0.101990 0.008543 -0.000286
-0.104410 0.010591 -0.000086
-0.105050 0.009530 0.000279
-0.105750 0.009317 0.000279
-0.101930 0.009074 0.000279
-0.101700 0.010600 0.000253
-0.105400 0.008937 -0.000286
-0.104480 0.010062 -0.000287
-0.104470 0.009465 -0.000287
-0.101460 0.009532 -0.000287
-0.105380 0.010050 -0.000287
-0.105110 0.009560 -0.000287
-0.105780 0.008621 0.000280
-0.103570 0.008292 -0.000286
-0.102420 0.008985 -0.000286
-0.103960 0.009844 -0.000287
-0.103020 0.009470 0.000279
-0.104780 0.010252 0.000279
-0.101490 0.008874 -0.000286
-0.103510 0.010184 0.000279
-0.104930 0.008969 0.000280
-0.101290 0.010290 -0.000287
-0.102030 0.009553 -0.000287
-0.104970 0.008371 0.000280
-0.102420 0.009978 -0.000287
-0.103360 0.008900 -0.000286
-0.102650 0.009968 0.000279
-0.095903 0.010307 0.000278
-0.099350 0.010179 0.000279
-0.099048 0.009630 0.000279
-0.098665 0.009092 -0.000287
-0.099506 0.008877 0.000280
-0.097216 0.010283 0.000279
-0.099732 0.009527 -0.000287
-0.098723 0.010355 0.000279
-0.097196 0.008647 -0.000286
-0.096766 0.010293 -0.000287
-0.096720 0.010616 0.000240
-0.100530 0.009425 0.000279
-0.099909 0.010377 -0.000287
-0.099934 0.008997 -0.000286
-0.096905 0.009369 -0.000287
-0.098655 0.008422 -0.000286
-0.097844 0.010148 0.000279
-0.097566 0.010613 -0.000282
-0.098338 0.010611 -0.000149
-0.100440 0.009976 -0.000287
-0.099142 0.010608 -0.000224
-0.096051 0.009210 0.000279
-0.099760 0.010606 0.000219
-0.096966 0.009072 0.000279
-0.100590 0.010603 -0.000213
-0.099638 0.008386 -0.000286
-0.098092 0.008291 -0.000286
-0.096276 0.010617 -0.000184
-0.095892 0.009902 -0.000287
-0.098106 0.009527 0.000279
-0.097579 0.009336 0.000279
-0.098116 0.008717 0.000280
-0.099824 0.008408 0.000280
-0.100010 0.009929 0.000279
-0.096688 0.009843 0.000279
-0.096473 0.009793 -0.000287
-0.098966 0.009709 -0.000287
-0.098024 0.009437 -0.000287
-0.097269 0.008430 0.000280
-0.100350 0.010403 0.000279
-0.097261 0.009844 -0.000287
-0.098452 0.009996 -0.000287
-0.097855 0.010029 -0.000287
-0.100210 0.008359 -0.000286
-0.100540 0.008746 0.000280
-0.100020 0.009144 0.000279
-0.099294 0.008900 -0.000286
-0.096295 0.008422 0.000280
-0.097569 0.009088 -0.000287
-0.098572 0.009114 0.000279
-0.096576 0.008832 -0.000286
-0.098799 0.008581 0.000280
-0.094869 0.010343 0.000278
-0.094240 0.009217 0.000279
-0.095661 0.010617 -0.000288
-0.095168 0.008894 0.000279
-0.095655 0.008713 -0.000286
-0.092629 0.008707 -0.000286
-0.091300 0.010572 0.000278
-0.091051 0.009276 0.000279
-0.093354 0.008554 -0.000286
-0.091523 0.009165 -0.000287
-0.094859 0.010622 -0.000286
-0.091927 0.008589 0.000280
-0.091833 0.010632 -0.000252
-0.094075 0.010624 -0.000195
-0.093680 0.010088 0.000279
-0.093531 0.010626 0.000150
-0.094263 0.010104 -0.000287
-0.092434 0.010630 -0.000130
-0.092024 0.009523 -0.000287
-0.095711 0.008516 0.000280
-0.091093 0.008527 -0.000286
-0.092911 0.010145 0.000278
-0.091653 0.010027 -0.000287
-0.094316 0.009312 -0.000287
-0.092663 0.009054 0.000279
-0.095115 0.009451 0.000279
-0.093790 0.009074 -0.000287
-0.093557 0.009431 0.000279
-0.095241 0.009746 -0.000287
-0.091816 0.009622 0.000279
-0.092113 0.010275 0.000278
-0.095443 0.009962 0.000279
-0.092832 0.009491 -0.000287
-0.095052 0.008846 -0.000286
-0.094729 0.008428 0.000280
-0.093737 0.009725 -0.000287
-0.095704 0.009342 -0.000287
-0.094617 0.009792 0.000279
-0.094159 0.008583 -0.000286
-0.091139 0.008701 0.000279
-0.091762 0.008634 -0.000286
-0.092973 0.010269 -0.000287
-0.093292 0.008418 0.000280
-0.090958 0.010116 0.000278
-0.092404 0.009683 0.000279
-0.092308 0.010045 -0.000287
-0.094143 0.008523 0.000280
-0.091128 0.010280 -0.000288
-0.090675 0.010635 -0.000273
-0.087980 0.010645 0.000167
-0.090413 0.009751 0.000279
-0.086949 0.009980 -0.000287
-0.086424 0.009543 -0.000287
-0.089268 0.010640 0.000272
-0.087453 0.010278 -0.000288
-0.090396 0.010580 0.000278
-0.087561 0.009128 0.000279
-0.090056 0.008430 -0.000286
-0.090041 0.010638 -0.000210
-0.088764 0.008960 -0.000287
-0.089672 0.009740 0.000279
-0.087416 0.010646 0.000226
-0.086781 0.010648 0.000026
-0.085870 0.008766 0.000279
-0.089682 0.010004 -0.000287
-0.088598 0.010636 0.000278
-0.088803 0.008989 0.000279
-0.086194 0.010416 -0.000288
-0.086629 0.008827 0.000279
-0.090584 0.008961 0.000279
-0.086557 0.008413 -0.000286
-0.088690 0.009542 -0.000287
-0.087988 0.009628 -0.000287
-0.088318 0.010113 0.000278
-0.087453 0.009326 -0.000287
-0.089266 0.008605 0.000279
-0.089308 0.009402 -0.000287
-0.090431 0.008414 0.000280
-0.088036 0.008556 -0.000286
-0.087585 0.010106 0.000278
-0.089515 0.009197 0.000279
-0.087112 0.008533 0.000279
-0.090865 0.009506 -0.000287
-0.089103 0.010067 0.000278
-0.086566 0.010068 0.000278
-0.088233 0.009136 0.000279
-0.089125 0.009973 -0.000287
-0.085886 0.009165 -0.000287
-0.090594 0.008938 -0.000287
-0.088775 0.010642 -0.000263
-0.090583 0.010003 -0.000287
-0.089471 0.010627 -0.000288
-0.086753 0.009080 -0.000287
-0.087368 0.008501 -0.000286
-0.088174 0.010240 -0.000288
-0.090169 0.009347 -0.000287
-0.089837 0.008538 0.000280
-0.086739 0.009408 0.000279
-0.085969 0.009706 0.000279
-0.088680 0.009642 0.000279
-0.089558 0.008812 -0.000287
-0.087284 0.009620 0.000279
-0.081536 0.008968 -0.000287
-0.085734 0.010652 0.000102
-0.081550 0.009959 -0.000288
-0.083250 0.010537 0.000278
-0.082045 0.010361 0.000278
-0.084088 0.009150 0.000279
-0.083624 0.009699 -0.000287
-0.081771 0.009215 0.000279
-0.082142 0.008499 0.000279
-0.081907 0.010664 -0.000196
-0.084521 0.009084 -0.000287
-0.083152 0.008594 -0.000287
-0.083605 0.008988 -0.000287
-0.084904 0.009619 -0.000287
-0.082779 0.009773 0.000278
-0.082845 0.010367 -0.000288
-0.083788 0.010600 -0.000288
-0.085763 0.009964 -0.000288
-0.085257 0.008296 0.000280
-0.084595 0.010655 -0.000083
-0.081139 0.010467 0.000278
-0.084252 0.009805 0.000278
-0.084085 0.008274 -0.000286
-0.085165 0.010650 0.000278
-0.080996 0.008816 -0.000287
-0.085454 0.009181 0.000279
-0.080871 0.010667 -0.000272
-0.084089 0.010657 0.000261
-0.082251 0.009588 -0.000287
-0.085306 0.009907 0.000278
-0.082547 0.010662 0.000113
