ply
format ascii 1.0
element vertex 1710
property float x
property float y
property float z
end_header
0.206450 -0.195450 0.014732
0.112570 -0.191330 0.014661
0.189610 -0.188100 0.011410
0.224190 -0.186920 0.011575
0.138620 -0.190120 0.011917
0.271330 -0.187180 0.013782
0.245790 -0.197550 0.013167
0.190180 -0.187460 0.011218
0.260710 -0.191980 0.011281
0.260890 -0.191160 0.009080
0.212960 -0.192690 0.013933
0.244950 -0.194280 0.010406
0.264400 -0.186690 0.011456
0.275580 -0.189330 0.015264
0.186810 -0.190200 0.016260
0.232640 -0.187820 0.015776
0.150430 -0.193010 0.013946
0.252110 -0.187560 0.015046
0.127240 -0.189900 0.012729
0.151560 -0.190500 0.011456
0.264200 -0.192580 0.008756
0.222190 -0.188560 0.017351
0.254550 -0.187710 0.009869
0.163440 -0.190720 0.014500
0.208980 -0.193730 0.009015
0.202710 -0.194010 0.016162
0.279020 -0.190110 0.012499
0.201150 -0.194330 0.014923
0.152470 -0.190290 0.011623
0.248710 -0.192350 0.010800
0.176130 -0.189140 0.013112
0.272650 -0.192030 0.008863
0.257290 -0.194370 0.011095
0.211580 -0.186820 0.010270
0.144210 -0.190260 0.011713
0.185720 -0.194430 0.011377
0.281560 -0.190900 0.010838
0.243760 -0.194060 0.009431
0.192480 -0.192100 0.015635
0.207690 -0.187910 0.015580
0.198760 -0.195470 0.012382
0.247860 -0.190390 0.009278
0.192980 -0.195540 0.012572
0.243640 -0.186970 0.012203
0.271160 -0.197600 0.012872
0.260830 -0.196110 0.015274
0.179250 -0.189290 0.014359
0.205780 -0.192360 0.008911
0.173100 -0.191450 0.010805
0.273390 -0.191780 0.016532
0.212350 -0.189240 0.015965
0.250430 -0.187790 0.009856
0.098619 -0.192830 0.011444
0.235600 -0.190080 0.012366
0.217470 -0.195030 0.013154
0.192480 -0.191910 0.014716
0.240550 -0.195050 0.013763
0.232400 -0.187510 0.014369
0.129950 -0.191450 0.014686
0.244500 -0.192560 0.016410
0.272830 -0.187070 0.010589
0.261160 -0.194860 0.015862
0.266340 -0.196610 0.014443
0.216290 -0.195280 0.011943
0.274040 -0.197950 0.012291
0.200460 -0.195690 0.013428
0.214380 -0.189710 0.012079
0.246090 -0.193570 0.016179
0.216630 -0.191610 0.012242
0.276000 -0.193220 0.014428
0.204950 -0.189370 0.017199
0.271570 -0.195570 0.014512
0.257400 -0.195280 0.015145
0.207860 -0.190100 0.009417
0.226960 -0.195460 0.015791
0.241310 -0.194150 0.009740
0.248650 -0.196710 0.014449
0.204630 -0.186930 0.011177
0.187430 -0.188730 0.010736
0.185830 -0.191960 0.016246
0.180600 -0.192910 0.010599
0.281570 -0.188130 0.017253
0.220280 -0.191930 0.011711
0.108540 -0.190350 0.011850
0.215740 -0.187120 0.012261
0.272260 -0.187390 0.014753
0.192490 -0.194010 0.012752
0.182490 -0.189300 0.011739
0.227260 -0.189430 0.017145
0.223170 -0.192320 0.013729
0.230800 -0.191510 0.009058
0.271090 -0.187280 0.009933
0.281560 -0.194230 0.015966
0.186720 -0.188050 0.014141
0.279350 -0.192410 0.010447
0.218530 -0.187820 0.015453
0.269780 -0.191270 0.009040
0.135450 -0.189860 0.013125
0.217160 -0.195100 0.011160
0.208650 -0.190460 0.009334
0.241860 -0.191370 0.012387
0.212330 -0.196770 0.014679
0.164130 -0.189900 0.012063
0.177120 -0.192480 0.015016
0.244350 -0.186860 0.011772
0.180480 -0.189880 0.015142
0.237750 -0.191360 0.012436
0.208190 -0.191120 0.009185
0.273640 -0.194200 0.008459
0.180360 -0.191730 0.015557
0.208290 -0.194230 0.009365
0.215730 -0.189420 0.011903
0.208310 -0.187510 0.010694
0.097182 -0.191440 0.011179
0.252980 -0.194740 0.015906
0.185280 -0.191340 0.010572
0.221000 -0.194760 0.009739
0.256180 -0.188760 0.016328
0.168060 -0.191020 0.011086
0.137910 -0.189840 0.012726
0.266190 -0.187810 0.016487
0.255060 -0.195880 0.015527
0.244160 -0.188590 0.011458
0.259990 -0.191660 0.011773
0.140760 -0.192490 0.011350
0.103010 -0.190480 0.014151
0.187880 -0.193520 0.015714
0.274390 -0.192420 0.008773
0.275690 -0.190020 0.014189
0.136990 -0.192660 0.014360
0.194900 -0.190240 0.017022
0.140460 -0.189840 0.013135
0.278740 -0.187810 0.009801
0.138830 -0.189860 0.013255
0.214460 -0.188970 0.009658
0.161420 -0.189740 0.013213
0.227240 -0.188550 0.016908
0.257320 -0.187680 0.015680
0.169820 -0.192600 0.011366
0.171640 -0.189710 0.011911
0.269080 -0.186740 0.011798
0.211470 -0.187930 0.010962
0.176600 -0.190030 0.011009
0.250520 -0.195950 0.015620
0.241560 -0.194910 0.015388
0.195830 -0.188370 0.011193
0.251070 -0.195250 0.014887
0.186000 -0.193110 0.015851
0.137410 -0.190750 0.014470
0.201480 -0.188610 0.011357
0.194220 -0.187550 0.013690
0.186760 -0.191100 0.012875
0.113080 -0.191510 0.011155
0.208420 -0.187500 0.013802
0.270290 -0.197290 0.013357
0.254480 -0.193270 0.008618
0.246970 -0.189170 0.011828
0.235380 -0.195000 0.013399
0.263710 -0.190940 0.012976
0.242820 -0.192250 0.008869
0.258420 -0.191890 0.013555
0.218400 -0.195110 0.013503
0.251480 -0.188790 0.016322
0.112200 -0.192880 0.014315
0.209640 -0.190630 0.013816
0.247930 -0.195210 0.014643
0.252680 -0.195940 0.015615
0.272280 -0.194410 0.011644
0.277880 -0.197050 0.013658
0.275850 -0.197970 0.012254
0.234350 -0.187390 0.013871
0.280690 -0.186990 0.013155
0.212690 -0.189550 0.009531
0.218470 -0.188730 0.009705
0.251650 -0.189120 0.009557
0.198160 -0.186820 0.010170
0.249030 -0.190530 0.012679
0.217960 -0.195960 0.015032
0.234710 -0.187520 0.010770
0.276850 -0.187310 0.014509
0.263440 -0.188500 0.009674
0.234580 -0.188730 0.011518
0.231960 -0.192330 0.010985
0.266500 -0.194720 0.010601
0.197780 -0.188660 0.009758
0.217730 -0.194740 0.015221
0.219440 -0.195170 0.011532
0.255760 -0.192930 0.008692
0.160260 -0.193150 0.013578
0.181210 -0.189610 0.012706
0.158300 -0.192490 0.011389
0.225790 -0.195600 0.013592
0.268980 -0.194960 0.014000
0.242560 -0.189360 0.011935
0.245840 -0.194300 0.010516
0.185320 -0.192040 0.009609
0.183000 -0.192810 0.015553
0.125810 -0.190200 0.011915
0.179560 -0.190620 0.011848
0.211140 -0.187990 0.009883
0.227740 -0.192410 0.013795
0.207770 -0.190770 0.012721
0.272860 -0.197920 0.012349
0.166240 -0.191250 0.011097
0.243740 -0.190560 0.016862
0.271220 -0.190330 0.013749
0.124050 -0.189910 0.013026
0.204600 -0.192580 0.008865
0.230360 -0.196020 0.015564
0.212480 -0.186770 0.010606
0.115860 -0.193530 0.012990
0.262540 -0.188270 0.009728
0.218570 -0.195760 0.014141
0.213630 -0.187310 0.013063
0.236380 -0.193860 0.008519
0.233470 -0.187800 0.015675
0.275860 -0.186510 0.010903
0.198830 -0.189390 0.009592
0.278290 -0.193410 0.008543
0.261830 -0.198000 0.012332
0.202240 -0.190050 0.014797
0.248750 -0.192890 0.008714
0.256070 -0.190810 0.013140
0.220780 -0.196870 0.014448
0.237740 -0.186830 0.011470
0.192480 -0.192060 0.010996
0.196970 -0.195120 0.013058
0.186070 -0.193690 0.014487
0.223380 -0.194800 0.012247
0.180110 -0.188870 0.013738
0.164120 -0.192750 0.014162
0.253600 -0.195150 0.014480
0.189890 -0.197500 0.014267
0.200790 -0.195110 0.015918
0.124950 -0.192200 0.014629
0.190600 -0.188980 0.011560
0.277890 -0.188700 0.009602
0.241490 -0.189130 0.011788
0.256580 -0.187230 0.013672
0.163130 -0.193240 0.012492
0.221060 -0.196410 0.015153
0.168010 -0.189950 0.011824
0.200160 -0.186830 0.010606
0.234340 -0.191380 0.012438
0.216830 -0.189970 0.012250
0.238830 -0.187950 0.016454
0.232970 -0.194730 0.009903
0.219320 -0.188620 0.009728
0.198790 -0.191460 0.013130
0.126910 -0.192460 0.011312
0.258530 -0.190180 0.014086
0.184420 -0.188640 0.011154
0.256410 -0.187010 0.012702
0.232860 -0.195310 0.012463
0.240840 -0.194060 0.016081
0.125040 -0.190600 0.011500
0.230640 -0.187100 0.012504
0.204720 -0.195720 0.013659
0.205310 -0.191150 0.013046
0.186810 -0.194160 0.013549
0.197190 -0.193020 0.014097
0.252470 -0.192020 0.008902
0.222580 -0.189390 0.017163
0.221510 -0.191470 0.016696
0.257300 -0.187090 0.013057
0.224820 -0.190430 0.016926
0.266980 -0.194840 0.013416
0.210220 -0.194680 0.009158
0.279130 -0.195030 0.012269
0.233630 -0.193220 0.009579
0.193810 -0.191580 0.012483
0.194990 -0.189700 0.012021
0.225350 -0.191130 0.009152
0.265660 -0.192080 0.008865
0.230370 -0.194930 0.015903
0.240010 -0.187030 0.012401
0.186820 -0.191940 0.013395
0.158510 -0.191660 0.014672
0.255830 -0.192580 0.010388
0.240280 -0.187760 0.009883
0.119600 -0.189930 0.012981
0.280310 -0.186460 0.010808
0.258870 -0.190900 0.012966
0.179430 -0.189970 0.015063
0.228760 -0.195210 0.011912
0.255950 -0.188980 0.017195
0.099503 -0.192140 0.011178
0.187950 -0.189440 0.009859
0.239820 -0.190100 0.012388
0.276080 -0.189740 0.016986
0.274650 -0.188010 0.011179
0.223650 -0.194140 0.016094
0.212230 -0.188150 0.016775
0.229740 -0.197150 0.013936
0.155380 -0.190770 0.014511
0.111170 -0.193470 0.013477
0.271250 -0.194920 0.011616
0.205440 -0.195260 0.013906
0.209240 -0.187800 0.015121
0.117040 -0.190550 0.011569
0.137360 -0.191830 0.014680
0.205150 -0.190400 0.012487
0.188940 -0.192660 0.015803
0.186860 -0.188530 0.013004
0.231690 -0.195110 0.013829
0.258390 -0.186460 0.010286
0.179010 -0.193690 0.011700
0.212790 -0.192350 0.016514
0.215590 -0.190360 0.014198
0.231580 -0.194650 0.015965
0.247240 -0.190630 0.013489
0.277440 -0.187920 0.009779
0.118990 -0.190110 0.012142
0.090825 -0.191140 0.014037
0.184590 -0.191910 0.010578
0.118530 -0.193500 0.012725
0.258930 -0.189260 0.009511
0.216510 -0.188950 0.016381
0.277710 -0.190240 0.012574
0.220000 -0.193400 0.014391
0.204390 -0.187990 0.015853
0.093876 -0.191630 0.014709
0.094276 -0.192730 0.011378
0.239800 -0.195030 0.011364
0.215070 -0.187260 0.012875
0.166170 -0.193240 0.012460
0.248790 -0.189950 0.014532
0.191960 -0.189880 0.009607
0.269220 -0.194860 0.011278
0.193380 -0.193600 0.016271
0.240730 -0.194330 0.015027
0.247100 -0.187630 0.010871
0.205680 -0.195550 0.012939
0.197080 -0.186770 0.010274
0.280710 -0.192100 0.008833
0.239990 -0.187190 0.010577
0.220190 -0.195510 0.013071
0.109310 -0.190960 0.011325
0.201740 -0.187560 0.013895
0.209590 -0.188510 0.011318
0.217940 -0.187670 0.014743
0.187610 -0.198000 0.014492
0.187620 -0.187960 0.011143
0.258750 -0.187690 0.015786
0.281810 -0.189930 0.015935
0.242370 -0.193540 0.014541
0.231520 -0.187770 0.015509
0.123850 -0.191090 0.011239
0.180650 -0.193980 0.012014
0.178640 -0.190170 0.012930
0.203850 -0.192610 0.013858
0.198870 -0.187590 0.010720
0.181350 -0.191500 0.011303
0.166290 -0.192830 0.011680
0.124960 -0.192190 0.011193
0.184970 -0.188130 0.013449
0.240990 -0.195700 0.014393
0.192480 -0.192240 0.010153
0.257770 -0.191690 0.008967
0.262150 -0.187980 0.017153
0.184160 -0.191090 0.016044
0.234840 -0.194110 0.009440
0.177230 -0.192340 0.013575
0.269490 -0.187400 0.014745
0.263830 -0.194290 0.008620
0.269990 -0.190260 0.009266
0.225420 -0.195310 0.014561
0.207990 -0.193720 0.008602
0.265490 -0.188580 0.011509
0.203010 -0.194350 0.009786
0.241010 -0.193340 0.014408
0.197230 -0.193750 0.016229
0.238540 -0.189460 0.009503
0.233990 -0.191580 0.009035
0.207300 -0.194260 0.016096
0.206130 -0.191340 0.016755
0.268230 -0.193680 0.016116
0.189070 -0.187810 0.013340
0.240120 -0.194590 0.009450
0.251060 -0.186780 0.011527
0.124720 -0.190010 0.013509
0.235210 -0.192930 0.010027
0.224810 -0.192880 0.010196
0.240500 -0.192760 0.014051
0.206860 -0.189560 0.011963
0.262500 -0.192260 0.010825
0.222410 -0.187130 0.012465
0.260110 -0.189470 0.009461
0.260450 -0.194600 0.009917
0.114010 -0.191190 0.014633
0.253440 -0.194120 0.009919
0.240090 -0.187570 0.014806
0.244260 -0.195260 0.012505
0.232170 -0.194740 0.012172
0.220360 -0.190660 0.016882
0.269130 -0.197470 0.013082
0.160700 -0.190090 0.013994
0.188660 -0.191760 0.012244
0.251290 -0.196670 0.014486
0.136340 -0.193390 0.012568
0.254700 -0.189300 0.009510
0.266500 -0.189980 0.016951
0.258210 -0.189140 0.017154
0.257850 -0.191300 0.013186
0.221350 -0.187950 0.016061
0.166790 -0.190160 0.011626
0.277440 -0.190320 0.013710
0.238880 -0.193360 0.014416
0.210710 -0.193590 0.009206
0.164230 -0.191670 0.011109
0.225680 -0.187020 0.012048
0.136520 -0.191110 0.014629
0.222540 -0.187340 0.013414
0.203030 -0.187400 0.013234
0.232370 -0.190030 0.012323
0.223130 -0.193540 0.014492
0.181750 -0.190620 0.010118
0.195260 -0.194500 0.016064
0.276810 -0.190220 0.016878
0.198430 -0.189660 0.015432
0.221100 -0.192930 0.016371
0.220430 -0.187950 0.016073
0.259170 -0.189200 0.015609
0.221560 -0.195880 0.014753
0.199840 -0.188980 0.016473
0.210780 -0.192820 0.010412
0.153470 -0.193330 0.013033
0.248110 -0.187910 0.009834
0.169410 -0.193240 0.012259
0.156340 -0.190240 0.014145
0.204830 -0.194610 0.008731
0.230870 -0.187330 0.013522
0.279850 -0.192650 0.014085
0.105030 -0.190410 0.014060
0.100100 -0.193580 0.013244
0.180070 -0.191920 0.012079
0.203100 -0.186750 0.010177
0.253740 -0.195910 0.015597
0.209590 -0.193170 0.009868
0.125880 -0.191360 0.014670
0.222050 -0.190840 0.016838
0.235850 -0.187830 0.010963
0.185280 -0.189200 0.014546
0.180080 -0.190070 0.013770
0.275390 -0.186360 0.010133
0.199850 -0.188220 0.009853
0.211780 -0.193550 0.016247
0.259160 -0.192630 0.014019
0.211930 -0.194530 0.008524
0.174830 -0.193520 0.012243
0.123110 -0.193320 0.013663
0.212620 -0.187900 0.015671
0.227550 -0.187430 0.010692
0.200570 -0.190930 0.012803
0.234860 -0.191660 0.009016
0.271390 -0.197160 0.013554
0.242270 -0.192390 0.010806
0.152430 -0.193200 0.012237
0.234050 -0.195180 0.011904
0.198440 -0.195930 0.014464
0.225720 -0.192930 0.014113
0.126250 -0.189900 0.013029
0.268120 -0.188880 0.011701
0.253430 -0.186880 0.012029
0.116740 -0.190300 0.013991
0.232700 -0.187720 0.009905
0.246840 -0.186770 0.010330
0.246100 -0.188420 0.009725
0.234630 -0.193910 0.008525
0.193050 -0.189420 0.017209
0.243910 -0.187450 0.009946
0.212370 -0.188370 0.011240
0.242140 -0.196970 0.014104
0.220760 -0.189330 0.015743
0.280360 -0.187180 0.014016
0.166940 -0.189650 0.012717
0.167960 -0.190960 0.014670
0.192490 -0.193000 0.008810
0.130120 -0.192910 0.014199
0.232780 -0.190770 0.012787
0.154150 -0.193170 0.013603
0.212300 -0.192200 0.013623
0.149180 -0.193350 0.012822
0.246720 -0.195690 0.014473
0.150550 -0.191370 0.011125
0.221530 -0.187130 0.012426
0.235470 -0.187960 0.016439
0.224250 -0.187280 0.013155
0.138250 -0.192520 0.014458
0.202790 -0.187590 0.014043
0.212470 -0.190820 0.013496
0.273800 -0.194080 0.010190
0.205740 -0.193280 0.014278
0.094128 -0.190070 0.013054
0.241200 -0.191400 0.013204
0.250400 -0.190740 0.009194
0.195040 -0.191150 0.016818
0.100560 -0.190330 0.011930
0.203610 -0.190990 0.013313
0.245660 -0.195110 0.011868
0.201590 -0.195440 0.014590
0.183500 -0.189680 0.011289
0.104400 -0.191560 0.014698
0.277490 -0.187430 0.015039
0.258790 -0.190080 0.009327
0.245420 -0.194410 0.015088
0.278190 -0.190900 0.016723
0.183650 -0.189240 0.013266
0.210810 -0.188610 0.011381
0.169350 -0.190070 0.011609
0.191680 -0.187790 0.010822
0.189810 -0.192450 0.013721
0.274830 -0.186550 0.011058
0.203610 -0.188120 0.016427
0.195900 -0.193420 0.016306
0.205680 -0.194550 0.008483
0.206470 -0.190070 0.017041
0.191680 -0.194770 0.013956
0.105610 -0.191580 0.011156
0.200490 -0.194070 0.008551
0.119330 -0.191150 0.014625
0.262330 -0.194450 0.011569
0.091607 -0.192940 0.014365
0.220260 -0.193730 0.008577
0.229150 -0.189660 0.009477
0.127050 -0.192110 0.014655
0.241290 -0.188850 0.016312
0.272710 -0.193980 0.009705
0.207680 -0.194860 0.012163
0.125840 -0.190600 0.014335
0.144560 -0.189900 0.013496
0.189420 -0.190600 0.009360
0.203090 -0.195140 0.015433
0.227440 -0.194820 0.015297
0.270940 -0.194170 0.016000
0.165700 -0.190570 0.011328
0.227230 -0.192970 0.014141
0.267380 -0.191960 0.008890
0.093370 -0.193620 0.012654
0.263620 -0.191630 0.016584
0.240060 -0.187340 0.013784
0.253500 -0.188860 0.016197
0.199530 -0.192830 0.008819
0.277540 -0.188320 0.016822
0.207260 -0.188990 0.016392
0.250730 -0.186990 0.012471
0.208820 -0.192520 0.013813
0.261570 -0.189760 0.017008
0.193560 -0.188210 0.016617
0.235290 -0.195220 0.014400
0.273280 -0.186380 0.010259
0.212280 -0.195400 0.015830
0.231160 -0.196710 0.014607
0.272990 -0.194670 0.010537
0.202410 -0.195330 0.014117
0.213220 -0.190090 0.014628
0.100510 -0.191050 0.011313
0.171590 -0.189490 0.013318
0.207060 -0.194970 0.010377
0.235110 -0.191390 0.016690
0.212390 -0.193870 0.008766
0.233490 -0.190330 0.012516
0.200560 -0.195560 0.015125
0.222500 -0.188250 0.011188
0.203700 -0.191470 0.016730
0.249170 -0.194350 0.008582
0.195270 -0.188170 0.016462
0.192020 -0.194960 0.015872
0.275230 -0.195090 0.012436
0.172780 -0.190560 0.011022
0.185170 -0.197700 0.014060
0.230970 -0.188450 0.009745
0.251610 -0.191480 0.012126
0.195790 -0.193830 0.008974
0.252740 -0.189410 0.015334
0.250400 -0.189490 0.009476
0.099455 -0.191910 0.014716
0.127520 -0.190110 0.013795
0.205240 -0.192760 0.010548
0.267450 -0.195180 0.014951
0.254030 -0.196720 0.014387
0.206530 -0.187770 0.014936
0.203720 -0.187250 0.012571
0.189720 -0.196790 0.013766
0.262080 -0.189260 0.009506
0.253420 -0.192980 0.016299
0.208530 -0.190370 0.014235
0.257380 -0.190350 0.013834
0.156410 -0.193320 0.012929
0.188520 -0.190640 0.013998
0.263030 -0.192570 0.008760
0.200810 -0.189880 0.015069
0.272130 -0.193010 0.009568
0.277020 -0.186850 0.010019
0.242080 -0.193880 0.008580
0.279590 -0.187270 0.014361
0.193560 -0.186940 0.010153
0.228520 -0.189410 0.017147
0.168470 -0.193220 0.013510
0.279140 -0.193100 0.014363
0.236110 -0.196300 0.015205
0.206600 -0.196510 0.015125
0.230190 -0.195250 0.014385
0.175230 -0.189820 0.014434
0.132030 -0.192340 0.014559
0.261880 -0.187410 0.014613
0.202020 -0.191770 0.012111
0.281640 -0.195390 0.013065
0.199560 -0.194710 0.011287
0.133530 -0.189980 0.012252
0.184300 -0.192730 0.010450
0.216520 -0.190150 0.017002
0.202300 -0.193270 0.009789
0.256840 -0.188620 0.009658
0.195730 -0.189680 0.015425
0.249810 -0.188660 0.009664
0.228740 -0.188800 0.009671
0.261320 -0.197400 0.013257
0.258310 -0.195660 0.014596
0.230530 -0.188060 0.011093
0.190560 -0.187260 0.010452
0.249550 -0.194460 0.015130
0.142580 -0.189830 0.012672
0.256030 -0.191830 0.011542
0.172060 -0.193040 0.014102
0.228520 -0.187590 0.010796
0.267070 -0.196200 0.015073
0.212220 -0.194240 0.016093
0.199110 -0.195300 0.013923
0.244750 -0.191980 0.013575
0.188450 -0.196350 0.013275
0.212050 -0.194360 0.010023
0.209630 -0.188000 0.009884
0.254080 -0.190530 0.009236
0.268290 -0.192110 0.013715
0.254090 -0.186690 0.011200
0.213450 -0.189210 0.016000
0.250290 -0.196610 0.014586
0.272500 -0.195820 0.015620
0.226640 -0.187390 0.013693
0.231600 -0.193060 0.014210
0.188250 -0.189290 0.011751
0.265690 -0.187100 0.010588
0.091924 -0.193650 0.012893
0.207740 -0.187350 0.013120
0.137380 -0.193410 0.013024
0.186590 -0.193920 0.012625
0.128300 -0.191750 0.014698
0.220500 -0.189940 0.012241
0.164700 -0.189870 0.013684
0.241540 -0.192250 0.016485
0.180250 -0.188890 0.011913
0.220000 -0.187580 0.014413
0.264560 -0.188620 0.011533
0.205270 -0.188940 0.016490
0.204090 -0.188200 0.011108
0.187580 -0.188870 0.015445
0.146240 -0.191300 0.011137
0.258400 -0.194330 0.010954
0.246690 -0.192180 0.011079
0.153050 -0.189880 0.013546
0.276250 -0.192930 0.016268
0.206500 -0.194350 0.009863
0.188530 -0.191320 0.016027
0.265290 -0.187780 0.016331
0.266260 -0.192640 0.008738
0.245010 -0.193800 0.016130
0.199830 -0.187620 0.014102
0.234480 -0.190870 0.009194
0.219250 -0.193150 0.016324
0.237030 -0.189060 0.017210
0.257780 -0.194080 0.014919
0.254620 -0.187930 0.016743
0.231280 -0.194660 0.011781
0.130930 -0.193060 0.014013
0.170180 -0.189870 0.011784
0.192820 -0.193890 0.008591
0.273880 -0.187470 0.015144
0.244630 -0.187990 0.016784
0.263090 -0.191850 0.013540
0.237460 -0.192300 0.008866
0.266410 -0.189280 0.011948
0.249270 -0.188170 0.017388
0.200020 -0.192610 0.010833
0.097545 -0.190550 0.011681
0.244880 -0.187160 0.013121
0.228380 -0.196060 0.015633
0.226300 -0.187990 0.009858
0.274060 -0.189420 0.012055
0.211420 -0.190730 0.013654
0.225080 -0.188230 0.017387
0.258710 -0.194650 0.010139
0.260170 -0.188470 0.009687
0.238430 -0.190780 0.013334
0.267870 -0.186960 0.012724
0.277890 -0.189950 0.016935
0.120730 -0.193490 0.012802
0.109620 -0.192590 0.014523
0.172040 -0.192360 0.011099
0.263460 -0.197690 0.012791
0.203930 -0.187930 0.009910
0.206010 -0.187720 0.010815
0.276540 -0.187250 0.010711
0.205120 -0.189540 0.009547
0.184780 -0.194620 0.013196
0.226360 -0.194960 0.015380
0.261340 -0.194620 0.010041
0.247380 -0.191190 0.016714
0.105690 -0.192850 0.014362
0.281590 -0.195080 0.012297
0.189120 -0.192090 0.016390
0.180920 -0.189820 0.010617
0.115250 -0.192570 0.014518
0.178090 -0.190890 0.013701
0.237120 -0.190250 0.016943
0.234340 -0.187770 0.015580
0.189380 -0.189670 0.010143
0.230470 -0.186610 0.010190
0.186470 -0.196670 0.013569
0.273100 -0.196490 0.014570
0.251000 -0.193020 0.014238
0.203810 -0.186830 0.010677
0.275590 -0.194820 0.013501
0.196290 -0.195100 0.010717
0.235050 -0.192380 0.016469
0.126770 -0.193010 0.014105
0.186430 -0.192520 0.011088
0.251240 -0.197780 0.012763
0.123490 -0.191150 0.014629
0.129830 -0.193300 0.012196
0.101120 -0.193480 0.012283
0.269940 -0.190410 0.013628
0.223450 -0.194440 0.015049
0.260430 -0.193960 0.016065
0.145040 -0.191830 0.014672
0.262080 -0.187660 0.010929
0.244420 -0.195260 0.015803
0.195210 -0.190830 0.013639
0.257010 -0.194470 0.009290
0.262350 -0.187190 0.013614
0.201080 -0.189190 0.009633
0.272210 -0.188410 0.016728
0.179330 -0.191930 0.010353
0.217080 -0.195650 0.013637
0.261460 -0.191940 0.016518
0.217720 -0.191930 0.016600
0.273120 -0.190420 0.012677
0.136080 -0.192390 0.014531
0.107640 -0.190450 0.014134
0.220290 -0.190630 0.013724
0.201080 -0.191980 0.016621
0.210090 -0.195320 0.014261
0.124810 -0.190800 0.014468
0.187420 -0.194100 0.012751
0.227590 -0.187960 0.009861
0.250990 -0.189370 0.017116
0.241660 -0.186830 0.011536
0.133230 -0.191170 0.014639
0.126610 -0.190270 0.014009
0.169230 -0.193330 0.013099
0.228550 -0.195670 0.013953
0.139960 -0.193400 0.012950
0.216130 -0.193530 0.008631
0.233170 -0.195310 0.014725
0.185490 -0.191660 0.015369
0.197350 -0.186990 0.011265
0.279680 -0.191230 0.016645
0.261670 -0.191340 0.012267
0.238390 -0.192360 0.008852
0.188110 -0.188210 0.014605
0.196990 -0.190940 0.016861
0.277480 -0.194210 0.008587
0.236040 -0.192710 0.008778
0.206390 -0.188480 0.011289
0.227200 -0.190800 0.012789
0.203500 -0.196140 0.015486
0.264940 -0.194240 0.008458
0.263550 -0.193330 0.016203
0.280260 -0.190420 0.009212
0.235980 -0.192100 0.016528
0.229440 -0.192670 0.016413
0.249020 -0.194650 0.009919
0.263400 -0.188360 0.011367
0.201930 -0.188310 0.009830
0.254400 -0.195730 0.014830
0.206370 -0.194550 0.010754
0.226250 -0.195980 0.015281
0.263250 -0.195080 0.015551
0.155190 -0.190620 0.011355
0.247510 -0.193530 0.014545
0.267450 -0.191110 0.012565
0.281920 -0.188210 0.011934
0.223780 -0.193010 0.014157
0.247170 -0.187990 0.009820
0.277580 -0.194660 0.010601
0.272190 -0.186980 0.012939
0.278710 -0.193280 0.016187
0.263290 -0.190880 0.016753
0.241020 -0.188300 0.009760
0.186710 -0.188240 0.011087
0.236750 -0.187790 0.015732
0.181760 -0.189810 0.011602
0.246870 -0.191420 0.012270
0.280560 -0.195200 0.015752
0.281570 -0.190900 0.014243
0.280320 -0.195100 0.014873
0.223360 -0.187240 0.012956
0.157310 -0.190660 0.014463
0.098399 -0.190390 0.011875
0.190540 -0.194530 0.014480
0.279780 -0.198460 0.011453
0.201110 -0.190230 0.009400
0.275630 -0.188430 0.011445
0.215810 -0.194500 0.016026
0.260250 -0.187220 0.013699
0.153640 -0.192630 0.014308
0.156960 -0.190170 0.011726
0.200930 -0.187990 0.009903
0.249260 -0.189350 0.017124
0.237520 -0.194580 0.009335
0.265670 -0.192500 0.010418
0.254070 -0.187590 0.015207
0.245750 -0.191720 0.011815
0.116920 -0.190970 0.014533
0.258780 -0.191480 0.009013
0.146210 -0.190450 0.014289
0.173820 -0.189420 0.013538
0.106670 -0.190260 0.013857
0.205270 -0.194380 0.009954
0.275630 -0.190570 0.016801
0.186950 -0.189550 0.010646
0.214960 -0.192050 0.011561
0.115880 -0.191940 0.014695
0.275130 -0.189120 0.017128
0.116760 -0.191930 0.014695
0.105150 -0.191090 0.014571
0.248670 -0.194590 0.015212
0.097658 -0.191900 0.014719
0.229980 -0.188890 0.017261
0.245760 -0.195200 0.014555
0.207140 -0.193620 0.014494
0.239300 -0.197080 0.013957
0.244410 -0.187650 0.015274
0.168440 -0.189600 0.012947
0.201570 -0.196320 0.015469
0.113090 -0.190230 0.011964
0.209110 -0.194510 0.010611
0.204150 -0.191780 0.013340
0.260150 -0.188320 0.011331
0.198730 -0.194600 0.008548
0.106230 -0.190760 0.014397
0.269160 -0.195350 0.015735
0.220580 -0.190750 0.009247
0.265270 -0.190370 0.009251
0.264220 -0.189810 0.012270
0.263370 -0.186920 0.010030
0.260530 -0.188970 0.011741
0.132880 -0.193430 0.012817
0.188300 -0.192650 0.013844
0.177490 -0.191530 0.013865
0.212610 -0.187640 0.010784
0.238500 -0.195900 0.015231
0.227080 -0.186790 0.011055
0.220570 -0.192770 0.010398
0.270970 -0.192110 0.008849
0.228400 -0.187680 0.009922
0.264020 -0.187600 0.009876
0.210420 -0.191350 0.016744
0.225460 -0.187270 0.010020
0.226490 -0.187960 0.016224
0.266000 -0.188540 0.009660
0.276280 -0.188030 0.009757
0.252770 -0.195110 0.012042
0.170400 -0.190310 0.014446
0.196320 -0.189140 0.016264
0.099637 -0.191150 0.011280
0.242500 -0.189230 0.009547
0.190280 -0.188590 0.015158
0.184380 -0.193630 0.013221
0.215140 -0.194650 0.009111
0.228100 -0.194830 0.010215
0.217870 -0.192840 0.010311
0.182270 -0.192920 0.014466
0.229400 -0.195780 0.014471
0.266720 -0.192040 0.011129
0.256690 -0.194900 0.015425
0.244030 -0.197330 0.013530
0.206270 -0.193990 0.008634
0.192520 -0.186800 0.010318
0.192280 -0.197910 0.014460
0.227160 -0.187760 0.015354
0.208590 -0.193460 0.016275
0.195080 -0.196060 0.014956
0.253810 -0.194600 0.012058
0.247290 -0.190090 0.016960
0.280660 -0.192190 0.010771
0.244330 -0.194440 0.015987
0.153620 -0.191180 0.014645
0.266400 -0.189350 0.009478
0.188800 -0.187870 0.011796
0.223170 -0.190470 0.016918
0.231810 -0.194630 0.009428
0.136170 -0.190010 0.013675
0.110150 -0.193370 0.012121
0.198320 -0.187860 0.015147
0.238210 -0.194710 0.012198
0.257310 -0.196880 0.014114
0.203370 -0.195590 0.013064
0.256460 -0.187740 0.015961
0.244870 -0.195990 0.015597
0.171490 -0.190630 0.014689
0.223560 -0.193270 0.016289
0.224670 -0.191960 0.011628
0.221250 -0.192010 0.011580
0.252110 -0.193220 0.009421
0.259590 -0.187720 0.015946
0.251450 -0.191300 0.009067
0.248650 -0.193500 0.014528
0.227880 -0.193290 0.009526
0.221660 -0.191580 0.012235
0.237840 -0.194530 0.011369
0.102360 -0.190180 0.013669
0.254030 -0.189180 0.011853
0.203650 -0.193830 0.016201
0.216930 -0.190180 0.014464
0.197250 -0.195360 0.011882
0.278630 -0.188180 0.011294
0.268810 -0.196470 0.014651
0.244860 -0.187310 0.009975
0.206910 -0.188280 0.009828
0.215160 -0.188950 0.017275
0.187020 -0.189540 0.009793
0.189930 -0.193040 0.010255
0.234910 -0.192670 0.008789
0.128720 -0.190270 0.011809
0.223390 -0.193570 0.009135
0.209160 -0.191690 0.012181
0.251940 -0.195110 0.014261
0.211570 -0.188980 0.011617
0.121750 -0.190320 0.014041
0.254780 -0.190480 0.012663
0.203270 -0.189350 0.017208
0.257040 -0.186960 0.010032
0.232740 -0.187550 0.010781
0.217250 -0.186790 0.010843
0.252730 -0.187470 0.009925
0.267760 -0.186600 0.011116
0.195670 -0.194730 0.011299
0.195210 -0.187310 0.012634
0.185100 -0.190620 0.012570
0.264440 -0.191260 0.016666
0.158170 -0.192830 0.014107
0.258700 -0.187260 0.009961
0.134810 -0.190470 0.014258
0.267430 -0.195210 0.012827
0.210750 -0.194530 0.008488
0.226370 -0.192590 0.008822
0.278380 -0.195160 0.015764
0.255500 -0.194960 0.013669
0.264700 -0.196530 0.014590
0.265620 -0.192150 0.013732
0.117820 -0.192130 0.014672
0.278380 -0.186720 0.011887
0.222720 -0.190610 0.009274
0.232110 -0.188470 0.017353
0.151890 -0.191490 0.011113
0.152540 -0.191040 0.014621
0.235480 -0.194410 0.008523
0.194530 -0.195470 0.015849
0.273870 -0.186920 0.010497
0.264400 -0.187200 0.013699
0.218770 -0.194990 0.010727
0.218410 -0.190570 0.013834
0.258440 -0.190370 0.016877
0.192580 -0.194260 0.016124
0.234490 -0.187760 0.009892
0.179530 -0.190570 0.010413
0.277670 -0.186860 0.012503
0.104150 -0.193160 0.011763
0.279980 -0.194430 0.009606
0.191560 -0.189540 0.015970
0.163840 -0.193200 0.013424
0.281970 -0.192770 0.011593
0.274790 -0.196140 0.015106
0.226010 -0.188900 0.016376
0.252240 -0.194090 0.014908
0.121630 -0.189930 0.012705
0.216930 -0.196370 0.015265
0.212260 -0.195460 0.014948
0.106890 -0.193500 0.013464
0.194630 -0.189990 0.014960
0.220810 -0.187650 0.014744
0.115640 -0.189950 0.012950
0.256570 -0.190600 0.016830
0.260310 -0.187010 0.012778
0.255690 -0.187530 0.009906
0.218130 -0.193760 0.016189
0.217270 -0.193030 0.014154
0.198080 -0.193730 0.016232
0.225020 -0.186860 0.011322
0.193970 -0.188820 0.009730
0.248610 -0.196250 0.015159
0.272830 -0.189630 0.014816
0.209560 -0.187100 0.012040
0.180930 -0.190910 0.014664
0.280030 -0.195370 0.013809
0.259230 -0.186860 0.012111
0.259470 -0.189910 0.014506
0.230480 -0.190410 0.012557
0.247580 -0.196350 0.015023
0.278960 -0.187740 0.016439
0.248300 -0.193550 0.008938
0.276870 -0.188880 0.009563
0.091064 -0.191880 0.014556
0.237180 -0.189900 0.014714
0.090917 -0.193050 0.012138
0.158620 -0.193230 0.012397
0.259540 -0.191260 0.012405
0.195960 -0.194490 0.010245
0.178160 -0.192460 0.013292
0.138210 -0.193020 0.011803
0.223700 -0.190580 0.012646
0.192300 -0.190670 0.013912
0.271400 -0.191390 0.009011
0.186640 -0.188370 0.012085
0.258920 -0.192770 0.016338
0.244790 -0.189370 0.011949
0.278100 -0.189330 0.012012
0.231290 -0.193790 0.016157
0.263940 -0.194010 0.009655
0.223370 -0.191350 0.013126
0.253170 -0.190350 0.013872
0.208300 -0.191820 0.011979
0.228770 -0.194250 0.014948
0.268210 -0.190110 0.014119
0.205270 -0.191990 0.011754
0.199590 -0.195560 0.012826
0.262320 -0.194330 0.008756
0.269900 -0.186680 0.011535
0.270600 -0.191740 0.011554
0.196190 -0.192240 0.016571
0.202370 -0.194930 0.012351
0.245620 -0.186680 0.010116
0.191570 -0.187010 0.010337
0.190750 -0.188500 0.010137
0.241840 -0.192530 0.008808
0.185160 -0.192210 0.011579
0.216040 -0.187870 0.015584
0.122610 -0.193460 0.012610
0.148780 -0.190750 0.014491
0.162470 -0.190040 0.013926
0.116580 -0.191800 0.011124
0.256760 -0.192520 0.008783
0.143190 -0.190720 0.011337
0.179860 -0.192380 0.015335
0.250560 -0.187740 0.010943
0.095163 -0.193330 0.011951
0.136310 -0.191430 0.011136
0.237470 -0.192380 0.013800
0.129210 -0.191290 0.011157
0.243620 -0.192860 0.010059
0.094078 -0.190330 0.013870
0.265090 -0.186580 0.010264
0.260930 -0.189040 0.009556
0.219680 -0.194470 0.008421
0.235400 -0.189700 0.017069
0.165930 -0.190910 0.014612
0.258390 -0.198010 0.012348
0.254300 -0.192710 0.016359
0.181560 -0.193160 0.010668
0.231830 -0.195050 0.011306
0.262490 -0.191210 0.016681
0.175330 -0.191870 0.013375
0.267940 -0.187390 0.014650
0.114590 -0.190200 0.012007
0.215810 -0.192020 0.011608
0.204650 -0.187740 0.014770
0.233080 -0.190610 0.013652
0.210290 -0.190590 0.012620
0.218280 -0.194710 0.015975
0.189800 -0.195590 0.011004
0.199190 -0.191760 0.016672
0.095710 -0.193640 0.012971
0.158370 -0.193270 0.013196
0.217340 -0.188800 0.016603
0.197650 -0.191530 0.009114
0.250420 -0.194910 0.011105
0.264340 -0.190080 0.016932
0.113570 -0.190730 0.011459
0.193200 -0.192660 0.016481
0.119630 -0.190530 0.011576
0.248520 -0.187000 0.012449
0.130130 -0.192500 0.011334
0.217170 -0.187510 0.014006
0.251230 -0.190150 0.016940
0.272410 -0.194150 0.014999
0.139910 -0.189960 0.012215
0.234000 -0.193150 0.016296
0.204650 -0.194950 0.015945
0.207850 -0.192260 0.011307
0.210560 -0.193870 0.014662
0.230080 -0.194150 0.016080
0.239580 -0.192890 0.014130
0.251790 -0.187220 0.009983
0.264430 -0.198150 0.012068
0.153480 -0.190430 0.011498
0.276480 -0.191480 0.008980
0.267930 -0.193120 0.009431
0.280830 -0.198310 0.011679
0.242170 -0.191060 0.016751
0.180190 -0.194080 0.012855
0.188300 -0.192400 0.011264
0.114550 -0.190360 0.014059
0.123160 -0.192400 0.011279
0.103990 -0.190010 0.012960
0.248970 -0.194030 0.009380
0.264230 -0.189240 0.017121
0.221610 -0.186990 0.010402
0.228020 -0.194750 0.012116
0.102700 -0.190030 0.012742
0.269500 -0.189540 0.009428
0.262940 -0.194260 0.010733
0.249770 -0.187270 0.009976
0.231840 -0.188010 0.011066
0.093262 -0.193570 0.013487
0.248340 -0.192930 0.009905
0.253250 -0.191030 0.009124
0.102630 -0.191640 0.011154
0.246250 -0.195850 0.015185
0.244520 -0.195430 0.013278
0.233820 -0.187540 0.014540
0.205530 -0.195930 0.014595
0.236800 -0.188950 0.016193
0.206160 -0.192300 0.011265
0.190580 -0.192390 0.011257
0.273930 -0.191670 0.008942
0.183440 -0.188850 0.011116
0.278400 -0.188900 0.017170
0.174230 -0.192260 0.010907
0.240140 -0.197200 0.013769
0.104190 -0.190230 0.013802
0.278100 -0.190650 0.013187
0.265590 -0.192660 0.016349
0.222080 -0.194960 0.012948
0.253620 -0.192420 0.008811
0.265470 -0.194250 0.015043
0.254890 -0.191460 0.013276
0.093425 -0.190850 0.014425
0.259810 -0.190410 0.009252
0.263320 -0.193710 0.014700
0.127440 -0.193410 0.013335
0.238000 -0.193240 0.009511
0.280400 -0.186890 0.010005
0.265260 -0.186810 0.012002
0.209680 -0.193470 0.016270
0.228070 -0.195450 0.012963
0.207770 -0.193240 0.016325
0.166090 -0.192020 0.014607
0.266720 -0.193740 0.014727
0.213190 -0.191850 0.009013
0.246950 -0.188790 0.016362
0.228630 -0.194880 0.012731
0.201430 -0.189410 0.015791
0.168120 -0.192970 0.011820
0.186330 -0.194720 0.011889
0.188780 -0.195670 0.011778
0.279490 -0.194240 0.008746
0.219440 -0.190570 0.009289
0.216760 -0.191840 0.016624
0.279760 -0.189280 0.015302
0.281840 -0.188380 0.014274
0.186250 -0.191000 0.009420
0.116290 -0.193370 0.012197
0.213910 -0.194830 0.015956
0.240970 -0.190400 0.009287
0.263170 -0.186970 0.012686
0.205300 -0.191190 0.016790
0.265600 -0.190330 0.012598
0.203600 -0.194750 0.009332
0.278740 -0.187260 0.010718
0.195110 -0.194360 0.009632
0.238290 -0.190340 0.012535
0.186300 -0.190510 0.014211
0.243200 -0.194310 0.016019
0.258220 -0.188160 0.011229
0.246970 -0.190310 0.009297
0.279850 -0.189920 0.014303
0.154340 -0.190180 0.011740
0.166720 -0.190010 0.013973
0.192470 -0.189520 0.015878
0.279120 -0.191950 0.016483
0.201310 -0.193440 0.009533
0.262180 -0.189240 0.011914
0.211270 -0.189860 0.015014
0.198130 -0.194990 0.010265
0.205600 -0.192040 0.016599
0.271780 -0.195060 0.012235
0.236600 -0.197390 0.013503
0.240220 -0.189870 0.017024
0.216990 -0.189370 0.017176
0.093104 -0.192980 0.011547
0.231810 -0.187310 0.013463
0.226980 -0.194760 0.012128
0.233760 -0.194060 0.009172
0.202020 -0.194560 0.016038
0.157830 -0.190060 0.013921
0.279660 -0.186840 0.012487
0.235120 -0.190610 0.013628
0.186890 -0.190380 0.009435
0.212760 -0.195250 0.014026
0.224450 -0.190500 0.013896
0.113050 -0.193040 0.014165
0.195110 -0.193380 0.009673
0.196360 -0.188080 0.016091
0.240640 -0.193410 0.008612
0.193880 -0.194900 0.009770
0.255760 -0.189750 0.009408
0.108480 -0.191070 0.011287
0.211590 -0.195200 0.011501
0.244190 -0.188280 0.009759
0.267560 -0.189770 0.014656
0.249960 -0.192770 0.014077
0.151670 -0.190650 0.014448
0.163420 -0.192340 0.014471
0.187130 -0.189560 0.015681
0.154330 -0.193310 0.012703
0.266690 -0.191380 0.009021
0.240800 -0.188690 0.011515
0.246300 -0.187630 0.009901
0.274430 -0.187890 0.009791
0.240030 -0.192850 0.008739
0.215410 -0.192570 0.013865
0.186020 -0.193680 0.012078
0.267170 -0.192940 0.009724
0.223080 -0.187960 0.016178
0.185970 -0.189300 0.010136
0.133770 -0.191930 0.014676
0.258010 -0.194340 0.008738
0.201600 -0.193930 0.008767
0.262290 -0.191320 0.013206
0.276110 -0.192350 0.013889
0.222900 -0.190270 0.012448
0.193080 -0.189570 0.011935
0.249820 -0.189180 0.011844
0.222890 -0.195820 0.014530
0.210070 -0.190410 0.016957
0.241910 -0.190490 0.009265
0.193990 -0.191210 0.016806
0.190090 -0.193990 0.015269
0.275410 -0.193220 0.009212
0.185300 -0.196870 0.013495
0.229240 -0.194490 0.010983
0.222360 -0.189690 0.012088
0.102930 -0.190880 0.011402
0.266450 -0.193940 0.009412
0.266500 -0.190010 0.012403
0.257380 -0.189810 0.014684
0.252450 -0.193890 0.016096
0.234200 -0.189990 0.009392
0.241970 -0.194210 0.014952
0.200420 -0.188670 0.011391
0.224550 -0.191790 0.016621
0.228730 -0.188820 0.016469
0.240600 -0.192850 0.016352
0.264530 -0.188760 0.009615
0.246690 -0.189050 0.009581
0.278730 -0.186920 0.012815
0.277990 -0.187030 0.013288
0.219250 -0.195310 0.014441
0.275590 -0.195730 0.015321
0.256260 -0.195650 0.014504
0.263640 -0.192040 0.011158
0.207030 -0.187530 0.013881
0.223720 -0.187840 0.009895
0.187210 -0.191520 0.009282
0.128180 -0.189910 0.012623
0.281870 -0.195560 0.009729
0.254740 -0.195160 0.012302
0.258000 -0.190650 0.009200
0.271730 -0.189150 0.011883
0.242690 -0.193150 0.008666
0.269800 -0.187370 0.009916
0.214370 -0.193430 0.008655
0.246390 -0.189370 0.015459
0.256820 -0.192180 0.010994
0.091845 -0.190080 0.013011
0.224290 -0.189330 0.011865
0.199740 -0.187380 0.010042
0.233210 -0.192760 0.008772
0.263670 -0.194710 0.010512
0.269090 -0.194340 0.008988
0.195430 -0.192410 0.013712
0.175210 -0.192360 0.010879
0.212800 -0.187630 0.014473
0.185280 -0.189550 0.015689
0.170720 -0.193400 0.013015
0.134770 -0.189890 0.012554
0.251660 -0.194660 0.015264
0.257360 -0.188680 0.016437
0.162510 -0.190540 0.011378
0.213150 -0.195460 0.014964
0.129450 -0.192340 0.014566
0.204840 -0.187350 0.013033
0.237840 -0.191580 0.009029
0.234360 -0.189160 0.017193
0.209840 -0.189960 0.014865
0.227610 -0.191350 0.016713
0.125210 -0.193390 0.013474
0.272600 -0.194220 0.008504
0.202730 -0.192840 0.010445
0.160210 -0.193170 0.012270
0.193800 -0.192070 0.016613
0.170690 -0.191270 0.014827
0.190700 -0.195580 0.010981
0.187090 -0.191960 0.015606
0.234070 -0.193050 0.008705
0.272050 -0.197740 0.012640
0.192960 -0.187670 0.014183
0.233920 -0.194400 0.008439
0.220560 -0.191250 0.012769
0.281020 -0.194220 0.015064
0.230010 -0.190770 0.009224
0.198100 -0.192020 0.016617
0.176510 -0.191850 0.015172
0.196190 -0.189960 0.012186
0.223760 -0.191610 0.012172
0.171030 -0.191230 0.010940
0.265980 -0.197100 0.013696
0.227840 -0.194510 0.011052
0.225620 -0.187910 0.016013
0.239160 -0.192600 0.016411
0.194210 -0.190050 0.012239
0.153310 -0.193140 0.012078
0.255940 -0.193190 0.016249
0.131350 -0.190730 0.014451
0.263030 -0.189270 0.011934
0.228110 -0.187540 0.014415
0.253750 -0.191310 0.012381
0.256460 -0.189040 0.011771
0.189200 -0.190980 0.016431
0.206490 -0.195200 0.011358
0.264660 -0.194550 0.015229
0.261830 -0.193090 0.008645
0.219290 -0.187110 0.010066
0.099716 -0.193450 0.012190
0.175990 -0.193470 0.013871
0.186270 -0.197310 0.014058
0.223570 -0.189690 0.015159
0.239900 -0.190710 0.016835
0.091019 -0.191510 0.011403
0.225620 -0.194620 0.011474
0.260840 -0.191470 0.013300
0.263740 -0.194360 0.015105
0.222130 -0.196080 0.015652
0.190470 -0.190160 0.012295
0.211150 -0.187760 0.014984
0.226690 -0.193570 0.014515
0.106810 -0.190090 0.012344
0.189390 -0.196170 0.013022
0.272640 -0.195620 0.014750
0.259400 -0.193560 0.016159
0.254540 -0.195230 0.015625
0.272280 -0.194150 0.010465
0.197750 -0.187550 0.013780
0.196840 -0.189420 0.009588
0.189180 -0.193880 0.015573
0.187630 -0.190710 0.012631
0.209210 -0.187410 0.013388
0.183540 -0.190520 0.009907
0.272360 -0.192020 0.011102
0.230590 -0.189020 0.011693
0.253780 -0.192840 0.014133
0.220230 -0.192990 0.016357
0.243780 -0.194450 0.015112
0.231900 -0.192800 0.016380
0.098051 -0.192190 0.011186
0.260550 -0.189880 0.016983
0.271210 -0.192390 0.016399
0.172370 -0.193420 0.013305
0.236710 -0.194520 0.011300
0.227410 -0.195920 0.015074
0.210760 -0.195790 0.014088
0.261070 -0.186840 0.012024
0.192460 -0.188150 0.010216
0.190850 -0.190010 0.016767
0.192500 -0.195240 0.014967
0.131380 -0.190070 0.012083
0.273480 -0.190990 0.009096
0.129060 -0.189900 0.012652
0.193340 -0.187430 0.013135
0.244510 -0.191440 0.012253
0.267050 -0.186480 0.010579
0.246070 -0.190730 0.009204
0.233650 -0.187670 0.010859
0.266870 -0.190590 0.013388
0.277230 -0.190190 0.009270
0.111810 -0.190870 0.014477
0.186100 -0.189520 0.015969
0.254830 -0.187150 0.013265
0.274690 -0.187120 0.009964
0.166700 -0.192860 0.014048
0.178670 -0.189050 0.013781
0.241100 -0.188180 0.017360
0.200500 -0.191730 0.012200
0.226950 -0.192320 0.011042
0.270520 -0.196520 0.014555
0.258410 -0.187470 0.014778
0.252640 -0.193270 0.014396
0.141710 -0.190040 0.012040
0.116350 -0.190150 0.012089
0.246570 -0.187130 0.012995
0.198710 -0.192190 0.013583
0.227780 -0.188010 0.016471
0.260300 -0.188730 0.016336
0.177740 -0.191820 0.015282
0.268910 -0.191510 0.016602
0.256940 -0.186860 0.012055
0.255010 -0.192860 0.014151
0.106490 -0.193060 0.014186
0.212110 -0.189190 0.017228
0.232750 -0.194530 0.009009
0.269690 -0.196490 0.014607
0.200780 -0.188230 0.016854
0.279820 -0.189520 0.009416
0.232830 -0.189250 0.009561
0.173420 -0.193390 0.012147
0.112000 -0.190260 0.013902
0.226480 -0.189570 0.015331
0.207520 -0.192200 0.016559
0.236420 -0.191980 0.008942
0.243520 -0.196940 0.014143
0.211240 -0.191570 0.016694
0.259580 -0.189330 0.017110
0.189770 -0.191750 0.012254
0.201890 -0.194000 0.014720
0.252980 -0.187540 0.014961
0.190260 -0.190850 0.009337
0.236430 -0.194900 0.012970
0.220490 -0.191940 0.008980
0.220440 -0.187180 0.010049
0.202850 -0.188810 0.016715
0.233720 -0.197280 0.013688
0.214050 -0.196200 0.015553
0.229960 -0.195040 0.013458
0.110050 -0.193520 0.013264
0.090998 -0.191850 0.012915
0.125170 -0.192890 0.011593
0.257410 -0.197960 0.012427
0.233830 -0.189800 0.017051
0.243740 -0.194880 0.013080
0.146820 -0.193270 0.013480
0.181600 -0.193150 0.013440
0.233380 -0.191750 0.011871
0.267550 -0.190730 0.016778
0.281390 -0.193220 0.016194
0.212010 -0.189690 0.012060
0.211080 -0.187460 0.013683
0.250580 -0.189750 0.014827
0.265850 -0.187540 0.015271
0.209700 -0.192550 0.008862
0.248860 -0.197650 0.012990
0.276700 -0.195240 0.013173
0.233960 -0.195990 0.015540
0.150470 -0.191880 0.014662
0.180900 -0.190500 0.012480
0.235970 -0.187770 0.009888
0.203070 -0.190160 0.009411
0.198750 -0.196310 0.015518
0.282410 -0.190400 0.013227
0.267990 -0.187800 0.016486
0.177750 -0.193680 0.012023
0.213020 -0.192320 0.011162
0.192480 -0.191200 0.011177
0.142390 -0.192390 0.014513
0.204230 -0.191560 0.009094
0.237870 -0.194230 0.016047
0.248140 -0.191340 0.009064
0.206240 -0.192830 0.010438
0.198420 -0.195450 0.015844
0.270650 -0.190800 0.009145
0.282300 -0.197800 0.012242
0.203460 -0.193300 0.009729
0.207210 -0.190850 0.009249
0.184740 -0.194400 0.011705
0.273880 -0.194510 0.015919
0.261220 -0.190370 0.013780
0.251630 -0.186950 0.012336
0.267260 -0.187690 0.015963
0.259990 -0.193140 0.014338
0.273790 -0.191960 0.013635
0.128690 -0.192240 0.011214
0.224180 -0.191590 0.009051
0.100990 -0.190670 0.014297
0.193110 -0.190540 0.014113
0.263000 -0.187850 0.016580
0.275790 -0.198440 0.011519
0.190480 -0.194890 0.012467
0.234600 -0.193250 0.009530
0.200030 -0.190300 0.009385
0.186470 -0.194000 0.015192
0.281380 -0.186580 0.011338
0.229750 -0.193190 0.009663
0.229770 -0.188290 0.009783
0.237290 -0.193110 0.008685
0.116030 -0.192880 0.014300
0.198730 -0.190250 0.014512
0.112230 -0.191770 0.011132
0.103030 -0.190280 0.011977
0.270150 -0.192540 0.013989
0.207790 -0.187180 0.010072
0.183460 -0.189750 0.015512
0.280040 -0.196820 0.014003
0.135090 -0.190420 0.011586
0.092573 -0.191110 0.014558
0.206840 -0.192420 0.008896
0.263940 -0.193380 0.008575
0.234140 -0.186850 0.010098
0.250550 -0.197160 0.013733
0.259840 -0.187280 0.009955
0.134490 -0.193310 0.012285
0.140100 -0.193150 0.011990
0.236140 -0.194150 0.014902
0.279940 -0.191210 0.012299
0.188060 -0.194080 0.010543
0.149540 -0.191750 0.011123
0.157830 -0.190430 0.011479
0.218170 -0.195610 0.015774
0.183170 -0.194420 0.012812
0.184960 -0.189110 0.011629
0.184490 -0.189190 0.013783
0.213980 -0.193780 0.014614
0.184770 -0.190820 0.013753
0.200320 -0.192590 0.013838
0.226320 -0.194240 0.014934
0.207930 -0.188030 0.009880
0.184020 -0.189230 0.010539
0.249720 -0.193300 0.009316
0.272760 -0.191270 0.012276
0.220000 -0.192800 0.008788
0.209280 -0.195820 0.014192
0.234900 -0.189420 0.009520
0.228380 -0.189550 0.015337
0.276190 -0.189090 0.011856
0.278090 -0.188720 0.016188
0.192910 -0.192730 0.013907
0.187750 -0.193500 0.009793
0.101870 -0.190050 0.012630
0.271200 -0.186970 0.012852
0.109290 -0.193030 0.011657
0.216780 -0.189680 0.015239
0.213280 -0.191210 0.016771
0.113450 -0.192000 0.014692
0.203460 -0.189270 0.015996
0.152590 -0.189820 0.012422
0.201020 -0.187220 0.012374
0.245640 -0.187470 0.014494
0.097867 -0.190100 0.013385
0.168920 -0.189740 0.013636
0.188690 -0.188350 0.013845
0.281760 -0.193490 0.015431
0.110480 -0.190350 0.014016
0.241960 -0.189290 0.015622
0.120510 -0.190100 0.012155
0.200930 -0.188020 0.015925
0.162960 -0.191380 0.014684
0.109210 -0.191310 0.014658
0.239410 -0.190150 0.014303
0.209740 -0.192530 0.013827
0.269710 -0.194610 0.010205
0.258000 -0.188880 0.009599
0.279830 -0.194640 0.012802
0.206600 -0.187360 0.013123
0.181880 -0.190650 0.014036
0.143130 -0.193070 0.013923
0.208890 -0.189490 0.015601
0.135480 -0.191130 0.011192
0.262300 -0.195310 0.015399
0.199000 -0.191660 0.012312
0.238870 -0.186970 0.012120
0.224320 -0.192880 0.016374
0.266710 -0.191530 0.011916
0.237930 -0.188920 0.017241
0.255670 -0.190200 0.012493
0.252330 -0.188690 0.016460
0.168960 -0.192430 0.011275
0.221750 -0.187540 0.014277
0.275520 -0.191840 0.013566
0.269780 -0.194430 0.015945
0.212400 -0.191040 0.009197
0.245560 -0.191630 0.013356
0.194020 -0.188380 0.017356
0.199750 -0.187730 0.010807
0.160790 -0.190150 0.011724
0.183060 -0.192550 0.014702
0.243080 -0.193940 0.014792
0.235380 -0.189430 0.015472
0.196250 -0.196010 0.014748
0.269700 -0.188600 0.009639
0.244920 -0.189780 0.017034
0.228190 -0.194450 0.016016
0.243580 -0.191400 0.016674
0.184130 -0.189310 0.011752
0.249420 -0.196490 0.014778
0.120940 -0.191610 0.014712
0.233150 -0.187420 0.013978
0.218440 -0.194260 0.009740
0.131090 -0.192470 0.011323
0.275160 -0.197540 0.012918
0.233010 -0.191930 0.008959
0.216820 -0.193580 0.016232
0.093321 -0.192240 0.011193
0.265970 -0.187560 0.009880
0.213660 -0.194400 0.010246
0.235790 -0.193230 0.016276
0.134860 -0.193420 0.013078
0.248950 -0.187160 0.013199
0.213640 -0.193840 0.008565
0.104060 -0.191100 0.011287
0.271210 -0.192900 0.009744
0.148030 -0.191280 0.014661
0.216490 -0.190680 0.009270
0.192470 -0.189580 0.013089
0.238500 -0.192680 0.013991
0.234510 -0.189430 0.015473
0.274650 -0.188980 0.015814
0.278460 -0.191720 0.011524
0.197460 -0.191520 0.012543
0.215700 -0.193520 0.016247
0.130000 -0.190980 0.011262
0.142700 -0.190140 0.011866
0.218440 -0.189800 0.012145
0.281640 -0.194990 0.015582
0.194470 -0.188630 0.011354
0.187440 -0.192130 0.009972
0.251240 -0.194330 0.008531
0.198910 -0.189440 0.011867
0.277040 -0.192100 0.013735
0.281120 -0.191230 0.012266
0.215370 -0.192920 0.008769
0.241460 -0.194740 0.012374
0.194260 -0.190920 0.013512
0.187710 -0.190060 0.016155
0.221800 -0.195670 0.013810
0.204130 -0.194630 0.011046
0.244270 -0.190310 0.014014
0.124640 -0.191360 0.011155
0.239540 -0.194380 0.008481
0.250380 -0.191800 0.011644
0.218680 -0.187660 0.009945
0.251580 -0.192190 0.011031
0.248710 -0.187940 0.016670
0.230880 -0.193400 0.009327
0.278010 -0.190550 0.009187
0.240550 -0.187160 0.013021
0.196830 -0.194730 0.011336
0.203210 -0.190480 0.016953
0.193670 -0.188040 0.009906
0.133720 -0.190150 0.013893
0.211690 -0.196110 0.015556
0.235260 -0.190740 0.012773
0.192170 -0.194910 0.012334
0.265100 -0.188990 0.017175
0.229750 -0.195480 0.015782
0.177260 -0.190780 0.010578
0.249350 -0.187660 0.015417
0.262490 -0.195090 0.012143
0.239250 -0.190610 0.013599
0.188430 -0.194520 0.015286
0.194290 -0.195440 0.012160
0.188330 -0.188690 0.010569
0.241140 -0.187810 0.015915
0.107020 -0.190530 0.011641
0.208400 -0.194550 0.008517
0.269640 -0.189110 0.015662
0.273650 -0.188770 0.011649
0.152170 -0.192460 0.014435
0.223990 -0.190760 0.016852
0.198510 -0.188640 0.011367
0.280790 -0.193080 0.009383
0.141100 -0.190150 0.013935
0.280850 -0.187370 0.010795
0.092703 -0.191190 0.011283
0.135410 -0.193370 0.012458
0.110810 -0.192550 0.011326
0.224820 -0.187980 0.016312
0.175940 -0.192430 0.014931
0.163000 -0.192870 0.011757
0.280290 -0.194090 0.010400
0.230270 -0.187930 0.016204
0.281550 -0.188960 0.011653
0.240690 -0.186750 0.011168
0.228720 -0.191380 0.016703
0.165030 -0.193010 0.011961
0.161800 -0.192220 0.014525
0.251460 -0.187180 0.013357
0.216040 -0.189940 0.014834
0.266440 -0.188680 0.016350
0.279880 -0.192610 0.008719
0.199530 -0.193830 0.008592
0.247230 -0.186700 0.011125
0.221900 -0.194640 0.011514
0.188790 -0.190520 0.012516
0.156560 -0.190830 0.011250
0.266220 -0.186800 0.011968
0.229190 -0.188640 0.017320
0.180060 -0.190910 0.013652
0.247250 -0.193370 0.008608
0.136870 -0.190780 0.011323
0.114240 -0.189990 0.013330
0.162000 -0.191140 0.014641
