ply
format ascii 1.0
element vertex 1516
property float x
property float y
property float z
end_header
105.323219 64.500214 388.219788
165.792343 0.000000 53.108650
0.000000 364.360535 192.337234
836.213928 434.918091 40.852707
448.129547 62.590595 388.219788
0.000000 110.781441 253.570892
98.782753 0.000000 38.380573
97.977600 16.616083 0.000000
76.424660 434.918060 244.570694
215.454788 0.000000 190.404053
772.502808 0.000000 115.728317
141.109695 0.000000 372.988068
303.935822 93.380180 388.219788
0.086095 144.429291 388.219788
0.000000 292.109222 200.134918
280.015503 0.000000 265.516205
863.375671 163.400284 318.864410
0.000000 201.712265 84.595558
693.894714 434.918091 279.050720
537.017151 434.918091 202.419128
489.467560 434.918091 176.958862
798.847595 355.507935 388.219788
452.202515 0.000000 134.321365
339.709625 419.458893 0.000000
617.999878 432.912994 0.000000
2.782558 434.918091 177.769440
863.375732 173.704987 1.682961
554.882507 0.000000 280.431488
0.000000 29.088949 315.940826
671.631531 163.617401 388.219788
268.164429 187.145645 388.219788
519.006897 0.000000 5.126509
323.713165 117.669159 388.219788
273.039124 434.918091 120.860008
607.515137 434.918091 211.987274
523.583557 434.918091 380.018677
863.375671 49.747669 3.606644
534.988708 218.209595 0.000000
543.552002 163.685791 388.219757
524.390747 8.256537 388.219788
863.375732 220.029114 297.773865
863.375671 349.376587 153.682190
40.928944 372.938202 0.000000
708.898010 2.781508 0.000000
500.257721 434.918091 54.355461
863.375732 318.465057 7.585010
703.208862 83.280663 388.219757
104.436546 0.000000 367.837158
402.369141 434.918091 47.223366
368.156097 409.421631 388.219788
452.363647 0.000000 232.563110
863.375671 325.666656 84.097450
757.292358 434.918091 142.260727
71.328636 434.918091 128.534897
347.715820 333.866882 388.219788
725.377075 434.918091 0.515877
515.238586 434.918091 29.631176
21.331074 0.000000 3.389226
682.608398 323.781097 0.000000
441.567963 434.918091 357.227295
737.204590 434.918091 328.169373
143.905685 111.574768 388.219788
863.375610 18.909142 133.183380
403.133667 264.559967 388.219788
837.878601 229.560394 388.219788
765.037476 107.992493 388.219788
120.107552 434.918121 358.826965
193.963898 113.237816 0.000000
320.453796 0.000000 61.107697
251.566376 158.539734 0.000000
176.165878 434.918091 125.331039
774.190918 358.966278 388.219788
863.375671 105.566948 69.506531
36.696976 0.000000 339.594208
762.157410 81.447182 388.219757
235.307373 434.918091 169.919052
53.656254 434.918091 336.924744
236.565857 434.918091 40.694012
855.510376 434.918091 61.213982
415.633423 0.000000 211.715668
243.600906 50.467216 0.000000
333.438934 312.671478 388.219788
595.774841 250.536057 0.000000
61.527370 361.971283 0.000000
62.493557 34.830044 0.000000
33.633804 434.918060 375.028503
532.203186 0.000000 93.477158
47.976761 14.510668 388.219818
546.568665 434.918091 16.720633
384.360291 0.000000 168.901382
724.666504 244.618515 388.219788
0.000000 43.849247 46.360645
167.841019 31.919050 0.000000
469.970276 139.588486 388.219788
329.518219 434.918091 149.673706
617.276978 0.000000 232.577591
180.175339 190.368011 0.000000
863.375610 100.783043 228.074509
404.042633 169.240112 0.000000
0.000000 89.128883 110.601097
656.770081 434.918091 48.632202
0.000000 144.585754 323.817566
863.375671 149.568893 14.414577
589.530212 151.831039 388.219788
253.595032 60.027180 388.219788
35.051273 0.000000 241.819290
0.000000 360.490692 351.322113
10.121235 434.918091 98.546043
752.818054 434.918091 352.020264
185.565277 434.918091 195.284714
409.860321 434.918091 91.704124
114.514549 434.918091 230.600113
33.932819 434.918091 155.203766
849.575256 0.000000 139.706482
603.201721 188.503372 388.219788
0.000000 121.833488 168.479858
0.000000 348.985901 164.650131
481.199921 198.758789 388.219788
426.734070 188.132477 0.000000
489.638855 119.074562 388.219757
378.734253 434.918091 81.673988
654.868958 0.000000 262.010681
0.000000 249.086884 52.709049
532.879700 0.000000 174.149445
357.738098 0.000000 20.304718
0.000000 193.451752 164.500381
863.375671 311.560608 159.420380
863.375671 58.711449 83.474884
124.631409 367.313568 388.219757
48.393707 0.000000 280.522430
227.927780 118.967323 388.219788
89.507492 194.637772 388.219788
166.454086 90.934349 0.000000
69.496193 209.703049 388.219788
179.049728 0.000000 99.324905
863.375671 351.699005 311.720245
441.067261 39.125324 388.219788
105.890015 0.000000 214.378784
178.795563 252.124008 0.000000
97.731255 13.702453 388.219788
122.618996 434.918091 267.238251
562.037903 434.918091 170.669052
491.142822 127.205566 0.000000
688.977783 149.660156 0.000000
830.792847 434.918091 357.825073
0.000000 176.409836 140.933197
863.375610 186.558823 63.019142
203.770660 324.490631 0.000000
0.000000 184.450485 253.400024
810.106445 220.051987 0.000000
376.872589 5.667731 388.219788
418.755737 423.178619 0.000000
816.546631 0.000000 223.684769
431.971924 434.918091 239.603287
485.902313 0.000000 355.436371
333.737701 378.440430 388.219788
0.000000 194.814224 200.314911
575.822388 327.107391 388.219788
758.537048 50.799526 388.219818
656.667603 157.174240 0.000000
814.562622 434.918091 204.549500
18.800835 0.000000 266.383148
528.693970 57.024384 388.219818
522.712341 0.000000 225.661850
78.243561 0.000000 346.282196
684.860596 0.000000 180.558792
173.301712 315.106995 0.000000
405.991211 0.000000 189.683823
830.218018 434.918091 153.298080
863.375610 375.555267 358.674377
447.368591 0.000000 286.689545
641.289734 39.738113 0.000000
189.833267 0.000000 136.174194
700.963684 39.891315 0.000000
272.160400 0.000000 229.249695
863.375610 288.377991 101.393990
481.565735 180.986359 0.000000
92.259727 434.918060 288.277557
34.967319 307.678833 388.219788
863.375671 308.701111 380.524506
81.700264 434.918091 384.051727
336.969360 434.918091 335.479431
310.879578 189.086334 0.000000
566.815063 434.918091 342.698059
531.224915 434.918091 174.502121
595.416504 434.918091 105.901649
0.000000 389.332275 279.990295
298.845428 0.000000 100.863838
163.968048 230.635193 0.000000
284.799866 434.918091 370.019104
625.505981 66.599030 0.000000
476.213989 0.000000 106.600212
226.416412 229.566910 388.219818
535.179871 102.439499 0.000000
535.318176 334.561829 388.219788
863.375671 183.438080 371.737183
285.763580 0.000000 125.886139
327.245514 346.274780 0.000000
534.763489 0.000000 322.913208
806.680786 405.486694 388.219788
450.319855 0.000000 0.379028
595.015991 299.594543 388.219788
863.375671 133.114532 259.154053
752.893921 434.918091 234.220459
356.557617 434.918091 188.411285
569.966614 434.918091 129.783585
528.968750 434.918091 343.321045
299.311493 309.015869 388.219757
313.043671 0.000000 124.523003
35.320549 387.889313 388.219788
49.296432 64.104858 388.219788
0.000000 161.684586 368.240967
565.414307 36.830906 0.000000
431.122955 0.000000 387.748535
426.706299 104.320305 388.219788
520.140930 348.042389 0.000000
568.981750 0.000000 355.553131
863.375671 399.407196 241.618240
644.313416 434.918060 116.442619
863.375610 92.877396 24.367786
348.413727 0.000000 285.116028
670.749512 45.805653 0.000000
0.000000 329.129395 111.733421
863.375671 276.119568 141.166779
0.000000 280.013733 324.207153
863.375671 426.812653 323.670074
608.330566 27.782501 0.000000
226.995926 263.796814 388.219788
601.305237 403.383972 0.000000
414.696594 56.995625 388.219788
466.702393 434.918091 108.927673
330.291168 53.085403 388.219788
383.701172 18.834274 0.000000
620.399719 92.024391 0.000000
294.140076 56.110107 388.219788
0.000000 181.035187 112.195320
147.000351 0.000000 230.326111
789.080200 268.037903 0.000000
759.210327 434.918091 305.524231
863.333984 434.918091 270.479889
0.000000 189.677658 371.411377
0.000000 411.054291 175.088715
550.670471 65.161461 388.219788
863.375671 27.222925 14.262268
854.836853 0.000000 360.699493
470.300262 57.701328 0.000000
382.467529 96.885658 0.000000
412.734802 434.918091 269.483826
492.204468 434.918091 289.058960
209.756729 434.918091 169.779053
35.608116 131.793915 388.219788
89.720238 115.459373 388.219788
637.689758 176.201874 388.219788
863.375671 434.652832 189.031570
368.778107 317.318024 388.219788
90.205666 336.394135 388.219788
231.750992 5.690233 388.219788
863.375732 423.861145 299.117737
178.230240 0.000000 197.006439
160.254761 340.621490 388.219788
313.889648 434.918091 356.762146
180.543839 0.000000 387.467590
863.375610 353.658691 240.758820
523.965576 411.017822 388.219788
622.565796 194.532806 0.000000
144.354324 334.612091 0.000000
863.375732 295.520203 234.197281
374.297089 434.918091 4.621831
491.013275 169.484512 388.219788
645.402405 434.918091 221.452515
146.905334 434.918091 58.509434
627.758423 316.944824 388.219788
592.797974 343.879974 0.000000
363.098450 109.057304 388.219788
562.788147 44.219818 388.219788
728.637756 434.918091 193.325256
475.690247 434.918091 8.454969
594.658508 434.918091 302.481659
789.759155 119.648170 0.000000
0.000000 132.330017 24.441004
509.156067 365.997681 388.219788
0.000000 302.016785 240.174026
772.853943 434.918091 70.675278
66.809402 328.284546 0.000000
0.000000 247.054794 238.452805
0.000000 23.303450 204.053696
863.375671 14.828398 388.016998
863.375732 344.715485 0.561259
731.779602 179.807846 0.000000
196.998413 139.814484 0.000000
391.584534 0.000000 63.236412
33.134941 341.689301 0.000000
0.000000 251.227295 206.336151
138.241150 0.000000 178.150421
83.844757 53.570839 0.000000
0.000000 209.142700 252.358673
797.594788 33.072765 0.000000
710.312744 363.883270 0.000000
863.375732 336.513977 275.070374
101.823242 162.836792 388.219788
704.533630 127.101410 388.219788
213.490387 0.000000 39.766205
528.116577 0.000000 199.536240
693.291992 223.589249 0.000000
244.192459 0.000000 103.153442
0.000000 317.612152 167.004822
0.000000 144.912750 2.887418
827.250610 20.878483 0.000000
643.054626 205.977448 388.219788
291.558075 0.000000 205.407257
626.002319 118.288086 388.219788
0.000000 37.449863 249.123489
63.530159 0.000000 327.817139
292.521088 75.489677 0.000000
0.000000 76.927795 36.840439
776.385498 168.717224 388.219788
157.057571 426.476196 388.219788
194.123322 434.520782 0.000000
838.513916 315.938416 388.219788
270.223175 426.350342 388.219757
818.287109 434.918091 118.430328
718.182739 0.000000 204.077179
193.347092 243.949585 388.219788
591.293396 43.757378 388.219788
560.310486 434.918091 313.574493
41.023941 162.026459 388.219788
711.325806 195.301941 0.000000
237.847702 319.347778 0.000000
229.413696 434.918091 146.919296
812.422546 0.000000 369.320251
830.861267 325.599762 0.000000
84.755821 0.000000 98.214355
593.273865 122.096817 388.219788
308.648468 434.918091 109.951027
758.886963 139.370941 388.219757
132.011871 434.918091 327.692688
238.518677 434.918060 341.532837
594.486755 434.918091 234.476257
813.896729 428.279938 388.219788
361.974457 281.975006 388.219757
215.729568 434.918060 324.134552
462.962585 0.000000 45.018291
0.000000 131.314545 209.568665
42.079716 0.000000 92.354240
636.742737 434.918091 19.881517
652.024109 354.849548 388.219788
64.682129 434.918091 88.043236
27.722548 0.000000 372.560028
531.055298 293.241394 0.000000
759.023315 0.000000 44.889774
534.882568 185.486008 0.000000
689.999817 0.000000 69.456383
719.153870 402.863953 0.000000
265.154144 434.918091 164.155853
174.201935 391.886383 388.219788
15.603704 203.714203 0.000000
447.110901 321.213287 0.000000
863.375671 14.486575 198.282242
642.694397 434.918091 346.932465
0.000000 430.094757 237.351700
435.915436 345.342529 0.000000
500.665710 140.187790 388.219788
508.612122 95.451973 0.000000
198.569473 347.255859 0.000000
691.367554 49.166561 388.219818
267.704529 434.918091 342.679504
103.703476 434.918091 119.560806
863.375610 50.910320 37.706955
715.956055 434.918091 253.132706
546.411255 11.304194 0.000000
596.931152 267.179596 388.219788
423.369965 310.151123 0.000000
0.000000 108.654083 39.738991
174.906937 434.918060 364.096436
863.375732 409.612915 75.379219
213.892609 434.918091 349.687653
776.390137 434.918091 351.593445
328.309235 151.091507 0.000000
663.485962 380.991058 0.000000
736.933777 253.773010 0.000000
0.000000 290.151093 266.232788
580.358093 0.000000 99.812508
699.610291 0.000000 119.405907
622.363098 397.837860 388.219788
273.719025 0.000000 82.071342
618.698364 0.000000 108.292374
77.325493 215.844955 0.000000
242.544983 434.918091 316.696472
784.041931 292.684357 0.000000
0.000000 37.300209 371.747192
717.964417 434.918060 35.229015
863.375610 11.880859 299.835999
221.906311 309.968628 388.219788
36.467007 434.918091 318.298798
299.161194 367.193909 388.219788
863.375732 397.932526 329.612244
852.153076 141.794617 388.219788
508.954559 260.757843 388.219788
466.296631 434.918091 159.004028
378.540619 434.918091 365.704346
143.717896 434.918091 255.148911
9.033499 37.961067 0.000000
351.309296 316.336823 0.000000
0.000000 241.563965 279.877289
395.287537 343.506805 0.000000
0.000000 45.597839 124.834885
75.432930 0.000000 131.658432
514.925293 160.976227 388.219757
143.561203 192.380463 388.219788
827.719971 130.381790 0.000000
550.334717 0.000000 253.698929
840.288452 434.918091 101.330513
501.632202 434.918091 9.869523
33.016476 221.052048 388.219788
0.000000 37.201725 282.417236
392.054901 0.000000 308.550537
150.245407 0.000000 113.187729
800.851074 243.270401 0.000000
0.000000 382.890381 361.662933
613.985962 24.300068 388.219788
264.672760 434.918091 0.785685
619.241272 229.593826 0.000000
422.964569 416.026184 388.219788
305.134552 434.918091 64.644897
50.870117 87.126785 0.000000
649.026123 0.000000 70.332382
863.375671 387.997284 19.268085
726.746704 0.000000 276.456879
0.000000 137.300919 353.565460
471.557129 114.283943 0.000000
677.499023 434.918091 208.086014
863.375732 202.394897 36.828323
249.073059 434.918091 367.312622
334.279694 158.301376 388.219788
326.260986 434.918091 234.741776
339.678864 434.918091 206.194717
609.338623 0.000000 276.873871
0.000000 410.462646 359.797058
71.710304 138.118484 0.000000
719.886902 407.954041 388.219788
195.887161 0.000000 248.670288
680.415527 0.000000 0.506690
125.281570 0.000000 351.597107
160.127899 138.169159 0.000000
368.603973 385.085205 0.000000
522.498596 434.918091 241.278595
42.675331 156.706238 0.000000
742.172363 0.000000 197.226578
255.532181 138.893875 388.219788
293.884094 0.000000 18.019812
0.000000 278.755341 112.862602
327.917725 434.918091 314.103119
863.375732 421.339355 40.706486
71.691475 370.699921 388.219757
828.619629 434.918091 181.105057
828.036377 166.145401 388.219788
28.682981 434.918091 121.276520
255.342865 0.000000 177.587555
27.082312 434.918091 236.891693
503.560181 398.560272 388.219788
333.738831 0.000000 343.440796
863.375671 341.175995 24.323183
796.561279 434.918091 151.273560
330.720856 183.557632 388.219788
353.389374 0.000000 47.680538
359.550140 362.617340 388.219788
852.293091 0.000000 334.107300
495.854034 318.761627 388.219757
370.861267 207.332413 0.000000
443.778992 244.363678 0.000000
740.984863 358.117493 388.219788
465.194031 414.066223 388.219788
382.861023 434.918091 338.054260
748.621338 434.918091 94.931900
794.321472 434.918091 372.103424
813.471252 434.918091 8.563402
350.410339 128.623291 388.219788
638.989319 434.918091 93.530907
863.375671 248.352997 77.694099
837.687744 20.118040 388.219788
251.246078 434.918091 22.432714
174.315964 434.918091 22.451273
569.173523 434.918091 104.882530
202.703262 0.000000 305.785645
126.889374 434.918091 150.227158
738.594604 0.000000 298.920074
212.665817 0.000000 91.357559
654.170593 424.909180 0.000000
863.375671 167.747253 236.985794
0.000000 106.060272 367.404572
288.008118 0.000000 288.296082
0.000000 364.777496 83.746979
70.561028 0.000000 270.020752
754.198242 0.000000 176.197037
0.000000 332.636536 226.092300
367.139282 434.918091 319.263184
378.337860 0.000000 211.138245
222.588531 0.000000 365.686981
492.404602 0.000000 158.270157
631.825928 270.996521 0.000000
106.539970 0.000000 124.986603
0.000000 426.977997 333.788391
0.000000 168.499207 183.738647
295.114899 434.918091 301.529022
863.375610 235.757553 239.448853
813.908386 37.273922 388.219788
0.000000 329.915741 281.851746
62.123890 0.000000 160.238327
176.252045 75.416862 388.219788
280.569336 116.815750 388.219788
410.770142 434.918091 123.280861
115.678810 226.180237 0.000000
560.460571 217.396851 0.000000
23.444283 140.034119 0.000000
840.022156 434.918060 283.218628
548.262573 364.763580 388.219788
419.853241 177.591537 388.219818
547.299622 268.873535 0.000000
863.375610 259.637421 42.634995
201.488815 123.012276 388.219788
709.124146 0.000000 328.540466
265.590271 434.918091 208.699203
289.932648 0.000000 383.067474
59.919159 434.918091 154.950531
0.000000 364.419769 115.271423
0.000000 207.854218 323.169312
702.470154 82.130852 0.000000
51.611801 0.000000 9.225290
283.650940 0.000000 336.384949
300.787415 237.672592 388.219788
518.874512 434.918091 275.250153
863.375732 372.448883 259.611572
707.214050 434.918091 207.697281
719.349792 370.615662 388.219788
137.177811 311.136963 0.000000
549.886108 396.605286 388.219788
499.917419 411.793213 0.000000
736.638672 0.000000 66.148682
0.000000 155.971191 34.757488
183.753632 7.212114 0.000000
863.375732 79.955437 243.610397
169.053238 434.918091 291.248474
247.867401 182.290680 0.000000
564.518738 0.000000 222.040771
256.328125 109.948273 388.219788
433.132294 130.493362 388.219788
539.202576 0.000000 50.034237
354.954102 26.432892 0.000000
741.375061 279.165955 0.000000
71.178970 183.648987 0.000000
224.751282 358.368073 0.000000
466.758118 0.000000 83.097961
0.000000 216.378311 29.702425
836.126465 434.918091 244.714600
417.552673 240.349304 0.000000
0.000000 232.958237 127.963226
780.439514 0.000000 177.106354
863.375671 21.159166 321.414581
746.693665 0.000000 148.353256
296.108978 220.065979 0.000000
505.057983 28.818182 0.000000
0.257924 361.311737 0.000000
559.285645 434.918091 250.229553
24.652950 0.000000 188.902832
254.906158 317.012817 388.219788
760.592285 260.374725 0.000000
863.375610 0.213918 113.916405
259.682495 0.000000 12.658436
79.385490 434.918091 203.883224
348.579803 434.918121 270.524933
576.994507 362.803894 388.219788
808.504517 242.823120 388.219788
655.920898 8.881423 0.000000
863.375732 51.903358 152.768646
0.000000 364.955505 53.692741
87.272850 0.000000 72.395660
650.529419 261.851685 388.219788
191.816162 434.918091 220.195908
113.456558 252.528046 0.000000
615.805237 0.000000 354.257446
409.781342 0.000000 332.810425
333.802185 0.000000 317.289276
404.517395 434.918091 150.877243
43.677383 58.480209 0.000000
736.052368 99.002045 0.000000
863.375732 328.909760 117.868546
46.261665 434.693024 0.000000
76.426315 396.970947 0.000000
25.839800 402.954163 0.000000
863.375671 69.594452 16.527163
585.287598 434.918091 373.123718
165.545685 27.600183 388.219788
414.917755 0.000000 0.470754
534.297058 389.998993 0.000000
79.195801 271.145264 388.219818
95.350227 434.918091 327.620544
863.375732 280.418213 350.352692
813.125000 88.592430 388.219818
142.340958 388.475037 0.000000
26.519011 434.918091 286.421936
664.581116 434.918091 86.792557
158.349960 0.000000 351.962952
641.667725 0.000000 25.453117
481.094299 0.000000 136.603714
226.073120 434.918091 76.679581
0.000000 404.292328 238.651016
146.456726 3.741383 0.000000
198.714798 0.000000 368.781708
415.379852 434.918091 350.497437
237.246735 197.728134 388.219788
194.625183 405.605072 388.219788
836.509094 298.953125 0.000000
802.155884 434.918091 288.023132
504.785065 434.918091 151.698196
442.292297 0.000000 90.150635
863.375732 198.809326 274.363190
730.572205 293.280182 388.219788
35.285969 274.807861 0.000000
456.999023 86.143692 388.219788
863.375610 78.636726 183.835083
372.105194 0.000000 288.783264
851.938354 166.622955 388.219788
393.906830 418.061157 388.219788
584.588074 434.918091 189.647278
744.049255 318.173462 388.219788
447.443848 203.182602 0.000000
129.909637 391.338593 388.219788
80.010231 90.121674 0.000000
800.684875 316.091187 0.000000
290.155670 434.918091 7.174418
347.098755 0.000000 148.096252
791.654968 0.000000 197.486954
25.934542 65.800102 388.219788
476.525055 434.918091 317.174622
0.000000 344.584137 31.552757
786.662598 434.918091 200.718750
66.035683 396.510254 388.219818
159.480057 434.918091 101.721504
47.178650 111.652435 0.000000
273.979523 194.954956 0.000000
625.198364 0.000000 131.930664
292.027344 411.033844 0.000000
55.472294 113.291580 388.219788
778.457764 0.000000 91.557579
863.375732 117.026871 0.712181
111.109673 423.470612 0.000000
338.679626 250.952774 0.000000
0.000000 106.209740 134.032043
197.542877 370.562927 0.000000
644.858887 434.918091 292.183594
721.175720 0.000000 27.080070
863.375610 426.150635 137.300491
423.402893 0.000000 22.580832
63.390846 434.918091 35.490379
629.189636 75.478607 388.219757
22.640663 90.757835 0.000000
264.448395 19.349159 0.000000
117.243385 0.000000 66.843109
215.463104 200.888916 0.000000
613.722961 51.460773 388.219788
863.375671 25.704451 62.570866
595.396484 173.455475 0.000000
863.375671 431.586884 376.418335
0.000000 321.773041 256.613617
448.538757 0.000000 66.820152
816.765747 114.032990 388.219788
863.375671 259.633026 208.196335
781.595276 0.000000 0.437711
604.158752 434.918091 21.639046
767.779419 0.000000 22.524048
118.688568 0.000000 235.891769
863.375671 177.161774 266.098785
714.452148 277.632660 0.000000
863.375671 21.646545 172.626205
655.555054 434.918060 254.854477
230.711060 94.432861 0.000000
763.445435 419.675537 0.000000
309.788910 239.578735 0.000000
863.375671 317.420380 34.137154
551.970764 434.918060 146.752975
856.900757 0.000000 238.872879
805.406494 434.918121 88.131821
289.807861 330.441284 388.219788
435.570068 326.645447 388.219788
299.956207 434.918091 133.503433
399.065765 371.993744 0.000000
80.326645 0.000000 8.139344
676.346191 434.918091 332.452576
188.733032 281.154907 0.000000
778.132324 213.473984 0.000000
559.374695 334.438141 0.000000
314.747620 262.711884 0.000000
860.319641 434.918091 163.980820
469.278717 228.336838 388.219788
863.375671 56.169350 338.897339
0.000000 327.524811 191.057022
114.628395 434.918091 27.584284
16.157478 324.031036 388.219788
65.136497 256.279327 0.000000
0.000000 144.498611 160.451599
375.726837 0.000000 93.387955
19.141199 318.230530 0.000000
275.063049 301.403595 388.219788
820.633545 60.874405 0.000000
625.451416 434.918091 260.311829
343.603027 379.373993 0.000000
569.836975 184.400055 0.000000
648.158325 155.130280 388.219818
39.890099 250.280121 0.000000
185.494629 434.918091 267.412170
863.375732 158.429291 92.456810
863.375610 55.161381 297.908234
744.543945 434.918091 48.199074
863.375610 386.480164 132.868576
0.000000 386.244873 25.985146
837.483582 0.000000 302.659241
609.835876 434.918091 387.731018
471.922363 322.841278 0.000000
863.375671 293.426270 189.677414
691.026123 0.000000 216.820816
696.203369 0.000000 19.358236
382.299286 321.137756 0.000000
130.481369 0.000000 130.964005
416.734650 434.918091 191.249664
0.000000 165.250443 308.775085
863.375671 370.227417 115.711632
598.801025 204.717026 0.000000
427.113129 375.265076 0.000000
430.041901 289.783997 388.219788
138.540756 434.918121 284.844421
582.494995 0.000000 383.120117
863.375732 82.076988 54.508602
374.495300 434.918121 211.857071
24.606533 434.918091 69.281380
573.837158 0.000000 60.446941
296.103271 434.918091 31.553669
222.091095 0.000000 249.017899
470.927399 0.000000 22.958866
541.050720 434.918091 77.771843
776.539795 317.050934 388.219788
189.503036 148.599899 388.219788
0.000000 350.934723 267.337921
116.629890 0.000000 153.045609
577.438721 423.246643 0.000000
498.652283 204.701523 0.000000
663.451233 215.862122 0.000000
405.103485 0.000000 285.156433
0.000000 52.901192 184.903641
322.175232 434.918091 0.446874
57.584930 434.918091 371.288605
357.375183 251.937286 388.219757
384.915131 434.918091 129.241669
857.836304 200.786072 0.000000
239.512680 0.000000 137.997177
863.375671 249.304581 127.659775
196.340805 361.469116 388.219788
863.375610 310.251831 267.106812
863.375732 17.789442 348.594452
736.562500 367.276031 0.000000
863.375671 373.283997 179.495499
9.829553 434.918091 143.177582
863.375671 71.240692 384.194550
358.700531 434.918091 57.351707
405.715881 434.918091 377.435608
658.658203 0.000000 192.768524
817.069824 434.918091 230.514130
863.375732 50.378353 199.273682
166.987274 434.918091 180.266907
850.510498 274.261047 0.000000
863.110352 249.554123 0.000000
305.648285 145.321854 0.000000
863.375671 249.221344 172.846054
292.825836 434.918060 325.356476
863.375610 63.024387 123.986954
307.659760 434.918091 275.497894
863.375732 79.082840 322.534515
3.357895 223.445633 388.219788
447.049927 434.918091 134.627991
666.841431 0.000000 284.286621
125.989273 428.851471 388.219788
677.572876 434.918060 7.676041
782.582397 255.703522 388.219788
656.784180 0.000000 356.548401
642.807434 314.433685 0.000000
863.375671 139.532669 230.456055
322.582672 0.000000 296.920349
341.743286 0.000000 238.224152
127.914093 434.918091 112.372734
477.361542 12.843852 388.219788
596.730408 434.918091 259.669098
279.462006 247.731537 388.219788
139.997772 217.834412 0.000000
501.033325 166.099030 0.000000
211.198883 0.000000 151.590225
863.375671 326.100891 182.475708
682.156128 118.779053 0.000000
559.678345 344.315430 388.219788
315.487213 399.192444 388.219788
680.317566 404.617432 388.219788
433.937714 0.000000 251.984314
853.947327 372.218536 0.000000
793.051697 434.918091 227.360291
863.375671 392.114594 105.809830
828.152771 199.176834 388.219788
863.375610 144.633621 207.179413
46.943008 212.984558 0.000000
0.000000 6.432775 278.924255
837.174561 254.296448 0.000000
161.823547 366.811035 0.000000
863.375732 230.397217 318.577759
600.978088 371.239075 388.219788
585.483765 49.593033 0.000000
863.375610 30.208725 233.187851
365.032410 0.000000 118.853912
116.554985 35.952049 388.219788
156.225296 0.000000 79.909332
479.770081 93.747650 388.219788
369.384216 158.555817 0.000000
863.375671 99.934631 351.501709
633.562439 0.000000 162.802246
30.810461 434.918121 28.082342
509.476166 0.000000 322.369934
863.375671 234.740707 201.482361
681.527100 434.918060 137.734131
838.346008 61.098518 388.219788
122.204811 4.075839 388.219788
516.822510 129.880569 0.000000
443.156891 434.918091 11.450612
502.382233 426.364563 388.219788
0.000000 240.018890 97.182877
19.619583 433.072601 0.000000
744.096130 0.000000 9.333584
489.162994 0.000000 281.320038
637.724060 434.918091 178.767548
619.048950 335.184845 0.000000
0.000000 252.093597 169.922256
707.830444 154.516266 388.219788
657.208130 131.000305 0.000000
0.000000 331.345337 356.891571
480.653687 272.719666 388.219788
242.880081 281.929230 388.219757
724.939636 434.918091 293.656067
863.375671 220.224274 126.339302
0.000000 54.171921 266.402802
730.698730 65.490036 388.219788
598.022827 398.397644 388.219788
789.527710 0.000000 324.424774
677.250183 187.129578 388.219788
863.375671 401.997253 210.683502
492.543640 286.697357 0.000000
455.747345 282.423706 0.000000
265.487549 306.360077 0.000000
0.000000 281.537903 81.136421
503.797180 192.109863 388.219788
323.115143 434.918091 384.013000
402.576324 117.186737 388.219788
569.956787 396.179352 0.000000
450.149658 394.027283 388.219788
154.027328 309.332031 388.219788
257.590271 217.723389 388.219788
361.059235 434.918091 132.347855
863.375732 31.864929 105.782028
83.092087 0.000000 227.947037
437.478241 233.743622 388.219788
863.375671 327.074921 231.423218
661.432739 296.235596 388.219788
863.375671 140.911179 331.771301
378.135345 434.918091 285.423950
863.375671 157.483459 39.735638
523.145691 0.000000 144.123764
403.282654 58.264282 0.000000
216.614761 156.021149 388.219788
255.577927 0.000000 348.067688
89.528442 434.918091 355.286743
543.141113 434.918121 114.858330
734.478882 434.918091 147.310028
382.858948 0.000000 142.132843
217.545425 94.703552 388.219788
318.720428 0.000000 5.072778
113.707069 434.918091 206.887939
364.233429 261.356781 0.000000
597.367065 0.000000 332.066864
494.969421 41.015766 388.219788
607.232910 0.000000 18.457615
89.477837 0.000000 158.769104
459.494385 344.830261 388.219788
863.375732 366.499725 220.301422
0.000000 20.479513 76.676521
32.411377 0.000000 33.679413
771.982178 26.395821 0.000000
0.000000 214.528305 360.018066
2.282767 434.465149 388.219788
783.396667 0.000000 40.359322
381.405212 434.918091 252.049667
391.366333 195.927521 388.219788
44.599930 195.611694 388.219788
159.232025 0.000000 30.719366
700.893494 428.394043 0.000000
398.674957 434.918091 9.126576
518.123657 32.452488 388.219788
269.770355 124.665237 0.000000
108.370903 382.679474 0.000000
743.376099 0.000000 337.079376
466.314240 434.918091 295.462891
855.172668 367.192719 388.219788
803.158447 291.901367 388.219788
161.262054 0.000000 305.802917
150.068176 434.918091 354.331451
528.840271 184.443802 388.219788
838.333191 91.859612 0.000000
841.485657 0.000000 221.383224
255.678802 434.918091 95.860634
0.000000 100.298050 294.667114
863.375610 260.356018 337.586182
863.375671 396.972412 265.811554
562.146484 307.686035 0.000000
406.785400 324.382568 388.219788
479.810638 0.000000 229.410019
863.375671 101.209015 383.951538
863.375732 131.435913 363.646545
217.122009 389.042114 0.000000
663.771118 242.219604 388.219788
147.282425 432.201233 0.000000
680.129944 192.777374 0.000000
777.684387 434.918060 98.158188
657.020386 391.965271 388.219788
843.691895 434.918121 309.661591
760.350342 312.739685 0.000000
0.000000 84.826546 225.122803
178.180389 271.370880 388.219788
831.314026 157.272385 0.000000
0.000000 134.210907 291.492340
0.000000 76.255196 192.401123
197.522491 63.483006 388.219788
716.097229 0.000000 355.703644
642.322632 347.158325 0.000000
655.033325 321.638977 388.219788
672.284424 343.071564 388.219788
863.375671 232.040192 56.287117
324.613464 434.918091 48.064308
672.972961 24.648748 388.219788
0.000000 272.542664 24.423933
432.355194 0.000000 48.232929
395.670349 92.496567 388.219788
311.182587 0.000000 152.886703
863.375610 282.365417 327.035095
712.125793 434.918091 339.425476
679.719421 138.547714 388.219788
242.770889 0.000000 54.961235
7.178490 434.918091 311.062012
708.329346 434.918091 179.288895
208.313705 0.000000 11.829132
359.252167 434.918091 238.460068
863.375671 370.656799 48.706192
393.420197 223.357880 0.000000
0.000000 233.407089 342.388855
209.627243 434.918091 25.590544
0.000000 148.814240 235.331024
190.894348 434.918091 97.903801
71.478165 55.306931 388.219788
161.001862 434.918091 154.777405
380.858368 147.009750 388.219788
730.343018 0.000000 386.659424
684.737122 0.000000 387.760376
274.686157 372.875671 388.219788
309.574280 0.000000 187.007523
382.356354 59.185005 388.219788
187.828079 434.918091 335.738739
805.727783 434.918091 53.271523
746.964844 426.367065 388.219788
73.707977 29.062613 388.219788
0.000000 168.695282 71.984421
792.323853 409.353699 0.000000
797.295166 0.000000 269.370239
298.168060 334.997559 0.000000
97.308907 359.508240 0.000000
635.217102 383.707123 0.000000
124.013206 434.918091 74.574425
0.000000 23.992460 104.192757
281.309570 434.918060 91.490173
863.375671 132.210236 146.820145
297.284363 0.000000 358.269775
731.205688 66.975792 0.000000
733.688354 434.918091 370.935028
863.239075 335.496094 388.219788
863.375671 304.121857 128.755325
419.547211 286.334290 0.000000
632.913940 159.785690 0.000000
863.375671 202.945206 386.191254
779.336792 0.000000 150.355652
706.205017 246.778351 0.000000
809.760986 434.918091 259.923309
145.458939 74.739021 0.000000
256.452057 434.918060 186.142105
325.503601 0.000000 37.186520
0.000000 155.007996 280.530151
183.385223 434.918091 74.760147
250.620682 366.728729 0.000000
133.891541 162.613785 0.000000
112.913589 344.231567 388.219788
384.511902 33.927364 388.219788
601.593018 237.673889 388.219788
53.839111 434.918091 226.905106
863.375671 308.094574 208.742035
144.566757 434.918091 198.975784
506.152771 384.417053 0.000000
0.000000 279.507935 359.054077
300.026123 434.918091 157.889694
817.752625 332.968964 388.219788
863.375732 430.493896 352.582275
863.375671 349.296234 74.711533
315.408661 30.493521 0.000000
767.950073 391.162567 0.000000
719.534851 0.000000 239.234741
520.615540 208.821899 388.219818
752.271606 266.626495 388.219788
277.293945 0.000000 42.601673
807.847168 434.918091 342.473816
320.176361 267.385651 388.219757
753.274841 225.187363 388.219788
593.331726 142.627502 0.000000
863.375732 108.160072 297.577179
137.012054 0.000000 280.286041
279.921509 434.918091 66.157036
248.248672 415.871246 388.219788
691.435242 348.127045 0.000000
461.278748 34.624836 0.000000
784.593994 87.869904 388.219788
11.097968 348.538208 388.219788
473.979431 385.910767 388.219788
560.834290 0.000000 177.117691
406.542236 0.000000 41.128254
808.117676 0.000000 142.913284
376.462097 0.000000 344.802917
522.638916 434.918121 133.646988
373.134125 69.856377 0.000000
4.072227 297.748230 0.000000
824.479614 0.000000 258.539612
227.275909 335.913177 388.219818
863.375671 7.125986 40.083679
630.457581 243.729630 388.219788
490.946167 0.000000 254.867523
452.424896 434.918091 379.634216
362.349945 235.107758 0.000000
120.851227 434.918091 51.600494
111.864044 0.000000 284.935760
177.942947 325.717194 388.219788
36.514862 21.849707 0.000000
50.459297 434.918091 292.954895
235.987045 0.000000 21.682827
863.375671 117.456337 23.877071
0.000000 328.351990 311.889984
680.830811 434.918060 178.887238
323.633636 0.000000 372.430847
863.375732 218.992294 182.940140
803.333252 167.912491 0.000000
863.375610 301.436493 298.242554
584.675720 275.312561 0.000000
664.154968 113.704094 388.219788
333.826477 434.918091 85.939583
65.366272 434.918091 177.527100
335.002167 434.918091 26.549084
393.915833 0.000000 238.344070
863.375732 346.601318 51.543983
409.647247 0.000000 367.179016
188.678177 429.132538 388.219788
826.476746 434.918091 64.088600
357.899536 71.341461 388.219788
448.357178 134.041107 0.000000
741.867737 97.648499 388.219788
32.669270 434.918091 199.789490
863.375671 395.159729 187.109573
780.852966 434.918091 9.977886
579.216003 0.000000 311.837646
498.300842 0.000000 117.958755
547.809082 238.419510 0.000000
585.460876 0.000000 238.419022
863.375610 153.846878 357.057007
387.629883 434.918060 189.203613
567.477112 172.828171 388.219788
297.103210 162.773682 388.219788
589.055664 78.243050 0.000000
773.995117 236.545837 0.000000
470.904236 211.585724 0.000000
171.981628 427.634674 0.000000
302.066528 0.000000 316.694092
799.875671 0.000000 109.744896
615.876221 142.341171 388.219788
530.777466 0.000000 122.002045
569.713745 212.628906 388.219788
431.249451 264.118958 0.000000
487.023224 434.918091 342.243744
668.426697 434.918091 295.714020
863.375732 33.828606 277.738617
340.642273 232.113419 388.219818
466.511627 88.350357 0.000000
227.128403 0.000000 342.600433
594.195984 80.978882 388.219788
0.000000 402.707825 118.272285
700.954346 280.225616 388.219788
753.434326 394.102936 388.219788
0.000000 297.087372 381.565369
0.000000 319.390320 55.441471
654.480347 246.211716 0.000000
863.375671 190.714874 342.046661
759.027405 93.758286 0.000000
121.365891 0.000000 29.640293
276.910858 402.623901 388.219788
0.000000 424.112183 27.830282
336.079163 85.333069 388.219788
406.928467 349.017548 388.219818
341.356659 0.000000 387.695740
0.000000 15.943819 137.789948
438.998657 400.433319 0.000000
759.293030 0.000000 319.730927
752.430298 0.000000 269.612762
575.502258 0.000000 201.335037
153.296844 434.918091 233.234482
0.000000 74.158585 320.323212
50.036392 396.274994 0.000000
0.000000 403.013611 146.900497
863.375610 81.633308 144.033981
113.636520 118.698013 0.000000
393.917328 406.475616 0.000000
50.170288 0.000000 200.415497
187.121002 220.616196 388.219788
48.748165 364.665314 388.219788
675.092224 91.304855 388.219788
0.000000 131.806808 57.576439
663.821716 56.915112 388.219788
792.439087 383.431305 0.000000
462.918091 165.228958 388.219788
229.809174 28.578505 0.000000
863.375671 400.462585 159.344208
674.408203 0.000000 90.285660
335.971710 0.000000 213.239380
692.176392 265.491577 0.000000
553.334961 191.913452 388.219757
720.941223 30.482862 388.219788
0.000000 139.073334 80.940041
462.384827 0.000000 164.071640
99.289703 174.373230 0.000000
863.375671 104.523857 189.243378
476.631958 0.000000 191.425232
266.279297 434.918091 306.864136
214.193863 278.095306 0.000000
295.891541 434.918091 249.375977
560.236694 0.000000 84.665421
481.225555 434.918091 75.458336
336.299255 0.000000 127.147644
372.098450 292.504242 0.000000
172.684921 0.000000 243.245972
0.000000 433.446167 120.591286
0.000000 177.979691 230.569916
343.155640 74.805855 0.000000
364.296356 411.206970 0.000000
454.014832 304.526062 388.219788
0.000000 97.377937 180.887772
183.205627 0.000000 172.093536
252.837418 209.391998 0.000000
863.375671 262.106506 101.305077
0.000000 113.566650 227.147156
863.375671 75.148064 274.991302
863.375732 0.293035 272.815125
863.375671 103.883034 161.054260
280.439240 213.431335 388.219788
208.479202 280.758881 388.219788
863.375671 229.981522 92.392342
519.305664 0.000000 265.665497
863.375732 139.088028 183.729416
135.507172 434.918091 174.885849
510.895142 64.894768 0.000000
0.000000 401.701263 205.198990
493.204254 341.372253 0.000000
846.053589 277.926208 388.219788
245.496246 378.419525 388.219788
0.000000 393.156128 85.252678
863.375671 54.092232 251.074341
0.000000 248.281815 302.228149
436.071838 26.001417 0.000000
236.276947 245.410721 0.000000
456.365112 434.918091 270.735565
576.592468 234.045212 0.000000
863.375671 257.673279 312.246826
344.666016 0.714986 0.000000
589.069092 14.152063 0.000000
670.726685 209.913147 388.219788
176.181534 173.349762 388.219788
694.012695 380.133209 388.219788
863.375671 196.419540 314.472839
664.147705 434.300903 388.219757
171.263947 434.918091 54.268642
106.434525 0.000000 181.339767
815.571350 267.740814 0.000000
689.973145 379.267181 0.000000
474.995789 62.888523 388.219788
801.039062 0.000000 81.013206
135.827927 62.238033 388.219788
834.925964 404.335541 0.000000
510.772156 341.365479 388.219788
0.000000 256.047455 76.775497
863.375610 47.100060 176.060913
288.279480 100.037361 0.000000
401.819977 0.000000 127.375015
863.375671 408.730469 3.154798
762.072021 434.918091 269.187805
786.025757 68.697868 0.000000
863.375732 270.741394 21.387564
816.139954 0.000000 324.835022
436.224487 157.836166 388.219788
317.919373 330.751892 388.219788
590.526611 108.185471 0.000000
580.591675 434.918091 279.988586
841.091248 115.132004 388.219818
0.000000 336.724823 0.635555
0.000000 225.274506 182.648209
0.000000 372.895691 150.364563
379.899231 0.000000 35.603672
648.510315 95.610352 388.219788
2.930402 434.918091 203.343277
637.842773 0.000000 286.370880
769.138428 0.000000 346.859192
270.593384 388.879028 0.000000
325.926666 434.918091 174.416183
671.775818 434.918091 358.703217
56.924603 434.918091 259.388763
0.000000 253.830353 355.760498
390.457275 434.918121 311.361694
413.806976 219.474625 388.219788
334.857056 0.000000 86.409065
209.606201 179.579865 388.219788
0.000000 99.571739 72.922066
521.094238 0.000000 296.145844
792.612427 16.156603 388.219788
863.375610 315.731934 351.990082
561.477966 0.000000 37.374947
435.811310 434.918091 157.069183
806.903381 197.109772 0.000000
863.375671 71.717377 217.931198
863.375671 205.577042 80.015556
582.752991 0.000000 152.935226
261.469940 75.380623 0.000000
590.565430 434.918091 40.743256
254.080978 413.068390 0.000000
659.825745 434.918091 167.458878
496.359222 0.000000 85.429726
620.999329 0.000000 56.654507
0.000000 11.034106 239.926254
336.819580 288.869598 0.000000
628.279053 350.988464 388.219788
523.265137 313.847595 388.219788
522.123108 251.059296 0.000000
419.854492 0.000000 73.864014
761.318604 434.918091 118.040665
531.823120 255.836395 388.219788
351.717072 183.992050 0.000000
115.605888 187.387268 388.219788
178.716827 0.000000 321.367126
837.436096 387.183563 388.219788
835.076538 0.000000 198.576859
640.757507 434.918091 149.022629
279.401184 348.726685 0.000000
355.727386 0.000000 309.218109
200.712936 0.000000 334.346344
825.991699 0.000000 13.275317
238.616684 172.908936 388.219788
863.375610 285.253876 272.216278
57.891026 0.000000 224.637482
164.817444 0.000000 153.923126
429.906830 434.918091 41.062534
812.789307 63.256336 388.219788
693.392273 434.918091 158.601501
270.950684 264.946442 0.000000
110.084053 434.918091 95.315811
43.859917 319.507843 0.000000
196.601715 434.918121 243.237061
307.488800 434.918091 207.127640
274.076996 0.000000 153.971329
150.665741 168.917358 388.219788
841.521912 346.791382 388.219788
787.706177 0.000000 245.517990
219.491638 434.918091 282.931305
552.408875 164.007248 0.000000
812.104980 0.000000 172.907837
343.376801 400.140625 388.219788
863.375610 331.220734 207.652924
88.366394 288.614044 0.000000
517.078674 232.026718 388.219788
72.170937 112.548317 0.000000
863.375671 312.559753 61.800869
249.992126 0.000000 255.788879
37.626965 0.000000 60.384804
609.834167 0.000000 303.022217
414.909363 103.977089 0.000000
66.922409 0.000000 59.316521
833.820190 0.000000 89.139664
731.358643 305.334686 0.000000
777.762939 221.110840 388.219788
271.504486 434.918121 231.500320
230.497391 60.942711 388.219788
667.924805 0.000000 21.202053
0.000000 420.241791 262.709900
43.695343 434.918091 47.942341
112.218201 301.073975 388.219788
0.000000 200.499115 59.268185
53.874523 257.761475 388.219788
863.375732 144.059311 67.816635
0.000000 49.757935 350.718445
824.459656 0.000000 117.266411
284.735626 0.000000 175.174225
245.659103 0.000000 326.299988
863.375671 104.109970 321.978882
760.375488 434.918091 199.603058
524.772156 434.918091 298.346497
222.756592 396.880646 388.219757
0.000000 75.238251 294.504791
395.371002 291.175751 0.000000
697.973389 19.336199 388.219788
157.007202 192.929016 0.000000
493.642853 251.225693 0.000000
66.120743 331.780304 388.219788
560.979248 0.000000 124.558754
689.621277 0.000000 361.774841
627.719971 291.112183 388.219788
515.930664 434.918091 322.513977
824.277039 140.651215 388.219788
863.375610 185.781052 107.754448
423.752899 77.473030 0.000000
508.835175 0.000000 362.780731
218.312927 434.918091 378.544128
31.345480 186.225662 0.000000
0.000000 289.222687 170.488373
160.574799 167.480133 0.000000
662.497192 0.000000 217.642212
745.668823 400.711426 0.000000
416.847107 216.914612 0.000000
83.048340 424.350525 0.000000
471.285156 434.918091 132.236206
136.518433 256.817902 388.219788
230.682190 434.088074 0.000000
376.131470 434.918091 32.493370
0.000000 268.127716 256.094849
281.650330 288.932312 0.000000
34.476124 434.918091 96.255745
0.000000 187.735336 340.540588
0.000000 28.300316 25.351673
426.442352 0.000000 275.863892
403.955688 434.918091 222.299393
854.207642 413.323669 388.219788
622.609802 293.411652 0.000000
647.547119 0.000000 95.027260
0.000000 242.967957 30.162834
430.645172 256.203278 388.219788
745.954407 42.331966 0.000000
660.230591 99.824875 0.000000
602.771851 0.000000 202.359955
232.323654 222.637451 0.000000
462.032043 0.000000 262.115204
508.262238 434.918091 194.762665
356.353668 0.000000 199.455521
633.949402 0.000000 329.996735
214.944183 59.223061 0.000000
770.563904 49.976727 0.000000
371.474365 340.326294 388.219788
863.375732 155.649750 152.144547
0.000000 99.426353 205.436310
149.390167 0.000000 207.195435
481.846466 363.828308 388.219788
416.031250 0.000000 307.600220
823.949646 0.000000 66.116608
249.754898 434.918091 261.511169
819.065613 370.533081 388.219788
389.158844 253.650116 0.000000
0.000000 52.535545 99.218994
271.813324 0.000000 106.050018
863.375671 293.533936 26.159534
863.375610 339.517059 363.826233
863.375671 225.563675 151.060425
467.343201 237.764374 0.000000
655.862793 273.530396 0.000000
629.499695 0.000000 189.660614
403.303345 240.344315 388.219788
522.212463 434.918121 62.200214
0.000000 145.160324 184.530701
472.404083 155.558762 0.000000
534.286743 0.000000 359.690613
830.329346 183.987289 0.000000
30.948664 32.801144 388.219788
480.380676 434.918091 366.362396
254.644409 434.918091 69.731171
627.722961 0.000000 261.610931
181.674408 157.133301 0.000000
5.599262 0.000000 28.554434
0.000000 304.884979 78.227837
431.567749 434.918091 329.834991
301.167297 189.853729 388.219788
0.000000 146.165802 115.705521
313.966064 28.296350 388.219788
310.837677 362.992035 0.000000
729.693604 22.031919 0.000000
90.883156 259.677979 0.000000
118.047211 113.642372 388.219788
40.513550 92.833145 388.219788
140.759140 33.895748 388.219788
4.376724 0.000000 107.170586
591.077698 318.481262 0.000000
20.338186 192.675934 388.219788
522.476379 120.493187 388.219788
167.227859 393.662903 0.000000
782.723633 60.028938 388.219788
608.971130 0.000000 159.124008
863.375671 168.459183 132.182663
489.357819 434.918091 116.932365
501.966675 228.954453 0.000000
0.000000 79.258545 262.588135
79.476990 172.057587 388.219788
130.945129 90.783844 388.219788
500.230927 0.000000 25.852554
63.643612 0.000000 28.944668
755.398376 27.501965 388.219788
95.937630 434.918091 70.484901
717.166443 224.270691 0.000000
84.315010 228.031799 388.219788
653.484192 0.000000 136.530884
196.866577 311.403503 388.219788
268.104095 339.026672 388.219788
863.375671 177.810455 297.734161
0.000000 185.144150 20.234060
491.499512 237.435303 388.219788
632.212646 0.000000 214.288010
595.438843 0.000000 132.889694
24.536331 0.000000 139.322754
687.775024 250.578827 388.219788
527.534058 382.207581 388.219788
504.377655 0.000000 208.451157
37.400097 0.000000 164.309402
249.511581 342.756592 0.000000
776.116699 281.789612 388.219788
38.220337 340.137024 388.219818
619.437744 434.918060 121.042725
91.906052 434.918091 22.247204
451.803650 434.918091 317.769196
781.115173 0.000000 65.686302
288.189301 371.401398 0.000000
179.242081 70.526024 0.000000
343.005981 104.345963 0.000000
113.101273 434.918091 181.822601
433.489990 0.000000 186.571701
500.593903 0.000000 60.423801
709.213196 434.918060 77.480331
108.686058 259.359100 388.219788
759.760986 117.921997 0.000000
18.712013 111.412971 388.219788
202.874725 434.918091 144.882187
304.546204 0.000000 242.303436
863.375610 373.042725 285.184082
452.175781 379.512756 0.000000
829.962891 0.000000 152.250397
860.529846 258.054138 388.219788
0.000000 222.514679 214.289673
139.421997 0.000000 252.214264
437.951721 99.349350 0.000000
227.092285 434.918091 251.240341
690.737732 434.918091 50.016258
291.858398 17.352623 0.000000
202.454330 0.000000 220.399460
402.239288 393.823303 388.219788
274.150604 0.000000 313.971252
548.414429 434.918091 51.841240
232.616974 434.918091 117.256165
0.000000 18.584608 52.940353
18.553953 434.918091 348.969391
462.443817 0.000000 360.426636
863.375671 385.249268 80.408310
606.835815 0.000000 83.703758
0.000000 423.345886 55.577286
863.375671 208.749756 102.984863
313.652466 100.636581 0.000000
436.833282 0.000000 157.844223
839.433289 0.000000 40.302906
755.817017 193.682953 388.219788
0.000000 129.802673 139.918945
209.189209 209.922409 388.219788
863.375671 110.280815 132.301178
354.093414 49.576889 0.000000
550.677673 0.000000 150.896866
468.118134 38.899456 388.219788
733.178467 434.918091 118.270309
318.171631 409.531616 0.000000
0.000000 365.380157 302.311066
144.969955 221.356125 388.219788
281.095032 47.221840 0.000000
414.990631 396.036072 0.000000
846.903809 434.918091 210.823456
863.375732 188.711380 164.936096
737.091431 174.114517 388.219788
787.123596 146.420670 388.219818
452.712891 174.337479 0.000000
187.736588 99.373627 388.219788
430.201599 53.055157 0.000000
0.000000 321.537781 18.143192
844.203918 231.152008 0.000000
8.925430 113.526352 0.000000
391.794250 195.712769 0.000000
703.558105 434.918091 127.039795
721.499268 206.331055 388.219788
0.000000 336.405151 76.696831
24.256237 434.918091 260.997528
0.000000 217.672180 274.274292
311.752960 0.000000 275.567566
214.041855 166.876175 0.000000
667.187561 0.000000 242.009583
285.975189 173.990402 0.000000
449.700073 434.918091 179.332321
235.084381 29.248558 388.219788
503.501526 68.194221 388.219788
