ply
format ascii 1.0
element vertex 1655
property float x
property float y
property float z
end_header
0.060978 -0.009140 -0.017487
0.063012 -0.009370 -0.019405
0.062892 -0.012570 -0.019417
0.064433 -0.009651 -0.017169
0.061907 -0.010819 -0.019507
0.061445 -0.011390 -0.017445
0.061040 -0.012639 -0.019588
0.063387 -0.012540 -0.017266
0.061131 -0.008719 -0.019578
0.062730 -0.009030 -0.017326
0.067221 -0.012591 -0.016913
0.068588 -0.012781 -0.018892
0.065262 -0.011230 -0.019198
0.069721 -0.010292 -0.016681
0.066146 -0.010161 -0.017011
0.069395 -0.010381 -0.018817
0.067968 -0.010762 -0.016843
0.066677 -0.009121 -0.019067
0.067025 -0.011271 -0.019036
0.069003 -0.012252 -0.016748
0.067938 -0.008982 -0.016845
0.070547 -0.008662 -0.016605
0.071576 -0.010892 -0.018616
0.072239 -0.012173 -0.016450
0.071433 -0.010613 -0.016524
0.074899 -0.008474 -0.016204
0.073219 -0.011493 -0.018465
0.072024 -0.008622 -0.018574
0.074942 -0.009253 -0.018305
0.074400 -0.011334 -0.016250
0.070576 -0.013202 -0.016603
0.070470 -0.013132 -0.018719
0.075648 -0.013213 -0.018241
0.076860 -0.010274 -0.016023
0.079299 -0.012705 -0.015799
0.078875 -0.011724 -0.017943
0.078603 -0.010975 -0.015863
0.076296 -0.011453 -0.018181
0.076993 -0.009254 -0.018116
0.078636 -0.009834 -0.017965
0.076382 -0.012414 -0.016068
0.083542 -0.010136 -0.015407
0.083007 -0.011855 -0.017562
0.080166 -0.009775 -0.015718
0.082695 -0.012086 -0.015486
0.081344 -0.011185 -0.017716
0.080554 -0.011485 -0.015683
0.080678 -0.009455 -0.017776
0.084259 -0.008446 -0.015341
0.083286 -0.009885 -0.017536
0.088036 -0.009427 -0.017098
0.089914 -0.012428 -0.014820
0.090118 -0.009517 -0.016906
0.087286 -0.011897 -0.015063
0.087329 -0.011987 -0.017164
0.085464 -0.010017 -0.015230
0.087326 -0.009137 -0.015058
0.085367 -0.010446 -0.017344
0.086105 -0.008306 -0.017276
0.089576 -0.010348 -0.014851
0.085267 -0.012446 -0.017354
0.094675 -0.008319 -0.014380
0.090157 -0.012107 -0.016903
0.092089 -0.008758 -0.016724
0.093499 -0.012169 -0.014490
0.095043 -0.010459 -0.014347
0.092975 -0.011988 -0.016644
0.094439 -0.010559 -0.016508
0.091837 -0.009139 -0.014642
0.091617 -0.011679 -0.014663
0.098050 -0.010410 -0.014070
0.098392 -0.012150 -0.016144
0.099159 -0.009350 -0.016073
0.096381 -0.010499 -0.016329
0.096171 -0.012919 -0.016349
0.099434 -0.012031 -0.013943
0.098479 -0.008400 -0.014030
0.096846 -0.009000 -0.014180
0.096486 -0.012700 -0.014215
0.104510 -0.011332 -0.013258
0.103490 -0.010271 -0.015551
0.102090 -0.010512 -0.013649
0.101570 -0.010171 -0.015851
0.100710 -0.011860 -0.015930
0.105140 -0.010852 -0.015285
0.100570 -0.009101 -0.013837
0.104870 -0.008602 -0.015347
0.102470 -0.012442 -0.013572
0.104030 -0.008582 -0.013357
0.102860 -0.012081 -0.015636
0.108670 -0.011683 -0.014395
0.107540 -0.012173 -0.012533
0.107050 -0.009342 -0.014940
0.106740 -0.011732 -0.014968
0.105590 -0.009443 -0.013102
0.109410 -0.008513 -0.014261
0.109800 -0.012993 -0.014029
0.105840 -0.013043 -0.013014
0.109210 -0.011984 -0.012042
0.108100 -0.009414 -0.012439
0.109770 -0.009044 -0.011955
0.114170 -0.012996 -0.009950
0.114870 -0.009786 -0.009786
0.111380 -0.009545 -0.011353
0.113030 -0.011455 -0.010530
0.113000 -0.008385 -0.012975
0.113100 -0.010445 -0.012839
0.110890 -0.012225 -0.011446
0.114780 -0.010395 -0.012094
0.114800 -0.008525 -0.012171
0.112190 -0.013014 -0.013124
0.111220 -0.010894 -0.013657
0.111450 -0.008814 -0.013649
0.116730 -0.009857 -0.008637
0.115470 -0.012046 -0.009261
0.119520 -0.009027 -0.009443
0.118010 -0.011587 -0.010194
0.115880 -0.012276 -0.011458
0.118050 -0.011578 -0.007708
0.118690 -0.009968 -0.007430
0.117770 -0.009787 -0.010463
0.123100 -0.010829 -0.006492
0.121170 -0.012369 -0.005213
0.122580 -0.010320 -0.004220
0.123340 -0.011620 -0.003248
0.124400 -0.008731 -0.002499
0.124580 -0.011221 -0.001988
0.124530 -0.012700 -0.004907
0.120740 -0.012418 -0.008257
0.121220 -0.009729 -0.005428
0.124250 -0.009740 -0.005571
0.120500 -0.010448 -0.008637
0.123360 -0.008529 -0.006499
0.123110 -0.008660 -0.003870
0.120170 -0.011259 -0.006129
0.124170 -0.013031 -0.002203
0.120210 -0.008459 -0.006367
0.122100 -0.012489 -0.007153
0.129190 -0.010774 0.004427
0.128490 -0.010073 -0.000667
0.129080 -0.008654 0.003722
0.125640 -0.011471 -0.003890
0.126530 -0.008502 -0.000060
0.125170 -0.008290 -0.004788
0.127650 -0.012193 0.002107
0.130150 -0.009185 0.005824
0.127760 -0.009513 0.001802
0.129710 -0.013005 0.005899
0.126320 -0.009771 -0.003391
0.129390 -0.011113 0.000761
0.127520 -0.009542 -0.002093
0.128190 -0.011942 -0.000749
0.126520 -0.011802 0.000493
0.128580 -0.012224 0.003637
0.127010 -0.011252 -0.002476
0.127050 -0.013092 -0.002142
0.126010 -0.010282 -0.000476
0.130180 -0.011135 0.006337
0.134160 -0.012847 0.038988
0.131380 -0.010867 0.009151
0.132800 -0.009266 0.036058
0.131150 -0.010305 0.003517
0.132130 -0.011397 0.040194
0.135030 -0.009845 0.033839
0.132260 -0.012866 0.036784
0.131660 -0.011605 0.004770
0.134780 -0.010386 0.035757
0.133780 -0.011379 0.045170
0.132720 -0.011328 0.013788
0.133130 -0.011859 0.015879
0.135030 -0.013080 0.015472
0.134730 -0.009478 0.012197
0.131500 -0.010179 0.048790
0.134630 -0.012116 0.034837
0.133340 -0.011817 0.008747
0.131590 -0.013228 0.043503
0.133950 -0.008741 0.022374
0.133710 -0.013188 0.043364
0.134330 -0.010867 0.040025
0.132410 -0.011106 0.037620
0.131850 -0.012277 0.041981
0.134490 -0.008858 0.041076
0.133570 -0.011931 0.020733
0.132190 -0.012258 0.012050
0.134020 -0.012938 0.011097
0.131760 -0.011178 0.044562
0.133850 -0.008897 0.009092
0.133540 -0.010120 0.017719
0.134330 -0.008798 0.042947
0.133400 -0.012030 0.018728
0.134350 -0.012766 0.037000
0.132700 -0.012706 0.007360
0.131310 -0.012469 0.047631
0.134900 -0.013064 0.030625
0.132740 -0.009840 0.050186
0.133380 -0.012080 0.048537
0.132650 -0.012445 0.033066
0.133260 -0.010783 0.028857
0.134280 -0.011208 0.011257
0.133460 -0.012362 0.022853
0.134760 -0.012425 0.033088
0.132540 -0.011655 0.035472
0.131630 -0.013217 0.010579
0.132630 -0.010986 0.006614
0.131980 -0.009167 0.010176
0.132930 -0.010445 0.032998
0.132340 -0.009147 0.041266
0.134050 -0.011338 0.042228
0.133460 -0.012869 0.046480
0.132020 -0.010308 0.042954
0.133680 -0.010462 0.024057
0.133600 -0.009773 0.026525
0.133010 -0.008895 0.034287
0.132910 -0.008416 0.006502
0.133560 -0.008334 0.029064
0.130950 -0.009066 0.007428
0.133160 -0.012893 0.026860
0.132640 -0.009116 0.037985
0.134810 -0.008587 0.038028
0.130400 -0.009454 0.001968
0.133380 -0.009949 0.015958
0.132020 -0.009268 0.044462
0.132910 -0.011834 0.031133
0.134440 -0.011227 0.038275
0.133850 -0.009370 0.047235
0.134070 -0.009819 0.044386
0.132940 -0.013053 0.029026
0.133460 -0.011402 0.025810
0.133890 -0.009171 0.019885
0.134890 -0.010769 0.013540
0.133160 -0.009974 0.031071
0.133120 -0.013050 0.017298
0.130470 -0.011784 0.002630
0.131600 -0.010639 0.047096
0.131920 -0.009015 0.004654
0.131840 -0.008859 0.046991
0.131050 -0.012616 0.008881
0.132260 -0.012180 0.050141
0.132290 -0.010548 0.011590
0.132890 -0.009458 0.013528
0.135350 -0.010934 0.028838
0.136000 -0.009162 0.021737
0.135610 -0.012142 0.021712
0.135530 -0.012163 0.024876
0.135760 -0.010481 0.019178
0.135390 -0.012450 0.018118
0.136020 -0.008331 0.019040
0.135290 -0.009735 0.031242
0.135380 -0.010920 0.016114
0.135580 -0.012501 0.019976
0.135410 -0.009299 0.014914
0.135850 -0.009033 0.026176
0.135800 -0.010163 0.024345
0.135170 -0.012834 0.028087
0.135480 -0.011463 0.026662
-0.086735 -0.008017 0.000963
-0.086098 -0.003666 -0.003717
-0.085562 -0.007966 -0.003578
-0.085233 -0.005306 -0.005596
-0.087409 -0.004628 0.002371
-0.086330 -0.006097 -0.001836
-0.085883 -0.005616 -0.003555
-0.086473 -0.007527 -0.000705
-0.086657 -0.003967 -0.001695
-0.086987 -0.005317 0.000290
-0.080793 -0.005624 -0.013807
-0.080106 -0.004695 -0.011155
-0.083747 -0.004967 -0.003684
-0.084727 -0.004998 -0.000365
-0.084712 -0.007976 -0.005948
-0.082995 -0.006236 -0.005183
-0.082687 -0.008085 -0.010194
-0.079865 -0.007675 -0.010877
-0.080583 -0.003304 -0.014467
-0.083669 -0.005895 -0.008924
-0.081919 -0.007265 -0.011631
-0.082327 -0.004866 -0.007101
-0.080726 -0.007924 -0.013427
-0.083714 -0.006937 -0.002904
-0.083169 -0.008157 -0.004188
-0.081859 -0.006846 -0.007548
-0.084498 -0.004525 -0.007482
-0.081215 -0.005376 -0.009193
-0.083909 -0.007755 -0.007818
-0.082066 -0.005455 -0.011797
-0.084306 -0.007388 -0.000701
-0.084231 -0.003477 -0.002723
-0.082927 -0.004315 -0.010651
-0.083871 -0.004005 -0.009050
-0.081710 -0.003984 -0.012709
-0.082363 -0.007846 -0.006109
-0.077922 -0.005445 -0.014052
-0.077228 -0.004504 -0.018208
-0.078883 -0.004224 -0.016408
-0.079043 -0.006214 -0.015863
-0.075633 -0.006065 -0.016619
-0.077360 -0.003915 -0.015011
-0.079017 -0.004285 -0.012901
-0.077690 -0.006814 -0.017431
-0.075571 -0.006474 -0.019511
-0.078729 -0.007365 -0.012723
-0.077368 -0.007945 -0.014303
-0.076745 -0.006465 -0.015328
-0.075816 -0.004014 -0.019613
-0.079311 -0.008264 -0.015179
-0.073303 -0.006355 -0.018790
-0.070533 -0.006404 -0.020921
-0.073070 -0.007054 -0.021601
-0.071922 -0.005364 -0.020024
-0.070934 -0.004004 -0.023478
-0.072617 -0.004244 -0.022230
-0.071430 -0.003474 -0.020583
-0.070927 -0.006454 -0.023221
-0.074349 -0.004674 -0.018026
-0.074497 -0.003784 -0.020896
-0.074185 -0.005824 -0.020915
-0.072019 -0.007865 -0.019686
-0.070429 -0.008155 -0.020810
-0.067064 -0.006145 -0.023115
-0.066940 -0.004224 -0.025726
-0.065157 -0.006364 -0.026423
-0.065658 -0.005285 -0.023949
-0.068340 -0.003394 -0.025035
-0.069340 -0.006434 -0.024241
-0.067683 -0.007084 -0.025086
-0.069276 -0.005145 -0.021969
-0.068335 -0.007405 -0.022321
-0.066629 -0.003315 -0.023585
-0.068526 -0.003445 -0.022544
-0.069463 -0.004524 -0.024332
-0.061790 -0.005615 -0.027760
-0.063919 -0.007905 -0.024557
-0.064114 -0.007854 -0.026730
-0.063347 -0.004734 -0.027218
-0.060549 -0.004325 -0.028194
-0.064567 -0.003324 -0.026837
-0.060561 -0.005205 -0.025997
-0.062617 -0.005815 -0.025185
-0.064310 -0.004245 -0.024634
-0.062029 -0.007735 -0.025292
-0.062280 -0.007965 -0.027427
-0.060443 -0.007225 -0.025932
-0.062777 -0.003585 -0.025262
-0.057159 -0.004965 -0.028979
-0.058744 -0.006265 -0.028543
-0.056903 -0.006476 -0.026819
-0.055490 -0.007886 -0.029166
-0.058556 -0.008195 -0.028504
-0.055156 -0.003466 -0.029313
-0.055801 -0.004696 -0.027107
-0.056862 -0.006695 -0.028975
-0.059371 -0.003396 -0.026360
-0.058713 -0.005886 -0.026410
-0.052788 -0.004476 -0.029536
-0.050438 -0.003738 -0.027529
-0.052084 -0.007927 -0.027414
-0.053882 -0.004987 -0.027300
-0.049989 -0.006667 -0.029590
-0.049979 -0.008058 -0.027481
-0.053969 -0.006306 -0.029365
-0.054847 -0.006477 -0.027161
-0.050861 -0.004817 -0.029628
-0.052381 -0.005897 -0.027434
-0.046898 -0.008148 -0.029496
-0.045973 -0.008249 -0.027347
-0.049771 -0.006068 -0.027492
-0.047293 -0.006268 -0.029522
-0.046318 -0.006199 -0.027378
-0.046282 -0.003338 -0.029480
-0.048076 -0.006778 -0.027441
-0.048201 -0.004668 -0.029559
-0.048007 -0.004558 -0.027458
-0.045859 -0.004419 -0.027335
-0.045349 -0.005258 -0.029394
-0.043628 -0.004649 -0.029235
-0.044726 -0.007238 -0.029337
-0.043071 -0.007380 -0.027079
-0.042130 -0.005870 -0.026992
-0.041922 -0.005229 -0.029078
-0.043876 -0.003399 -0.027152
-0.040646 -0.007250 -0.026856
-0.040305 -0.007110 -0.028930
-0.042861 -0.006899 -0.029165
-0.043874 -0.005519 -0.027153
-0.040098 -0.004771 -0.026804
-0.038875 -0.007151 -0.026692
-0.036575 -0.006121 -0.028585
-0.037964 -0.004231 -0.026608
-0.037233 -0.004321 -0.028646
-0.035086 -0.005141 -0.028448
-0.036014 -0.005822 -0.026428
-0.038910 -0.005150 -0.028800
-0.036778 -0.007721 -0.026499
-0.031139 -0.006092 -0.028084
-0.032347 -0.005463 -0.026090
-0.031322 -0.003842 -0.028100
-0.031202 -0.008092 -0.028091
-0.030791 -0.003443 -0.025946
-0.033904 -0.003572 -0.028338
-0.033175 -0.006262 -0.028272
-0.034164 -0.006262 -0.026258
-0.034798 -0.006921 -0.028422
-0.031095 -0.007013 -0.025975
-0.032680 -0.003733 -0.026120
-0.026198 -0.006865 -0.025524
-0.029720 -0.004903 -0.027953
-0.025056 -0.003614 -0.027523
-0.025110 -0.005624 -0.027528
-0.027345 -0.006723 -0.027735
-0.027691 -0.005074 -0.025661
-0.029311 -0.006514 -0.025810
-0.025479 -0.007654 -0.027563
-0.028809 -0.007723 -0.027870
-0.027422 -0.004823 -0.027741
-0.025783 -0.004585 -0.025485
-0.024381 -0.006355 -0.025356
-0.022747 -0.003416 -0.025204
-0.020879 -0.005816 -0.025033
-0.021942 -0.005725 -0.027236
-0.019899 -0.007716 -0.027049
-0.022205 -0.007866 -0.025156
-0.023640 -0.007345 -0.027393
-0.016282 -0.006427 -0.024609
-0.018997 -0.005507 -0.024859
-0.019805 -0.008056 -0.024935
-0.017395 -0.004237 -0.024711
-0.019561 -0.004746 -0.027016
-0.016480 -0.005577 -0.026733
-0.016469 -0.008247 -0.026732
-0.017387 -0.003796 -0.026816
-0.018138 -0.006786 -0.026886
-0.014631 -0.008157 -0.026563
-0.012536 -0.006298 -0.024264
-0.011460 -0.005778 -0.026270
-0.013740 -0.004188 -0.024374
-0.010684 -0.004649 -0.024093
-0.010752 -0.006959 -0.024100
-0.011256 -0.008078 -0.026252
-0.014261 -0.004337 -0.026528
-0.013956 -0.006177 -0.026500
-0.011210 -0.004048 -0.026246
-0.014599 -0.006998 -0.024454
-0.005514 -0.004140 -0.023616
-0.008380 -0.003740 -0.023880
-0.005425 -0.008080 -0.025714
-0.005044 -0.004920 -0.025678
-0.008501 -0.007030 -0.023892
-0.008032 -0.007359 -0.025954
-0.006493 -0.007500 -0.023707
-0.009441 -0.003299 -0.026083
-0.007378 -0.005500 -0.023788
-0.009635 -0.006229 -0.026102
-0.008215 -0.005029 -0.025970
-0.005082 -0.006221 -0.023577
-0.006278 -0.006440 -0.025792
-0.001242 -0.006691 -0.025328
-0.003167 -0.005280 -0.025505
-0.000788 -0.004331 -0.025285
-0.003420 -0.004461 -0.023423
-0.003880 -0.007641 -0.023466
-0.002008 -0.005981 -0.023293
-0.001899 -0.007792 -0.023284
-0.001629 -0.004062 -0.023258
0.001400 -0.006072 -0.025084
0.005150 -0.005344 -0.022633
0.003523 -0.006322 -0.024889
0.003558 -0.004012 -0.024885
0.004969 -0.005143 -0.024755
0.000611 -0.007822 -0.025158
0.001836 -0.006433 -0.022939
0.000213 -0.007122 -0.023089
0.000346 -0.003462 -0.023075
0.000240 -0.005202 -0.023086
0.003337 -0.005493 -0.022800
0.003599 -0.008192 -0.024882
0.008788 -0.004925 -0.022297
0.007309 -0.003404 -0.022433
0.008183 -0.005854 -0.024459
0.008327 -0.008094 -0.024446
0.006591 -0.006583 -0.024606
0.010107 -0.004834 -0.024281
0.010103 -0.003745 -0.022176
0.006385 -0.007204 -0.022520
0.011815 -0.004005 -0.024124
0.014069 -0.006645 -0.023917
0.010179 -0.006624 -0.024275
0.011237 -0.005245 -0.022072
0.013625 -0.004815 -0.023957
0.012229 -0.006235 -0.024086
0.014954 -0.007226 -0.021730
0.010339 -0.007355 -0.022155
0.014355 -0.004486 -0.021784
0.013146 -0.005976 -0.021896
0.011920 -0.003375 -0.022008
0.018459 -0.005717 -0.021406
0.017387 -0.004086 -0.023610
0.019494 -0.008288 -0.021311
0.016258 -0.005567 -0.021609
0.017304 -0.007577 -0.021513
0.019986 -0.006437 -0.023371
0.019439 -0.003517 -0.023421
0.016501 -0.006346 -0.023692
0.018930 -0.008237 -0.023469
0.015445 -0.004876 -0.023789
0.016996 -0.003957 -0.021540
0.024945 -0.006019 -0.022914
0.023170 -0.003709 -0.020971
0.024115 -0.007499 -0.020885
0.022592 -0.005749 -0.021025
0.021848 -0.006658 -0.023199
0.020321 -0.006628 -0.021235
0.022824 -0.005028 -0.023109
0.024466 -0.007958 -0.022958
0.020909 -0.004298 -0.021180
0.024278 -0.003678 -0.022974
0.021251 -0.003998 -0.023254
0.024464 -0.005489 -0.020852
0.029951 -0.005181 -0.020346
0.028061 -0.008190 -0.022627
0.029018 -0.005680 -0.022538
0.028188 -0.004950 -0.020509
0.025858 -0.004089 -0.020723
0.027331 -0.007100 -0.020589
0.029074 -0.006770 -0.020428
0.026031 -0.004059 -0.022813
0.026807 -0.005849 -0.022742
0.030826 -0.008021 -0.020267
0.033927 -0.006431 -0.022086
0.034770 -0.006452 -0.019903
0.031078 -0.007900 -0.022349
0.034840 -0.004372 -0.019895
0.033027 -0.005472 -0.020063
0.032718 -0.007221 -0.020092
0.030760 -0.005020 -0.022377
0.030538 -0.003471 -0.020292
0.032802 -0.004501 -0.022189
0.039410 -0.007283 -0.019475
0.036915 -0.003682 -0.021809
0.035689 -0.007252 -0.021923
0.037611 -0.005582 -0.021746
0.039918 -0.004864 -0.019427
0.039633 -0.004453 -0.021559
0.037969 -0.007442 -0.021713
0.035610 -0.005072 -0.021930
0.037558 -0.005033 -0.019645
0.035984 -0.007792 -0.019791
0.040678 -0.006153 -0.021463
0.041770 -0.007184 -0.019257
0.041442 -0.003624 -0.019287
0.043683 -0.003625 -0.019080
0.043732 -0.006745 -0.019076
0.042460 -0.006394 -0.021299
0.045119 -0.005084 -0.021053
0.041177 -0.003443 -0.021416
0.042447 -0.005314 -0.019194
0.045266 -0.005305 -0.018935
0.047409 -0.007405 -0.020843
0.045703 -0.007535 -0.018895
0.046949 -0.004456 -0.018779
0.046962 -0.004965 -0.020883
0.047485 -0.007706 -0.018731
0.048880 -0.006526 -0.018602
0.049710 -0.004866 -0.020630
0.048801 -0.004336 -0.018608
0.049301 -0.007106 -0.020668
0.045607 -0.007054 -0.021009
0.051073 -0.008206 -0.020505
0.050855 -0.006316 -0.020525
0.051861 -0.004726 -0.020432
0.051121 -0.004457 -0.018395
0.054231 -0.004927 -0.020213
0.053859 -0.004558 -0.018142
0.054559 -0.007677 -0.020184
0.051021 -0.007177 -0.018405
0.052687 -0.007517 -0.020356
0.053331 -0.006828 -0.018191
0.056806 -0.007849 -0.017871
0.058392 -0.008188 -0.019831
0.056361 -0.007848 -0.020018
0.060013 -0.006319 -0.017575
0.057497 -0.004108 -0.019912
0.058181 -0.005129 -0.017744
0.059887 -0.005339 -0.019692
0.055173 -0.006068 -0.018021
0.059524 -0.008129 -0.017621
0.058363 -0.006388 -0.019833
0.056252 -0.006018 -0.020027
0.059956 -0.007109 -0.019686
0.063690 -0.006960 -0.019342
0.063089 -0.007120 -0.017292
0.061480 -0.004069 -0.019545
0.061649 -0.006019 -0.019530
0.063691 -0.004000 -0.019341
0.064305 -0.005421 -0.017179
0.062134 -0.005440 -0.017379
0.067275 -0.006271 -0.019011
0.066177 -0.005871 -0.017007
0.066459 -0.003351 -0.019085
0.068789 -0.005371 -0.018871
0.066126 -0.007621 -0.017012
0.065809 -0.003941 -0.017040
0.069715 -0.007612 -0.018787
0.065583 -0.005430 -0.019167
0.068219 -0.003862 -0.016818
0.068596 -0.006752 -0.016784
0.065323 -0.007860 -0.019192
0.070263 -0.004192 -0.018735
0.072842 -0.003482 -0.018497
0.073529 -0.006733 -0.018435
0.072669 -0.008123 -0.016409
0.070449 -0.003702 -0.016612
0.074804 -0.005303 -0.018317
0.070976 -0.005703 -0.016564
0.075119 -0.006224 -0.016183
0.072869 -0.004043 -0.016389
0.073067 -0.005803 -0.016372
0.070840 -0.006192 -0.018682
0.072454 -0.005322 -0.018533
0.076397 -0.004423 -0.018170
0.076782 -0.003974 -0.016029
0.075241 -0.007093 -0.018277
0.079969 -0.003485 -0.015735
0.078836 -0.006944 -0.017945
0.078598 -0.003324 -0.017966
0.078643 -0.007295 -0.015858
0.078299 -0.005174 -0.017994
0.077070 -0.006124 -0.016003
0.076960 -0.007864 -0.016013
0.077064 -0.006464 -0.018109
0.083826 -0.003356 -0.017484
0.085000 -0.006466 -0.017377
0.084014 -0.008216 -0.017469
0.081471 -0.008096 -0.015597
0.082540 -0.006995 -0.017604
0.080798 -0.007225 -0.017765
0.084091 -0.006476 -0.015356
0.080619 -0.004085 -0.017780
0.082677 -0.004866 -0.015485
0.080317 -0.005815 -0.015703
0.082411 -0.004785 -0.017615
0.085674 -0.004687 -0.015209
0.085777 -0.004446 -0.017305
0.087290 -0.005907 -0.017166
0.087819 -0.003487 -0.017116
0.085833 -0.006907 -0.015195
0.089899 -0.006857 -0.016926
0.087536 -0.006327 -0.015038
0.088562 -0.004688 -0.014943
0.089457 -0.008008 -0.014861
0.095124 -0.005730 -0.014338
0.092688 -0.005578 -0.016668
0.093663 -0.007148 -0.016579
0.095108 -0.003359 -0.016444
0.090165 -0.005808 -0.014795
0.092615 -0.005009 -0.014569
0.090298 -0.004687 -0.016888
0.094597 -0.003759 -0.014386
0.091559 -0.007019 -0.014667
0.093401 -0.006849 -0.014497
0.094480 -0.005269 -0.016503
0.099475 -0.006581 -0.013937
0.096859 -0.007949 -0.016284
0.095505 -0.006789 -0.016409
0.099778 -0.005310 -0.016014
0.098185 -0.003950 -0.016161
0.096163 -0.004759 -0.016347
0.099496 -0.003961 -0.013934
0.097395 -0.004760 -0.014128
0.097125 -0.007170 -0.014154
0.098463 -0.006940 -0.016136
0.101620 -0.005541 -0.013739
0.101440 -0.004751 -0.015861
0.101960 -0.007461 -0.013695
0.103290 -0.007501 -0.015606
0.104850 -0.006952 -0.013240
0.103810 -0.005372 -0.013420
0.103240 -0.003801 -0.015646
0.102940 -0.003352 -0.013575
0.100920 -0.006750 -0.015909
0.103630 -0.005621 -0.015568
0.101160 -0.003371 -0.013781
0.105050 -0.003672 -0.015359
0.107470 -0.004483 -0.012756
0.107720 -0.006323 -0.014820
0.109800 -0.005534 -0.012037
0.109770 -0.005563 -0.014234
0.105580 -0.004993 -0.013142
0.108800 -0.003393 -0.014578
0.110050 -0.003534 -0.012016
0.107070 -0.003772 -0.015038
0.108170 -0.006783 -0.012488
0.106190 -0.005402 -0.015165
0.106690 -0.007863 -0.012899
0.106110 -0.007262 -0.015162
0.112310 -0.004695 -0.011163
0.113500 -0.006105 -0.012863
0.113860 -0.003746 -0.010513
0.113560 -0.008075 -0.010447
0.111900 -0.003424 -0.013658
0.111080 -0.007084 -0.013803
0.112510 -0.006535 -0.010988
0.114030 -0.005806 -0.010345
0.114910 -0.005185 -0.012274
0.110570 -0.007424 -0.011758
0.111450 -0.005124 -0.013748
0.113320 -0.004365 -0.013021
0.118330 -0.005027 -0.010442
0.116900 -0.006637 -0.008750
0.116450 -0.004296 -0.011632
0.119720 -0.003558 -0.007222
0.119690 -0.007217 -0.009462
0.117540 -0.004917 -0.008476
0.118890 -0.007438 -0.007474
0.116110 -0.007386 -0.011637
0.116210 -0.003947 -0.009359
0.118210 -0.007557 -0.010342
0.119430 -0.005658 -0.007257
0.115370 -0.007516 -0.009631
0.121660 -0.005729 -0.005444
0.124180 -0.006280 -0.006053
0.122180 -0.005919 -0.007700
0.124990 -0.003770 -0.005541
0.123540 -0.004940 -0.003875
0.122050 -0.008169 -0.007600
0.123290 -0.004319 -0.006948
0.120650 -0.004218 -0.009075
0.124280 -0.006661 -0.002891
0.122010 -0.007560 -0.004987
0.124830 -0.004461 -0.002582
0.128120 -0.007582 -0.001587
0.129820 -0.006755 0.004658
0.126380 -0.003602 -0.001059
0.126700 -0.007981 -0.003216
0.126690 -0.003581 -0.003779
0.128160 -0.005722 -0.001854
0.125750 -0.007462 -0.001235
0.127380 -0.004473 0.000442
0.129320 -0.003773 -0.000579
0.126100 -0.005921 -0.004115
0.130120 -0.007694 0.001177
0.128750 -0.005844 0.002547
0.129440 -0.004424 0.003423
0.127140 -0.006913 0.000526
0.128200 -0.003502 -0.002164
0.126380 -0.005502 -0.000766
0.129060 -0.006663 -0.000444
0.133420 -0.006775 0.032908
0.132700 -0.008258 0.012065
0.134140 -0.004393 0.028414
0.135060 -0.007906 0.036317
0.132320 -0.003480 0.049496
0.130480 -0.003815 0.005196
0.131610 -0.004575 0.003064
0.133790 -0.008080 0.049844
0.134000 -0.006840 0.017918
0.130290 -0.005794 0.001090
0.135100 -0.005997 0.038596
0.134220 -0.004820 0.017563
0.131150 -0.008234 0.003050
0.132880 -0.004277 0.010884
0.134820 -0.006038 0.041562
0.132480 -0.007188 0.042467
0.133000 -0.004157 0.041101
0.132730 -0.004526 0.005105
0.134810 -0.007357 0.039774
0.130930 -0.006226 0.006569
0.131370 -0.004586 0.007070
0.133790 -0.007077 0.008348
0.132590 -0.006667 0.010945
0.133790 -0.003559 0.014078
0.132160 -0.007509 0.045499
0.132090 -0.006529 0.047648
0.133070 -0.004837 0.039424
0.132940 -0.007596 0.036914
0.134530 -0.003922 0.024384
0.133660 -0.008179 0.016365
0.133510 -0.004466 0.035237
0.133990 -0.007583 0.025527
0.132220 -0.007300 0.050139
0.134330 -0.005831 0.019871
0.134310 -0.005922 0.022796
0.134250 -0.003537 0.008358
0.133670 -0.004575 0.033292
0.132300 -0.004769 0.047821
0.134510 -0.005209 0.046130
0.134720 -0.004858 0.010044
0.134130 -0.007631 0.020782
0.131120 -0.006294 0.002541
0.133610 -0.005399 0.014325
0.132940 -0.003418 0.042855
0.134050 -0.006131 0.049793
0.133180 -0.005228 0.012458
0.132010 -0.003806 0.008497
0.134140 -0.006840 0.047845
0.134200 -0.007939 0.045598
0.132390 -0.007285 0.005104
0.133420 -0.003316 0.037787
0.134570 -0.006179 0.044135
0.132500 -0.004659 0.045958
0.134300 -0.004021 0.050151
0.135120 -0.003588 0.041865
0.133810 -0.006624 0.028855
0.132000 -0.005537 0.009026
0.133250 -0.006365 0.035312
0.132020 -0.005390 0.050030
0.133280 -0.006436 0.006784
0.133470 -0.004606 0.006690
0.134860 -0.004509 0.043347
0.134730 -0.007378 0.011057
0.134390 -0.004113 0.026225
0.131410 -0.007216 0.008048
0.134640 -0.003701 0.021556
0.133690 -0.005804 0.031327
0.133290 -0.007169 0.013932
0.134530 -0.003381 0.018771
0.132610 -0.008197 0.039601
0.133230 -0.005376 0.036945
0.134020 -0.006403 0.026926
0.133400 -0.008154 0.031100
0.132700 -0.006737 0.040667
0.134290 -0.005702 0.024774
0.132630 -0.005488 0.043315
0.133870 -0.006380 0.016181
0.132910 -0.006586 0.038613
0.135760 -0.005549 0.014382
0.135390 -0.008055 0.032541
0.135910 -0.007570 0.017064
0.136260 -0.007082 0.022583
0.136300 -0.005741 0.018514
0.136640 -0.004152 0.022438
0.135890 -0.005255 0.031101
0.135310 -0.005849 0.012684
0.136190 -0.007203 0.024500
0.135880 -0.007764 0.027665
0.136680 -0.003511 0.019265
0.135300 -0.003937 0.039419
0.136330 -0.004904 0.026864
0.135670 -0.007575 0.030140
0.136340 -0.006932 0.020432
0.136610 -0.003993 0.024394
0.136150 -0.006673 0.026268
0.136300 -0.003464 0.029217
0.135560 -0.005976 0.033681
0.136370 -0.004120 0.017145
0.135680 -0.003766 0.035479
0.136080 -0.005690 0.016254
0.136000 -0.005764 0.029162
0.135490 -0.007459 0.014260
0.136600 -0.004892 0.020542
0.135830 -0.004116 0.033474
0.135320 -0.005666 0.036689
-0.087695 0.001692 0.001790
-0.085548 -0.000085 -0.006483
-0.086717 0.000054 -0.003235
-0.085684 -0.001776 -0.005660
-0.085283 0.001312 -0.000121
-0.087822 -0.002798 0.003445
-0.087461 -0.000227 -0.000681
-0.087643 -0.001107 0.000907
-0.086674 -0.001986 -0.002538
-0.085284 -0.000377 -0.000576
-0.087262 -0.003217 0.000265
-0.086090 0.001654 -0.004624
-0.084267 0.001645 -0.008857
-0.083300 -0.002406 -0.005667
-0.081491 0.001646 -0.013575
-0.081514 -0.000274 -0.013845
-0.084039 0.001304 -0.004322
-0.084681 -0.000395 -0.008331
-0.082790 0.000974 -0.007229
-0.080765 0.001655 -0.010748
-0.082269 -0.000996 -0.008412
-0.084557 -0.002135 -0.008082
-0.080246 -0.001805 -0.011577
-0.084766 -0.002427 -0.001398
-0.084072 -0.001367 -0.004217
-0.081421 -0.000475 -0.009959
-0.082463 -0.000464 -0.012274
-0.084762 -0.000317 -0.002366
-0.082543 -0.002715 -0.011638
-0.083062 0.001675 -0.011007
-0.080300 0.000276 -0.015330
-0.082035 -0.003226 -0.008256
-0.080320 0.000295 -0.011780
-0.083045 -0.000696 -0.006762
-0.083576 -0.000415 -0.010470
-0.081020 -0.002495 -0.010159
-0.081606 -0.002254 -0.013270
-0.080221 -0.001534 -0.015222
-0.083739 -0.002285 -0.009783
-0.076064 -0.003015 -0.016624
-0.077021 0.001005 -0.015920
-0.077622 -0.002384 -0.018123
-0.077602 -0.001615 -0.015111
-0.079136 -0.002294 -0.016428
-0.075606 0.000587 -0.020270
-0.078886 0.000495 -0.013707
-0.075544 0.000716 -0.017421
-0.077235 0.000117 -0.018789
-0.075517 -0.001523 -0.020236
-0.078479 -0.000854 -0.017490
-0.078778 -0.002395 -0.013523
-0.076041 -0.001214 -0.016891
-0.078933 0.000826 -0.016922
-0.073083 -0.000724 -0.019677
-0.070913 -0.000093 -0.023910
-0.074031 0.001376 -0.018765
-0.073400 0.000057 -0.022101
-0.073696 -0.002303 -0.021654
-0.073062 -0.002984 -0.019451
-0.071265 -0.000844 -0.020983
-0.074317 0.001337 -0.021298
-0.071725 -0.002053 -0.023111
-0.074535 -0.002704 -0.018118
-0.072039 0.000626 -0.020438
-0.070077 -0.003004 -0.021616
-0.070022 -0.002474 -0.024198
-0.066811 -0.002434 -0.025944
-0.069550 -0.000684 -0.022217
-0.068658 -0.001604 -0.025011
-0.068039 0.001336 -0.022977
-0.065850 -0.000755 -0.024219
-0.067040 0.001476 -0.025892
-0.068031 -0.000504 -0.023057
-0.068819 0.000256 -0.025029
-0.065831 0.000056 -0.026551
-0.060005 -0.001525 -0.026289
-0.060177 0.000625 -0.026283
-0.060079 0.000885 -0.028451
-0.063855 -0.001284 -0.027237
-0.064552 -0.002495 -0.024649
-0.063671 -0.000535 -0.025108
-0.063595 0.001576 -0.027313
-0.061814 -0.000325 -0.025834
-0.061751 0.001516 -0.028023
-0.060511 -0.001125 -0.028341
-0.062884 0.001175 -0.025365
-0.061563 -0.002345 -0.025805
-0.062441 -0.003084 -0.027667
-0.062449 -0.000334 -0.027835
-0.058058 0.001514 -0.026752
-0.059020 -0.003085 -0.028614
-0.056366 -0.001336 -0.029241
-0.058020 -0.001576 -0.026763
-0.056883 -0.003186 -0.026966
-0.057715 0.000635 -0.029029
-0.056181 0.000204 -0.027179
-0.056880 -0.003045 -0.029128
-0.058384 -0.001155 -0.028850
-0.051643 0.000583 -0.029683
-0.053115 -0.002096 -0.029562
-0.053840 0.000764 -0.029518
-0.054838 -0.003227 -0.027245
-0.054693 -0.001427 -0.027306
-0.051029 -0.002557 -0.029652
-0.052405 -0.003247 -0.027499
-0.052830 0.000213 -0.027530
-0.050507 0.000702 -0.027555
-0.052076 -0.001507 -0.027578
-0.054581 -0.000996 -0.029437
-0.046211 0.000642 -0.029472
-0.045214 0.000921 -0.027274
-0.045525 -0.001678 -0.029409
-0.049004 -0.001348 -0.027511
-0.045894 -0.002109 -0.027338
-0.049366 0.000443 -0.029624
-0.047834 -0.002418 -0.029568
-0.046823 0.000091 -0.027423
-0.047201 -0.000798 -0.029563
-0.048563 0.000462 -0.027505
-0.040190 -0.002660 -0.026812
-0.042387 -0.002190 -0.027015
-0.042187 0.000511 -0.029101
-0.041581 0.000750 -0.026939
-0.039947 0.000960 -0.028894
-0.041910 -0.003219 -0.029076
-0.043578 -0.002589 -0.029230
-0.043517 -0.000139 -0.027118
-0.040319 -0.001030 -0.028929
-0.043590 -0.000759 -0.029231
-0.038154 -0.001971 -0.026624
-0.036572 -0.002802 -0.026479
-0.039727 -0.000721 -0.026769
-0.037548 0.000259 -0.026568
-0.036946 0.000089 -0.028618
-0.039151 -0.003050 -0.028822
-0.035991 -0.002121 -0.028530
-0.037724 -0.001791 -0.028690
-0.035750 0.000118 -0.026402
-0.033446 -0.000822 -0.028295
-0.034302 0.001188 -0.028374
-0.034629 0.001568 -0.026298
-0.034408 -0.003132 -0.026279
-0.033359 0.000018 -0.026182
-0.034532 -0.001342 -0.026290
-0.031123 -0.000282 -0.028081
-0.031337 0.000047 -0.025995
-0.032739 -0.001703 -0.026125
-0.031804 -0.002012 -0.028144
-0.028597 -0.002774 -0.025743
-0.026349 -0.001795 -0.025536
-0.027438 -0.001523 -0.027742
-0.025624 -0.000814 -0.027574
-0.025390 0.001375 -0.025447
-0.029506 -0.001053 -0.027932
-0.028581 -0.000974 -0.025741
-0.026582 0.001116 -0.027662
-0.029030 -0.002933 -0.027889
-0.027292 0.000986 -0.025622
-0.029263 0.000707 -0.027909
-0.029644 0.000737 -0.025839
-0.024534 -0.002125 -0.025369
-0.021068 0.000395 -0.027154
-0.022300 -0.003125 -0.027268
-0.022453 -0.000846 -0.025176
-0.022114 -0.001055 -0.027251
-0.024034 -0.002004 -0.027428
-0.020529 -0.000496 -0.024999
-0.024301 -0.000015 -0.025347
-0.020846 0.001394 -0.025028
-0.023985 0.000446 -0.027423
-0.020927 -0.003236 -0.025037
-0.015026 0.000662 -0.024491
-0.015560 -0.001278 -0.024541
-0.017270 -0.001687 -0.024699
-0.015608 -0.003248 -0.024546
-0.016008 -0.000237 -0.026687
-0.016861 0.000973 -0.024660
-0.018291 -0.000006 -0.026898
-0.017275 -0.001816 -0.026805
-0.019101 -0.002166 -0.026973
-0.018646 0.001393 -0.024825
-0.018722 -0.000377 -0.024832
-0.015563 -0.002707 -0.026647
-0.018746 -0.002817 -0.024835
-0.012744 0.000922 -0.026386
-0.013301 0.000852 -0.024332
-0.013717 -0.002258 -0.024371
-0.011535 -0.003079 -0.024171
-0.012009 -0.000509 -0.024214
-0.011513 0.001561 -0.024167
-0.010337 -0.001588 -0.026165
-0.012760 -0.001888 -0.026389
-0.010996 0.000552 -0.026225
-0.010253 -0.001729 -0.024052
-0.014147 -0.000737 -0.026516
-0.007410 -0.003059 -0.025896
-0.006700 -0.001219 -0.025830
-0.005266 -0.002930 -0.025698
-0.007655 0.001260 -0.023812
-0.009340 0.000701 -0.023967
-0.008226 -0.001110 -0.023865
-0.008316 0.000131 -0.025978
-0.006032 -0.001360 -0.023663
-0.005970 0.000450 -0.025762
-0.004403 0.000049 -0.023512
-0.001592 -0.001411 -0.025359
-0.003694 0.000420 -0.025552
-0.002049 0.000919 -0.023295
0.000056 -0.001032 -0.023101
-0.002192 -0.003191 -0.025415
-0.004534 -0.001220 -0.025630
-0.002243 -0.002241 -0.023314
-0.000650 0.001589 -0.025271
-0.000111 -0.002501 -0.025223
-0.004272 -0.002711 -0.023501
-0.000117 -0.000191 -0.025222
0.004740 0.001517 -0.024774
0.002575 -0.003203 -0.022870
0.001539 -0.000882 -0.025070
0.001666 -0.002822 -0.025059
0.001533 0.000098 -0.022965
0.003797 -0.000572 -0.024862
0.001327 0.001598 -0.025089
0.004403 -0.002313 -0.024806
0.004164 -0.002343 -0.022723
0.004344 -0.000413 -0.022706
0.002669 -0.001333 -0.022861
0.003559 0.001217 -0.022778
0.009136 0.001455 -0.022263
0.005967 -0.003263 -0.024662
0.010075 -0.001835 -0.022178
0.009580 -0.002514 -0.024329
0.008334 -0.000174 -0.022338
0.007833 -0.000854 -0.024490
0.010041 0.000856 -0.024286
0.007375 0.001146 -0.024531
0.006257 -0.000124 -0.022529
0.005670 -0.001003 -0.024689
0.007807 -0.002954 -0.024493
0.006088 -0.001914 -0.022545
0.014908 -0.002966 -0.023838
0.013083 0.001115 -0.024005
0.012214 0.001274 -0.021980
0.014796 0.000274 -0.021742
0.014780 0.000224 -0.023849
0.014795 -0.002406 -0.021743
0.011806 -0.001065 -0.022018
0.012574 -0.002435 -0.024053
0.010495 0.000215 -0.022139
0.011555 -0.000445 -0.024146
0.019287 0.001482 -0.021328
0.017050 -0.000226 -0.023640
0.018629 -0.003107 -0.021390
0.018152 -0.001187 -0.021433
0.016738 0.001043 -0.021563
0.016190 -0.001277 -0.021614
0.020004 -0.001978 -0.021263
0.018842 -0.000967 -0.023475
0.015695 -0.001396 -0.023765
0.017458 -0.002126 -0.023603
0.021830 -0.000258 -0.023199
0.020177 0.001453 -0.023351
0.024897 0.000031 -0.022916
0.022955 0.001542 -0.023095
0.023960 -0.001748 -0.023003
0.022822 0.001211 -0.021002
0.021696 -0.002648 -0.021107
0.022327 -0.002448 -0.023154
0.022921 -0.000619 -0.020993
0.023947 -0.002139 -0.020899
0.024913 -0.000069 -0.020809
0.020362 -0.000248 -0.021229
0.020584 -0.001887 -0.023314
0.027989 -0.002550 -0.020526
0.029295 -0.000261 -0.020405
0.028630 -0.002750 -0.022573
0.026018 -0.001620 -0.020708
0.027552 0.000940 -0.020566
0.027087 0.000361 -0.022714
0.026838 -0.002019 -0.022738
0.028362 -0.000950 -0.022597
0.030542 -0.003000 -0.022397
0.030722 -0.000640 -0.022379
0.033347 -0.003282 -0.020033
0.031207 0.000119 -0.020229
0.033009 0.000098 -0.020063
0.032723 -0.002231 -0.022195
0.034416 0.000419 -0.022038
0.034475 -0.003211 -0.022034
0.032365 0.000609 -0.022228
0.031575 -0.001611 -0.020196
0.030413 0.001190 -0.022407
0.034266 -0.001361 -0.022053
0.039720 -0.002404 -0.019445
0.036328 0.001428 -0.021862
0.038708 -0.001473 -0.021643
0.035577 -0.002262 -0.019827
0.035880 -0.000542 -0.021904
0.039143 -0.000443 -0.019498
0.038230 0.001648 -0.021686
0.035907 0.000198 -0.019796
0.037460 -0.001433 -0.019653
0.037708 -0.003253 -0.019631
0.041207 -0.000153 -0.021413
0.042419 -0.001694 -0.019196
0.044025 -0.000674 -0.021153
0.043069 -0.002764 -0.021242
0.040418 0.001596 -0.019379
0.045002 0.000986 -0.021062
0.044851 -0.003254 -0.021078
0.041085 -0.000344 -0.019319
0.044281 -0.001665 -0.019024
0.043504 -0.000025 -0.019095
0.048556 0.000835 -0.020735
0.048533 -0.002056 -0.018632
0.047938 -0.001355 -0.020792
0.045977 -0.000995 -0.020973
0.049681 -0.001086 -0.020632
0.047886 -0.000336 -0.018692
0.046774 0.000575 -0.020899
0.046982 -0.003025 -0.020881
0.049810 -0.002976 -0.020620
0.046650 -0.002506 -0.018806
0.049996 -0.003027 -0.018498
0.046074 0.000115 -0.018858
0.052656 0.000313 -0.018252
0.054930 0.001313 -0.020147
0.051033 0.001483 -0.018401
0.050176 -0.000997 -0.018481
0.052061 -0.002566 -0.020413
0.052539 -0.000177 -0.020368
0.052028 -0.002367 -0.018310
0.054408 -0.001718 -0.018091
0.054271 -0.003017 -0.020209
0.050876 0.000404 -0.020521
0.056812 0.001272 -0.019974
0.055437 -0.000837 -0.020101
0.056837 -0.003058 -0.017867
0.057256 -0.000899 -0.017828
0.059440 0.001072 -0.019731
0.057856 -0.001278 -0.019878
0.058869 -0.002689 -0.017680
0.059429 -0.002599 -0.019733
0.059559 -0.000749 -0.019721
0.058800 0.000731 -0.017685
0.056181 0.001032 -0.017926
0.056512 -0.002548 -0.020002
0.062822 -0.003250 -0.017315
0.060881 0.001240 -0.017493
0.063334 0.000450 -0.019372
0.060631 -0.003050 -0.017517
0.061680 -0.001889 -0.019526
0.062454 -0.001290 -0.017349
0.063811 -0.002030 -0.019329
0.064147 0.000499 -0.017192
0.060293 -0.001270 -0.017548
0.064827 -0.000490 -0.019235
0.068292 -0.003091 -0.018916
0.067067 -0.001201 -0.019029
0.065600 -0.001201 -0.017059
0.068906 -0.000992 -0.016754
0.068930 -0.000741 -0.018857
0.067115 0.001339 -0.016918
0.067303 -0.001921 -0.016902
0.070065 0.001108 -0.018752
0.067377 0.001159 -0.019000
0.069405 0.000848 -0.016707
0.074327 -0.000103 -0.018359
0.071599 0.000268 -0.018611
0.070709 -0.001002 -0.016588
0.075013 -0.003153 -0.018297
0.074473 -0.001424 -0.016241
0.071277 0.000707 -0.016535
0.072491 -0.001183 -0.016423
0.070682 -0.002382 -0.018696
0.072614 -0.001422 -0.018517
0.074960 -0.003204 -0.016196
0.076428 -0.001703 -0.018166
0.078715 -0.002065 -0.015850
0.076617 0.000457 -0.018148
0.077181 -0.000354 -0.015991
0.079505 -0.001694 -0.017882
0.075190 0.000246 -0.016174
0.079024 -0.000025 -0.015821
0.079415 0.000156 -0.017890
0.076474 -0.002174 -0.016056
0.082562 0.000495 -0.017600
0.081287 -0.000715 -0.017718
0.084155 -0.001456 -0.017453
0.083993 0.001584 -0.015362
0.082230 -0.000586 -0.015525
0.083474 -0.003166 -0.015411
0.081712 -0.002896 -0.015574
0.080727 0.001075 -0.015663
0.080656 -0.001345 -0.015671
0.082054 -0.002395 -0.017647
0.085436 -0.000537 -0.015230
0.090020 -0.002207 -0.016913
0.088823 0.001362 -0.014917
0.086096 -0.002436 -0.017275
0.089638 -0.000988 -0.014842
0.086831 0.000573 -0.015101
0.086890 -0.002907 -0.015096
0.086635 -0.000496 -0.017225
0.087876 -0.001177 -0.015005
0.088437 -0.000437 -0.017058
0.090737 -0.000448 -0.016846
0.093891 0.001461 -0.014450
0.092397 -0.001959 -0.014588
0.094989 -0.000039 -0.016454
0.090365 -0.002858 -0.014776
0.092499 -0.002718 -0.016685
0.092898 -0.000978 -0.016647
0.095006 -0.000279 -0.014347
0.092420 0.000702 -0.016691
0.091362 0.000722 -0.014683
0.093154 -0.000389 -0.014518
0.094408 -0.002009 -0.014403
0.096450 0.001240 -0.014214
0.098092 -0.001490 -0.014063
0.096758 -0.002920 -0.014187
0.096214 -0.001829 -0.016342
0.099905 -0.001271 -0.013896
0.098614 0.000120 -0.016120
0.097946 -0.001630 -0.016182
0.099768 -0.002850 -0.016014
0.096772 0.000391 -0.016290
0.099776 0.000689 -0.013907
0.100320 -0.000670 -0.015963
0.103410 -0.001861 -0.015635
0.101400 0.001109 -0.015863
0.101350 -0.000091 -0.013762
0.104670 0.000748 -0.015443
0.101520 -0.002851 -0.015853
0.103240 0.000398 -0.013550
0.102990 -0.001582 -0.013582
0.104940 0.000968 -0.013275
0.106950 0.000628 -0.015081
0.106540 -0.000023 -0.013030
0.105580 -0.002253 -0.013164
0.108090 -0.001553 -0.014838
0.106210 -0.001702 -0.015192
0.107770 -0.002403 -0.012724
0.109290 -0.000193 -0.014517
0.108890 0.000596 -0.012435
0.109510 -0.001744 -0.012224
0.112790 0.000286 -0.013440
0.114530 0.000065 -0.012669
0.112010 -0.001375 -0.011446
0.113760 -0.001435 -0.010666
0.113630 0.000515 -0.010758
0.110970 0.000416 -0.014009
0.110980 -0.001634 -0.013979
0.114810 -0.003135 -0.012413
0.113300 -0.001715 -0.013152
0.110710 0.000456 -0.011899
0.118660 0.001563 -0.010466
0.116020 0.001224 -0.011956
0.115740 0.001364 -0.009774
0.117950 0.000943 -0.008480
0.118560 -0.000848 -0.008125
0.115560 -0.001355 -0.012160
0.116180 -0.001087 -0.009573
0.118870 -0.001397 -0.010361
0.118880 -0.003147 -0.010237
0.117960 -0.002637 -0.008373
0.117370 -0.001766 -0.011257
0.117440 0.000424 -0.011294
0.120150 0.000252 -0.007166
0.125090 -0.001820 -0.005694
0.120490 -0.001108 -0.009390
0.121600 -0.002548 -0.008486
0.120260 0.001052 -0.009518
0.124070 -0.002540 -0.003623
0.123920 0.001310 -0.003916
0.124580 0.000390 -0.006261
0.122750 0.001691 -0.007627
0.123100 -0.000970 -0.004721
0.123460 -0.000949 -0.007130
0.122110 -0.002639 -0.005369
0.120790 -0.002249 -0.006472
0.121920 -0.000648 -0.008405
0.129920 -0.001174 0.003564
0.130120 -0.001003 0.000057
0.127150 -0.000272 -0.000586
0.127780 0.001277 0.000484
0.129120 0.001247 -0.001245
0.128510 -0.003053 0.001747
0.127820 -0.001543 0.000540
0.129160 0.001056 0.002341
0.125450 -0.002271 -0.002206
0.127660 0.000658 -0.003100
0.130150 0.001285 0.004066
0.125930 0.000819 -0.004907
0.126490 -0.001831 -0.004217
0.125200 0.000189 -0.002717
0.127900 -0.001412 -0.002772
0.126240 0.001008 -0.001508
0.129020 -0.001922 -0.001303
0.134980 -0.002839 0.044428
0.133780 -0.001796 0.006564
0.134910 -0.002598 0.009779
0.133200 0.001103 0.010761
0.134710 -0.001200 0.017742
0.133240 0.001622 0.041982
0.130490 0.000896 0.000574
0.135050 -0.000150 0.047551
0.134630 -0.001087 0.008560
0.134780 -0.001173 0.026252
0.134970 0.000998 0.021707
0.134270 0.001596 0.030735
0.134840 -0.001761 0.019671
0.134060 -0.003034 0.031261
0.133670 -0.000907 0.038567
0.134140 0.000775 0.033373
0.134610 -0.003030 0.048255
0.131640 0.001644 0.006888
0.134880 -0.002310 0.046202
0.134440 -0.000934 0.030213
0.131760 -0.002446 0.007392
0.133550 0.001283 0.039154
0.134650 -0.000131 0.050365
0.135050 -0.000282 0.022952
0.133370 -0.002007 0.040304
0.132750 -0.000997 0.009475
0.134270 0.001033 0.007660
0.134070 -0.000336 0.035136
0.133770 0.001294 0.036600
0.134400 -0.002484 0.028415
0.132560 0.000843 0.009003
0.134020 -0.001685 0.033639
0.132740 0.000300 0.049172
0.134990 0.000177 0.024707
0.131090 -0.002994 0.001739
0.134780 -0.001340 0.048791
0.132770 -0.002349 0.046283
0.132560 -0.001270 0.050068
0.132210 0.000065 0.003174
0.133530 -0.001938 0.012120
0.133330 -0.000408 0.043000
0.132710 -0.001569 0.048041
0.130960 -0.002075 0.005685
0.133150 0.000021 0.045226
0.134800 0.000560 0.018067
0.131180 -0.000884 0.001484
0.133030 -0.001648 0.044535
0.134680 -0.000674 0.027928
0.131960 -0.002245 0.003168
0.133190 -0.000636 0.005052
0.134040 0.000561 0.013635
0.135080 0.000019 0.020121
0.132900 -0.002365 0.004919
0.134360 -0.000295 0.031934
0.134510 0.000461 0.015546
0.133690 -0.000188 0.011892
0.134870 -0.001842 0.021592
0.132810 0.001125 0.004505
0.133700 -0.002736 0.035633
0.134340 -0.002760 0.016160
0.131030 -0.000185 0.005367
0.134120 -0.001869 0.014549
0.134740 -0.002512 0.023330
0.131830 -0.000666 0.006975
0.134450 -0.002081 0.050346
0.136090 -0.001316 0.034691
0.135680 0.000002 0.040630
0.136230 -0.003170 0.015070
0.136530 -0.000080 0.014685
0.136940 0.000159 0.017911
0.135220 0.001022 0.010137
0.135820 -0.000847 0.038220
0.137050 0.001288 0.020445
0.135620 -0.002947 0.037351
0.135310 0.001322 0.042785
0.135440 -0.002758 0.011547
0.136610 -0.001470 0.016156
0.135550 -0.001868 0.039656
0.135790 -0.003179 0.013220
0.136930 -0.001903 0.022929
0.136200 -0.002325 0.031968
0.135990 -0.000807 0.036359
0.137000 0.001298 0.022518
0.136590 -0.002264 0.027823
0.136560 -0.001195 0.029705
0.136900 -0.001323 0.025787
0.137070 -0.001182 0.021147
0.136930 0.000106 0.027018
0.135230 -0.000039 0.045522
0.136250 0.000964 0.033014
0.135780 -0.000419 0.011734
0.136050 0.000984 0.035254
0.137110 0.000157 0.024061
0.136830 -0.003062 0.021055
0.136870 -0.001601 0.018766
0.136540 0.000615 0.030418
0.135280 -0.001099 0.043704
0.135390 -0.001818 0.041448
0.135830 0.000853 0.037762
0.136600 0.001330 0.016067
-0.084988 0.003725 -0.006599
-0.087265 0.003843 0.000885
-0.085934 0.005844 -0.003238
-0.086582 0.002374 -0.002631
-0.085706 0.003694 -0.004986
-0.085227 0.001895 -0.006628
-0.084960 0.003072 -0.000413
-0.087331 0.002273 -0.000019
-0.086681 0.005323 -0.000955
-0.086848 0.003553 -0.001199
-0.082775 0.005654 -0.005824
-0.084712 0.006494 -0.006368
-0.082048 0.001724 -0.008639
-0.080547 0.004506 -0.014288
-0.084651 0.006602 0.000156
-0.084029 0.005525 -0.008201
-0.080139 0.002276 -0.015180
-0.084231 0.004563 -0.002192
-0.080722 0.006134 -0.009802
-0.083071 0.002964 -0.005985
-0.081830 0.006094 -0.007809
-0.082362 0.003805 -0.011664
-0.080343 0.004295 -0.010835
-0.083548 0.005753 -0.003953
-0.084331 0.002363 -0.002851
-0.081760 0.006026 -0.012144
-0.082170 0.003734 -0.007771
-0.084040 0.006603 -0.001905
-0.083208 0.004325 -0.010169
-0.084766 0.004842 -0.000257
-0.083833 0.003883 -0.003844
-0.081299 0.003864 -0.009375
-0.076232 0.006686 -0.018841
-0.079640 0.002635 -0.012358
-0.075750 0.002366 -0.019890
-0.074914 0.005836 -0.020206
-0.078154 0.004925 -0.013838
-0.075427 0.002875 -0.017238
-0.078924 0.003046 -0.016546
-0.079211 0.005355 -0.012442
-0.077442 0.005146 -0.017904
-0.077774 0.001756 -0.018053
-0.079075 0.004776 -0.016057
-0.076633 0.003616 -0.018881
-0.076437 0.006115 -0.015750
-0.077526 0.006635 -0.014314
-0.076438 0.004075 -0.016103
-0.078517 0.002735 -0.013773
-0.077410 0.002655 -0.015152
-0.070799 0.005226 -0.020842
-0.074822 0.004686 -0.017561
-0.074198 0.003556 -0.021145
-0.072322 0.005976 -0.019655
-0.070582 0.001846 -0.023940
-0.070867 0.002006 -0.021140
-0.072706 0.001936 -0.022403
-0.069978 0.005816 -0.023935
-0.071927 0.003576 -0.020202
-0.073981 0.003436 -0.018531
-0.070021 0.003516 -0.024104
-0.072138 0.003826 -0.022611
-0.071794 0.005976 -0.022629
-0.073660 0.005266 -0.021352
-0.067760 0.003425 -0.022953
-0.065356 0.002336 -0.026590
-0.067897 0.004626 -0.025164
-0.069669 0.003416 -0.021858
-0.065549 0.005626 -0.026309
-0.069238 0.005305 -0.021967
-0.067121 0.006545 -0.023039
-0.064940 0.004785 -0.024350
-0.067909 0.006576 -0.024994
-0.065730 0.001985 -0.024175
-0.066637 0.004735 -0.023453
-0.068998 0.002146 -0.024774
-0.066751 0.003516 -0.025879
-0.064254 0.003816 -0.026920
-0.061232 0.005045 -0.025756
-0.063380 0.005356 -0.027158
-0.061083 0.005095 -0.028026
-0.062269 0.003045 -0.025484
-0.064187 0.002795 -0.024764
-0.063227 0.005235 -0.024979
-0.061152 0.003275 -0.028089
-0.056007 0.002194 -0.029254
-0.059509 0.003945 -0.028453
-0.055719 0.002754 -0.027161
-0.055427 0.004584 -0.027143
-0.059530 0.005815 -0.028366
-0.059668 0.003784 -0.026267
-0.056100 0.005654 -0.029153
-0.057574 0.004824 -0.026723
-0.058906 0.006014 -0.026351
-0.057474 0.004455 -0.028919
-0.057675 0.002725 -0.028947
-0.053840 0.002584 -0.029470
-0.051193 0.002993 -0.027553
-0.052764 0.004413 -0.027427
-0.053741 0.002643 -0.027371
-0.053290 0.006614 -0.029422
-0.051628 0.005683 -0.029621
-0.053507 0.004494 -0.029455
-0.054627 0.006253 -0.027184
-0.050845 0.004812 -0.027527
-0.050045 0.002063 -0.029628
-0.051943 0.002384 -0.029674
-0.050763 0.003853 -0.029631
-0.045068 0.006481 -0.027259
-0.048816 0.004372 -0.027477
-0.048171 0.003032 -0.029569
-0.046069 0.003281 -0.027352
-0.045522 0.006182 -0.029407
-0.046326 0.003582 -0.029482
-0.048051 0.002312 -0.027475
-0.048698 0.005953 -0.029557
-0.046868 0.006012 -0.027411
-0.042109 0.006110 -0.026987
-0.044440 0.002691 -0.029308
-0.041459 0.002771 -0.029033
-0.043441 0.006051 -0.029215
-0.042312 0.004301 -0.029111
-0.044650 0.004622 -0.029327
-0.040681 0.004440 -0.026855
-0.044680 0.004601 -0.027224
-0.040447 0.002630 -0.026834
-0.042910 0.001930 -0.027062
-0.042709 0.003730 -0.027043
-0.041566 0.005921 -0.029042
-0.035678 0.005969 -0.028499
-0.037145 0.002289 -0.028635
-0.036316 0.005318 -0.026453
-0.038075 0.004399 -0.026615
-0.037986 0.006560 -0.028712
-0.034984 0.006498 -0.026330
-0.039760 0.005580 -0.028875
-0.036529 0.004389 -0.028578
-0.036109 0.003238 -0.026434
-0.037559 0.002159 -0.026568
-0.039366 0.003480 -0.028840
-0.037881 0.006179 -0.026597
-0.035371 0.002959 -0.028472
-0.034186 0.004428 -0.028362
-0.031808 0.002127 -0.026038
-0.031893 0.006707 -0.026045
-0.032725 0.002908 -0.028228
-0.034224 0.003908 -0.026260
-0.032431 0.004067 -0.026095
-0.031277 0.005268 -0.028094
-0.031344 0.001808 -0.028101
-0.029980 0.004227 -0.025869
-0.028542 0.002556 -0.025737
-0.028159 0.004647 -0.027806
-0.029532 0.002527 -0.027933
-0.026541 0.003336 -0.027658
-0.029147 0.006347 -0.027897
-0.028268 0.006256 -0.025710
-0.027844 0.004336 -0.025672
-0.025666 0.005395 -0.025471
-0.026188 0.003196 -0.025520
-0.026866 0.006296 -0.027687
-0.023724 0.002005 -0.025293
-0.022332 0.003344 -0.025164
-0.023709 0.006105 -0.025290
-0.021232 0.005764 -0.025062
-0.023707 0.002785 -0.027396
-0.024425 0.004506 -0.027462
-0.024102 0.004235 -0.025327
-0.021670 0.004465 -0.027208
-0.020847 0.002185 -0.027133
-0.020403 0.003944 -0.024986
-0.016831 0.004393 -0.024657
-0.018781 0.005023 -0.024836
-0.019197 0.004004 -0.026980
-0.015260 0.006232 -0.024511
-0.018827 0.002114 -0.026947
-0.016889 0.001723 -0.026768
-0.015126 0.001973 -0.026606
-0.018796 0.003193 -0.024838
-0.016137 0.003743 -0.026698
-0.018114 0.005804 -0.026880
-0.015990 0.002543 -0.024580
-0.010597 0.003542 -0.026187
-0.012142 0.004902 -0.026330
-0.012906 0.003722 -0.024295
-0.011145 0.004751 -0.024132
-0.010043 0.002761 -0.024031
-0.014301 0.004813 -0.026529
-0.013143 0.003362 -0.026422
-0.010341 0.006192 -0.026163
-0.014711 0.004122 -0.024461
-0.012491 0.006442 -0.024256
-0.014160 0.006623 -0.026515
-0.008828 0.002461 -0.026025
-0.008612 0.005301 -0.026004
-0.009210 0.004791 -0.023954
-0.005603 0.003890 -0.023622
-0.006995 0.004621 -0.025855
-0.006792 0.005900 -0.023731
-0.008926 0.006630 -0.023927
-0.005036 0.001920 -0.025675
-0.007883 0.003100 -0.023832
-0.006752 0.002881 -0.025833
-0.006662 0.006351 -0.025824
-0.005392 0.001760 -0.023603
-0.003628 0.003739 -0.023440
