ply
format ascii 1.0
element vertex 1725
property float x
property float y
property float z
end_header
0.086210 0.003030 0.003650
0.088511 -0.000705 -0.004328
0.088633 0.002610 0.004300
0.089948 -0.001439 0.004298
0.087978 -0.001506 0.004298
0.089751 0.001729 0.004300
0.088032 0.001545 0.004300
0.086007 0.002218 0.004300
0.086719 0.003164 0.004301
0.085982 -0.000757 -0.004328
0.089828 -0.000280 0.004298
0.086209 0.001924 -0.002357
0.085721 0.000537 0.001664
0.086219 0.001990 0.002561
0.086263 0.002661 0.002690
0.086435 -0.001179 0.004298
0.086890 -0.000515 0.004298
0.090359 -0.000400 -0.004328
0.087595 0.000001 0.004299
0.088711 0.001760 0.004300
0.085497 -0.001381 -0.004329
0.089036 0.001069 -0.004327
0.086181 0.001701 0.001718
0.090460 0.001801 -0.004326
0.085878 0.000832 -0.004321
0.088668 0.000860 0.004299
0.085962 -0.000723 0.004298
0.086035 0.001243 -0.002680
0.088937 -0.000232 -0.004328
0.088326 -0.000057 -0.004328
0.093595 0.001212 0.004299
0.091686 -0.001254 0.004298
0.090976 0.002236 -0.004326
0.093550 0.001882 0.004300
0.094219 0.003113 -0.004326
0.093598 -0.000282 -0.004328
0.090574 0.000136 0.004299
0.092264 0.000151 0.004298
0.092911 -0.000584 0.004298
0.091621 0.002875 0.004300
0.094876 0.001153 0.004299
0.091435 0.001304 0.004299
0.092410 0.003042 0.004300
0.090586 0.001152 -0.004327
0.095338 0.000893 -0.004327
0.090639 0.000827 0.004299
0.092786 -0.000069 -0.004328
0.093712 0.000393 0.004299
0.092148 0.002026 -0.004326
0.091048 0.003246 -0.004326
0.092878 -0.001464 0.004297
0.094430 0.000699 0.004299
0.093204 0.002539 0.004300
0.094802 0.001608 -0.004327
0.090669 0.003137 0.004301
0.090687 -0.001383 0.004298
0.094237 -0.000187 -0.004328
0.094351 0.000544 -0.004327
0.092809 0.000795 0.004299
0.094178 -0.000243 0.004298
0.093294 -0.001055 -0.004329
0.092929 0.003132 -0.004326
0.091006 -0.001234 -0.004329
0.095411 0.001787 0.004300
0.092713 0.001534 0.004300
0.092779 -0.001589 -0.004329
0.090895 0.000045 -0.004328
0.093272 0.000415 -0.004327
0.095324 0.000236 0.004298
0.095107 0.002221 -0.004326
0.091323 0.000253 0.004299
0.095190 -0.000445 0.004298
0.093945 0.002451 -0.004326
0.094760 0.003002 0.004300
0.092984 0.001293 -0.004327
0.091656 -0.000119 -0.004328
0.091550 0.001830 -0.004326
0.094907 0.002223 0.004300
0.092895 0.000076 0.004298
0.092323 -0.000853 -0.004328
0.092098 0.000855 -0.004327
0.093794 0.001290 -0.004327
0.091229 -0.000378 0.004298
0.094812 -0.000822 -0.004329
0.094149 0.003197 0.004301
0.093307 0.002125 -0.004326
0.092234 -0.000970 0.004298
0.091587 0.002205 0.004300
0.090480 -0.000535 0.004298
0.094235 0.002497 0.004300
0.093569 0.003138 -0.004326
0.092727 0.002154 0.004300
0.094303 0.001508 0.004299
0.091614 0.002511 -0.004326
0.091511 0.000470 -0.004327
0.093653 -0.000878 0.004298
0.091034 0.002580 0.004300
0.092042 0.001559 0.004300
0.094269 0.001924 -0.004326
0.094153 -0.000888 -0.004329
0.093548 -0.000249 0.004298
0.095110 0.003021 -0.004326
0.091204 0.001308 -0.004327
0.090723 0.001537 0.004300
0.091899 0.000747 0.004299
0.094414 -0.001021 0.004298
0.091756 -0.001298 -0.004329
0.095015 -0.001106 0.004298
0.092269 -0.001599 0.004297
0.092422 0.002788 -0.004326
0.094868 -0.001461 -0.004329
0.097025 0.002431 0.004300
0.099298 0.003240 0.004300
0.099794 0.000204 0.004298
0.098998 -0.000242 0.004298
0.096907 0.001040 0.004299
0.100080 0.002623 -0.004326
0.097362 0.000440 -0.004328
0.100030 0.000332 -0.004328
0.096077 0.000949 -0.004327
0.098316 -0.000092 -0.004328
0.096679 -0.000396 -0.004328
0.095769 -0.000424 -0.004328
0.097351 0.001690 -0.004327
0.100460 -0.000510 0.004298
0.096268 0.002071 -0.004326
0.096123 0.002669 -0.004326
0.098146 -0.001204 -0.004329
0.098792 0.000392 -0.004328
0.097024 0.000221 0.004298
0.095627 -0.001395 -0.004329
0.099570 0.002989 -0.004326
0.098557 0.000970 -0.004327
0.099326 -0.001240 0.004297
0.098315 0.002452 0.004300
0.097899 0.000868 0.004299
0.097758 0.002137 0.004300
0.097285 0.002399 -0.004326
0.095682 0.002860 0.004300
0.097039 -0.001533 -0.004329
0.096213 -0.000880 -0.004329
0.097881 0.002988 0.004300
0.099945 0.001296 0.004299
0.098188 -0.001479 0.004297
0.096137 0.001033 0.004299
0.099132 0.000409 0.004298
0.100200 -0.001202 0.004297
0.096513 -0.000863 0.004298
0.096359 0.002025 0.004300
0.095524 0.000174 -0.004328
0.096373 0.000325 0.004298
0.099756 -0.001200 -0.004329
0.098162 0.001591 0.004299
0.097980 0.001855 -0.004327
0.099045 -0.001056 -0.004329
0.098464 0.000183 0.004298
0.095653 0.001485 -0.004327
0.099989 0.002056 0.004300
0.097858 0.000864 -0.004327
0.098201 0.002867 -0.004326
0.099207 0.001109 0.004299
0.099338 0.002061 0.004300
0.099709 0.001960 -0.004327
0.096323 0.000311 -0.004328
0.097155 -0.001078 0.004298
0.097303 -0.000881 -0.004329
0.096292 0.002775 0.004300
0.097503 0.001555 0.004299
0.098951 0.001753 -0.004327
0.097876 -0.000042 0.004298
0.095927 -0.000168 0.004298
0.099097 -0.000206 -0.004328
0.098568 0.000934 0.004299
0.098814 0.002532 -0.004326
0.097812 -0.000692 0.004298
0.095580 -0.001651 0.004297
0.096389 -0.001574 0.004297
0.098552 -0.000726 0.004298
0.097699 -0.000347 -0.004328
0.100280 -0.000606 -0.004329
0.097508 0.003201 -0.004326
0.096769 0.003145 -0.004326
0.099895 0.001301 -0.004327
0.099671 -0.000587 0.004298
0.095813 -0.000799 0.004298
0.099882 0.002765 0.004300
0.099360 0.000657 -0.004328
0.097009 -0.000429 0.004298
0.097086 0.001118 -0.004327
0.096583 0.001493 -0.004327
0.098782 0.001616 0.004299
0.100370 0.001715 -0.004327
0.099640 -0.000521 -0.004329
0.098512 -0.000711 -0.004329
0.101920 0.002112 0.004300
0.102250 0.002000 -0.003215
0.102370 0.001697 0.003216
0.101900 0.002198 -0.004327
0.101750 0.003183 0.001944
0.101690 0.003313 0.001055
0.102030 0.002506 0.000660
0.101800 0.003045 -0.000109
0.102440 0.001543 -0.004083
0.102340 0.001769 0.000603
0.102840 0.000016 -0.003848
0.102210 0.002087 0.001288
0.101340 0.003128 0.004300
0.101970 -0.001287 0.004297
0.101690 0.003326 -0.004056
0.102470 0.001459 0.001849
0.102500 -0.001017 -0.004329
0.102430 0.001567 0.004299
0.102540 0.001301 0.000151
0.102820 0.000131 0.003063
0.102900 -0.000458 0.002419
0.102230 0.000681 -0.004328
0.102150 0.002248 -0.000177
0.102010 0.002544 0.003808
0.102250 0.001999 -0.000826
0.102950 -0.000817 0.001709
0.102870 -0.000195 -0.002356
0.101460 -0.000581 0.004298
0.100860 0.000039 -0.004328
0.102340 0.000146 0.004298
0.101960 0.002678 -0.002385
0.103040 -0.001423 -0.003721
0.102750 0.000622 0.001321
0.100970 -0.000670 -0.004329
0.103030 -0.001324 -0.001736
0.102730 0.000825 -0.003196
0.102940 -0.000725 -0.001447
0.100760 0.000433 0.004298
0.103010 -0.001205 -0.000949
0.101350 0.001124 -0.004327
0.100900 0.002110 -0.004327
0.100950 0.002024 0.004300
0.101510 0.001559 0.004299
0.102810 0.000162 0.001852
0.103030 -0.001344 -0.002393
0.102810 0.000155 -0.002940
0.102930 -0.000683 -0.003650
0.102860 -0.000147 0.000197
0.102790 0.000342 0.000575
0.102530 0.001322 -0.002359
0.102870 -0.000216 -0.000566
0.102900 -0.000739 0.004298
0.101870 0.001498 -0.004327
0.102250 0.001990 -0.002302
0.101740 0.003196 -0.003311
0.102960 -0.000898 0.002897
0.103050 -0.001478 0.003758
0.101850 0.002943 0.003227
0.102950 -0.000837 0.000981
0.102720 0.000882 -0.000324
0.101680 0.000416 -0.004328
0.101880 0.002853 0.002527
0.102720 0.000860 0.002553
0.102450 0.001511 -0.001671
0.102940 -0.000754 -0.003008
0.103070 -0.001647 0.002888
0.102430 0.001568 0.002531
0.102780 0.000374 -0.001792
0.102790 0.000310 0.003881
0.100500 0.002600 0.004300
0.101640 0.000610 0.004298
0.103040 -0.001405 0.000133
0.100860 0.001153 0.004299
0.103060 -0.001606 0.001324
0.101680 -0.000214 -0.004328
0.101810 -0.001022 -0.004329
0.102720 0.000841 0.001929
0.101740 0.003201 0.003814
0.100830 -0.001361 -0.004329
0.102780 0.000444 -0.001145
0.102140 0.002265 0.003145
0.102550 0.000958 0.004299
0.102620 0.001129 0.003201
0.102870 -0.000197 0.000921
0.101980 0.002618 -0.003063
0.100520 0.000787 -0.004328
0.102280 -0.000585 0.004298
0.101860 0.002906 -0.001668
0.101930 0.002748 -0.003942
0.102000 0.002577 -0.000771
0.102150 0.002249 -0.001722
0.102590 0.001191 0.000768
0.101930 0.002735 0.001233
0.102180 0.002156 0.002446
0.101330 -0.001363 0.004297
0.101110 0.002822 -0.004326
0.102340 -0.000078 -0.004328
0.102490 0.001432 -0.003123
0.101450 -0.001636 -0.004329
0.102730 0.000755 -0.003808
0.101990 0.002605 0.001856
0.102510 0.001381 -0.000841
0.102880 -0.000319 0.003584
0.102840 -0.001594 -0.004329
0.102940 -0.000765 -0.002064
0.102690 0.000973 -0.001445
0.102740 0.000724 -0.002567
-0.014825 0.005563 0.003432
-0.015593 0.006381 -0.003000
-0.016385 0.007821 0.001944
-0.015873 0.005274 0.003543
-0.017708 0.007039 0.002574
-0.015751 0.005010 -0.003663
-0.017104 0.007745 0.002002
-0.015389 0.008299 0.001498
-0.017182 0.003972 0.003981
-0.015986 0.006817 -0.002740
-0.017140 0.003758 -0.004049
-0.017838 0.004662 -0.003797
-0.014692 0.003954 0.003990
-0.017012 0.006339 -0.003016
-0.015398 0.004678 0.003783
-0.016799 0.004856 0.003706
-0.016543 0.007582 -0.002153
-0.015616 0.006817 0.002730
-0.014660 0.007308 -0.002388
-0.015022 0.003896 -0.004021
-0.017833 0.007568 0.002142
-0.015501 0.007428 0.002268
-0.017585 0.006664 -0.002826
-0.015239 0.003639 0.004063
-0.016048 0.003528 -0.004103
-0.016272 0.006335 -0.003022
-0.017529 0.008311 0.001472
-0.015613 0.007590 -0.002155
-0.017464 0.005315 -0.003535
-0.016927 0.004510 -0.003860
-0.017172 0.007477 -0.002230
-0.015681 0.006216 0.003083
-0.017185 0.006623 0.002838
-0.015239 0.007084 -0.002564
-0.014827 0.006953 0.002653
-0.015074 0.005316 -0.003546
-0.016255 0.006661 0.002817
-0.017529 0.004830 0.003716
-0.015607 0.005741 -0.003372
-0.016734 0.005381 -0.003511
-0.015137 0.004565 -0.003843
-0.016839 0.008319 -0.001477
-0.017224 0.005392 0.003490
-0.016035 0.004258 -0.003934
-0.014975 0.006616 -0.002865
-0.016691 0.006217 0.003075
-0.017708 0.003484 -0.004111
-0.015745 0.007896 0.001891
-0.017739 0.005973 -0.003232
-0.016247 0.008114 -0.001710
-0.016748 0.007071 -0.002566
-0.015762 0.004035 0.003971
-0.017698 0.005849 0.003286
-0.016558 0.003448 0.004105
-0.014908 0.008166 -0.001662
-0.014902 0.006313 0.003028
-0.015000 0.006016 -0.003217
-0.017476 0.007954 -0.001843
-0.016819 0.007197 0.002446
-0.016227 0.005791 0.003327
-0.014800 0.004873 0.003706
-0.017910 0.007221 -0.002436
-0.016276 0.004470 0.003862
-0.015627 0.008110 -0.001719
-0.016060 0.007223 0.002437
-0.014965 0.007843 0.001936
-0.012003 0.007621 -0.002152
-0.014323 0.007598 0.002142
-0.011113 0.005294 0.003550
-0.010782 0.006342 -0.003045
-0.013819 0.004841 0.003722
-0.010092 0.003948 -0.004018
-0.011942 0.006292 -0.003069
-0.010639 0.007129 0.002544
-0.014119 0.005969 0.003235
-0.013595 0.004303 0.003914
-0.014481 0.005061 -0.003650
-0.012287 0.006859 -0.002737
-0.013174 0.007741 -0.002046
-0.011053 0.006465 0.002957
-0.012120 0.007236 0.002448
-0.010997 0.004520 -0.003876
-0.013502 0.005119 -0.003629
-0.012841 0.006270 0.003064
-0.009553 0.007699 0.002090
-0.012888 0.005794 -0.003358
-0.013529 0.008325 0.001489
-0.009850 0.007299 -0.002429
-0.013286 0.006790 -0.002771
-0.012760 0.004855 -0.003738
-0.014428 0.005811 -0.003344
-0.013678 0.005897 -0.003294
-0.013817 0.008095 -0.001755
-0.012109 0.004846 0.003729
-0.013574 0.006524 0.002910
-0.010318 0.004706 -0.003806
-0.012414 0.004183 0.003942
-0.009694 0.006617 0.002876
-0.011885 0.007839 0.001961
-0.010946 0.007997 0.001841
-0.014134 0.005379 0.003509
-0.010724 0.005352 -0.003544
-0.011556 0.006765 -0.002794
-0.009698 0.005851 -0.003339
-0.010194 0.005372 0.003525
-0.014273 0.006402 -0.002993
-0.009644 0.006551 -0.002930
-0.012883 0.007630 0.002127
-0.010212 0.007483 0.002265
-0.013104 0.005457 0.003479
-0.012799 0.003615 -0.004090
-0.011724 0.004244 -0.003946
-0.011865 0.006718 0.002806
-0.011586 0.005625 -0.003435
-0.010793 0.007651 -0.002135
-0.010210 0.006092 0.003180
-0.010457 0.004640 0.003815
-0.012201 0.006275 0.003065
-0.009922 0.005189 -0.003612
-0.011416 0.008035 -0.001816
-0.010417 0.006875 -0.002735
-0.011210 0.003719 -0.004069
-0.012936 0.006859 0.002719
-0.012575 0.007916 -0.001905
-0.013379 0.005955 0.003247
-0.014234 0.006578 0.002876
-0.009848 0.004765 0.003766
-0.010628 0.003524 -0.004117
-0.011559 0.004806 -0.003760
-0.011487 0.004581 0.003835
-0.010878 0.005936 0.003268
-0.011300 0.007317 -0.002401
-0.013738 0.007053 0.002591
-0.010305 0.006652 0.002853
-0.012169 0.003550 -0.004105
-0.010133 0.004112 0.003963
-0.013615 0.007814 0.001967
-0.013962 0.004005 -0.003996
-0.012769 0.004800 0.003742
-0.012131 0.005021 -0.003671
-0.013929 0.007145 -0.002522
-0.012454 0.004238 -0.003946
-0.010299 0.006016 -0.003243
-0.013274 0.004141 -0.003967
-0.014123 0.007663 -0.002106
-0.011281 0.003902 0.004008
-0.012145 0.005546 0.003447
-0.010276 0.008053 0.001800
-0.009867 0.003414 0.004126
-0.014038 0.004635 -0.003820
-0.011578 0.005910 0.003280
-0.014316 0.004467 0.003871
-0.011342 0.007523 0.002223
-0.012228 0.008216 0.001617
-0.012762 0.006345 -0.003033
-0.009645 0.007901 -0.001941
-0.012771 0.007374 -0.002350
-0.011929 0.003627 0.004071
-0.012992 0.003998 0.003984
-0.010406 0.008044 -0.001818
-0.014061 0.003879 0.004010
-0.011558 0.008232 0.001612
-0.007832 0.007576 -0.001397
-0.007804 0.004256 -0.002561
-0.009242 0.004050 0.003980
-0.007621 0.006243 0.004307
-0.005615 0.007861 0.004308
-0.007781 0.007482 0.004308
-0.008477 0.006967 0.002679
-0.009495 0.004263 -0.003946
-0.005495 0.007888 -0.004318
-0.007738 0.008213 0.004308
-0.007827 0.006956 -0.002068
-0.007817 0.005796 -0.001763
-0.007815 0.005592 0.003897
-0.007812 0.005156 -0.001851
-0.007719 0.004812 0.004306
-0.007818 0.005873 0.001864
-0.005112 0.003995 0.004305
-0.007835 0.007882 0.003676
-0.005374 0.004188 -0.004321
-0.007822 0.006346 -0.002284
-0.007803 0.004143 0.001896
-0.005988 0.004673 -0.004320
-0.007834 0.007798 -0.004278
-0.009090 0.003777 -0.004060
-0.005639 0.007226 -0.004319
-0.006625 0.007908 -0.004318
-0.009108 0.007036 -0.002646
-0.006878 0.003540 0.004305
-0.007834 0.007816 -0.002527
-0.008171 0.005094 -0.003656
-0.006302 0.004010 -0.004321
-0.004936 0.005582 -0.004320
-0.009085 0.005476 -0.003502
-0.008386 0.005658 0.003417
-0.007797 0.003407 -0.002967
-0.004701 0.007428 0.004308
-0.007655 0.006659 -0.004319
-0.007607 0.003423 0.004305
-0.007782 0.004038 -0.004321
-0.007162 0.007563 -0.004318
-0.007831 0.007427 -0.003743
-0.006400 0.007240 -0.004319
-0.007807 0.004553 0.003126
-0.006592 0.005118 -0.004320
-0.004601 0.003895 -0.004321
-0.009348 0.005889 0.003303
-0.007838 0.008217 -0.003332
-0.007826 0.006873 0.002465
-0.007890 0.006056 -0.003232
-0.006282 0.005195 0.004306
-0.005509 0.007241 0.004308
-0.007834 0.007715 -0.000472
-0.008900 0.004888 -0.003738
-0.005139 0.008325 0.004308
-0.007834 0.007714 0.000802
-0.006016 0.006827 0.004307
-0.007807 0.004577 -0.003603
-0.007817 0.005763 0.002906
-0.008933 0.007644 0.002139
-0.008470 0.003816 0.004036
-0.008725 0.004320 -0.003934
-0.007833 0.007693 0.002793
-0.007838 0.008186 -0.001372
-0.008209 0.007163 -0.002549
-0.007821 0.006244 0.001348
-0.009016 0.007986 -0.001873
-0.007821 0.006213 0.002434
-0.007874 0.004201 0.003946
-0.006811 0.006270 0.004307
-0.005477 0.005842 0.004306
-0.007809 0.004853 0.002204
-0.007159 0.003623 -0.004321
-0.008019 0.004860 0.003733
-0.007799 0.004788 -0.004320
-0.007695 0.005499 -0.004320
-0.007800 0.003753 0.002668
-0.005047 0.006931 -0.004319
-0.008568 0.005891 -0.003325
-0.007816 0.005647 -0.002757
-0.006887 0.004556 -0.004321
-0.007125 0.004417 0.004306
-0.005843 0.004168 0.004305
-0.008982 0.005152 0.003614
-0.007122 0.005168 0.004306
-0.009085 0.006752 0.002798
-0.004628 0.004765 -0.004320
-0.007828 0.007062 0.003715
-0.007827 0.006957 -0.003005
-0.009469 0.007169 0.002523
-0.008575 0.006710 -0.002844
-0.006200 0.006115 0.004307
-0.006184 0.006552 -0.004319
-0.007063 0.007698 0.004308
-0.007812 0.005202 0.003257
-0.005675 0.005576 -0.004320
-0.008046 0.007944 -0.001918
-0.007832 0.007493 0.002165
-0.005660 0.004950 0.004306
-0.004986 0.006796 0.004307
-0.005240 0.004930 -0.004320
-0.007824 0.006577 -0.003559
-0.008393 0.006438 0.002988
-0.006367 0.004574 0.004306
-0.007118 0.005814 -0.004320
-0.007797 0.003357 -0.003658
-0.007799 0.003632 0.003621
-0.004978 0.004686 0.004306
-0.007811 0.005027 -0.002666
-0.008762 0.007538 -0.002238
-0.007819 0.005947 -0.003863
-0.006118 0.003506 0.004305
-0.007835 0.007884 0.000159
-0.006925 0.006735 -0.004319
-0.007826 0.006804 0.001724
-0.006677 0.008211 0.004308
-0.007824 0.006632 0.003219
-0.007916 0.008043 0.001827
-0.007426 0.006835 0.004307
-0.008695 0.004384 0.003902
-0.007824 0.006636 -0.001525
-0.006658 0.007052 0.004307
-0.007831 0.007424 0.001466
-0.006488 0.005839 -0.004320
-0.004773 0.005307 0.004306
-0.005522 0.006297 -0.004319
-0.004848 0.005927 0.004306
-0.007839 0.008314 0.001069
-0.007802 0.004007 -0.003122
-0.007737 0.003408 -0.004321
-0.006253 0.007705 0.004308
-0.001369 0.005996 0.004306
-0.001680 0.006130 -0.004320
-0.000703 0.005328 -0.004320
-0.001248 0.004773 -0.004321
-0.003250 0.006096 -0.004320
-0.002570 0.004936 0.004306
-0.003108 0.007028 -0.004319
-0.003826 0.005701 -0.004320
-0.000835 0.005631 0.004306
-0.003945 0.005534 0.004306
-0.004221 0.006222 0.004307
-0.001135 0.004358 0.004305
-0.002422 0.007527 0.004308
-0.000052 0.006364 -0.004320
-0.001464 0.005432 -0.004320
-0.004257 0.006952 0.004307
-0.001980 0.007327 -0.004319
-0.000183 0.005366 0.004306
-0.004518 0.008300 0.004308
-0.000994 0.007830 0.004308
-0.001892 0.006362 0.004307
0.000059 0.005094 -0.004320
-0.003718 0.008287 0.004308
-0.003029 0.004828 -0.004320
-0.000321 0.007455 0.004307
-0.002975 0.007869 -0.004318
-0.000383 0.006535 0.004307
-0.002436 0.005653 -0.004320
-0.002798 0.003550 -0.004321
-0.001858 0.004712 0.004306
-0.002216 0.004455 -0.004321
-0.000304 0.004191 -0.004321
-0.003269 0.004870 0.004306
-0.001430 0.003752 -0.004321
-0.002209 0.008315 -0.004318
-0.003262 0.004070 0.004305
-0.003303 0.004166 -0.004321
-0.004073 0.007643 0.004308
-0.001453 0.007672 -0.004319
-0.003930 0.004961 -0.004320
-0.003683 0.006527 0.004307
-0.002626 0.005696 0.004306
0.000040 0.003778 0.004305
0.000151 0.003655 -0.004322
-0.002257 0.008179 0.004308
0.000267 0.007660 0.004308
-0.003182 0.007591 0.004308
-0.003813 0.006472 -0.004319
0.000083 0.004599 0.004305
-0.003691 0.007373 -0.004319
-0.001027 0.006985 -0.004319
-0.000185 0.007923 -0.004318
-0.004286 0.007968 -0.004318
-0.000890 0.004960 0.004306
-0.002048 0.003477 -0.004322
-0.001945 0.006698 -0.004319
-0.001797 0.006993 0.004307
-0.003557 0.008164 -0.004318
-0.003838 0.003585 0.004305
-0.000098 0.005977 0.004306
-0.004026 0.004514 0.004306
-0.004491 0.006186 -0.004320
-0.001078 0.007139 0.004307
-0.000249 0.007142 -0.004319
-0.000926 0.008026 -0.004318
-0.004025 0.004340 -0.004321
-0.000650 0.006169 -0.004320
-0.002133 0.004160 0.004305
-0.002387 0.003478 0.004305
-0.004407 0.006937 -0.004319
0.000353 0.006927 -0.004319
-0.001733 0.005363 0.004306
-0.002835 0.006734 0.004307
-0.001931 0.005008 -0.004320
-0.000759 0.003752 0.004305
-0.002753 0.006491 -0.004319
-0.004421 0.003930 0.004305
-0.001579 0.003684 0.004305
-0.003328 0.005870 0.004306
-0.001713 0.007713 0.004308
-0.003205 0.005477 -0.004320
0.004179 0.003949 -0.004321
0.005289 0.005174 0.003353
0.003358 0.004062 -0.004321
0.005370 0.006164 0.004306
0.001973 0.006981 -0.004319
0.002583 0.003420 0.004304
0.003278 0.007582 -0.004319
0.000893 0.003446 0.004305
0.003968 0.007612 0.004307
0.004056 0.005428 -0.004320
0.003998 0.005262 0.004306
0.004552 0.004727 0.004062
0.001512 0.004811 0.004306
0.004443 0.003446 0.004304
0.001495 0.006731 0.004307
0.004781 0.004899 0.002960
0.005285 0.005539 -0.004320
0.004243 0.008130 -0.004318
0.002220 0.006227 0.004306
0.000498 0.007588 -0.004319
0.003332 0.007186 0.004307
0.005316 0.007859 -0.004319
0.001877 0.005404 0.004306
0.001778 0.004079 -0.004321
0.002682 0.005867 -0.004320
0.002063 0.003381 -0.004322
0.003552 0.003570 0.002001
0.000956 0.005456 0.004306
0.003819 0.003961 0.002985
0.000997 0.004142 -0.004321
0.004866 0.005529 0.004306
0.001208 0.004078 0.004305
0.002608 0.005196 -0.004320
0.002333 0.007008 0.004307
0.004824 0.003345 -0.004322
0.003957 0.004142 0.003772
0.004568 0.004117 0.004305
0.004271 0.006090 -0.004320
0.004751 0.004880 0.002314
0.001968 0.004095 0.004305
0.001581 0.004867 -0.004321
0.005408 0.005215 0.002430
0.003532 0.008278 0.004308
0.004185 0.004435 0.002671
0.002688 0.007571 0.004307
0.001730 0.006109 -0.004320
0.000956 0.006552 -0.004320
0.001250 0.007359 0.004307
0.005214 0.006882 0.004307
0.002880 0.005002 0.004306
0.000515 0.006712 0.004307
0.000622 0.004749 -0.004321
0.002833 0.008138 -0.004318
0.005017 0.004107 -0.004321
0.005315 0.006759 -0.004320
0.003879 0.007467 -0.004319
0.003847 0.006561 0.004307
0.004719 0.007548 0.004307
0.004552 0.008277 0.004308
0.002067 0.007662 -0.004319
0.000665 0.005530 -0.004320
0.002659 0.007447 -0.004319
0.003484 0.003388 0.003620
0.003230 0.004991 -0.004321
0.000802 0.003531 -0.004322
0.002496 0.006605 -0.004320
0.005070 0.004937 -0.004321
0.002836 0.004342 0.004305
0.004384 0.004596 0.003397
0.001906 0.005420 -0.004320
0.002760 0.003737 -0.004322
0.001438 0.007616 -0.004319
0.003674 0.006795 -0.004319
0.003645 0.004439 0.004305
0.002564 0.004456 -0.004321
0.005192 0.004732 0.004305
0.003474 0.005704 -0.004320
0.000731 0.004834 0.004306
0.002863 0.008162 0.004308
0.004758 0.007574 -0.004319
0.003533 0.003508 0.004237
0.004605 0.006733 -0.004320
0.004390 0.006175 0.004306
0.001869 0.007534 0.004307
0.004920 0.006156 -0.004320
0.002232 0.004707 0.004305
0.003484 0.003409 0.002697
0.004595 0.006797 0.004307
0.003957 0.004143 0.002143
0.000601 0.006043 0.004306
0.002645 0.005630 0.004306
0.003301 0.006046 0.004306
0.001115 0.007988 0.004308
0.001512 0.005991 0.004306
0.001673 0.003492 0.004305
0.003098 0.006330 -0.004320
0.001305 0.005555 -0.004320
0.002807 0.006552 0.004307
0.007213 0.005875 -0.004320
0.009207 0.007766 0.004307
0.008260 0.003838 0.004304
0.008873 0.003503 0.004304
0.006484 0.005659 -0.004320
0.007690 0.006183 0.004306
0.007413 0.008261 0.004308
0.008274 0.008038 0.004307
0.007283 0.007060 0.004307
0.008520 0.007340 0.004307
0.005727 0.005317 0.004306
0.006666 0.005516 0.002853
0.009642 0.006000 0.004306
0.006555 0.004430 -0.004321
0.009708 0.004062 0.002096
0.008140 0.004983 -0.004321
0.008731 0.004963 0.002424
0.009006 0.006650 -0.004320
0.006854 0.003346 0.004304
0.005987 0.005420 0.003038
0.010124 0.003385 0.002818
0.007156 0.007765 -0.004319
0.007563 0.004628 -0.004321
0.007216 0.005469 0.003990
0.008361 0.003675 -0.004322
0.008740 0.004963 0.003586
0.009425 0.004429 0.003284
0.007955 0.005582 -0.004320
0.009523 0.008205 -0.004319
0.005666 0.007796 0.004307
0.009710 0.005010 0.004305
0.008500 0.005090 0.004272
0.009314 0.004533 -0.004288
0.006678 0.005255 0.004306
0.006413 0.003468 -0.004322
0.007236 0.005470 0.003366
0.006153 0.008186 -0.004319
0.009021 0.006105 0.004306
0.008409 0.005130 0.003086
0.009462 0.003614 -0.004322
0.006737 0.006495 0.004306
0.007730 0.005014 0.004305
0.005936 0.006688 0.004307
0.008085 0.005587 0.004306
0.009195 0.004446 0.004305
0.010115 0.004400 -0.004321
0.008666 0.006702 0.004306
0.006658 0.004094 0.004305
0.009180 0.007402 -0.004319
0.009927 0.004252 0.004305
0.006783 0.005866 0.004306
0.009398 0.005214 -0.004321
0.006984 0.006863 -0.004320
0.007788 0.007614 0.004307
0.006739 0.005051 -0.004321
0.005710 0.007343 -0.004319
0.009848 0.007582 0.004307
0.006094 0.004520 0.004305
0.007857 0.005356 0.002719
0.006446 0.005483 0.003602
0.009799 0.003942 0.003001
0.009375 0.004479 0.002400
0.007927 0.005326 0.003465
0.007909 0.007421 -0.004319
0.008674 0.005728 -0.004320
0.009703 0.005816 -0.004320
0.009325 0.006837 0.004307
0.008401 0.006129 0.004306
0.006028 0.004025 -0.004322
0.005998 0.006345 -0.004320
0.005528 0.004105 0.004305
0.007132 0.003634 -0.004322
0.009799 0.003942 0.003677
0.006665 0.007965 0.004308
0.010345 0.006806 0.004306
0.009972 0.007149 -0.004319
0.007646 0.006639 -0.004320
0.007750 0.003800 -0.004322
0.006083 0.005870 0.004306
0.006156 0.005441 0.002416
0.008837 0.004109 -0.004322
0.009156 0.005476 0.004306
0.010048 0.005179 -0.004321
0.006300 0.007411 0.004307
0.010012 0.003643 0.004304
0.010335 0.008016 0.004307
0.008736 0.007838 -0.004319
0.006358 0.007598 -0.004319
0.007314 0.004530 0.004305
0.005491 0.003620 -0.004322
0.010312 0.004825 0.004305
0.008175 0.004343 -0.004321
0.010037 0.006479 -0.004320
0.007562 0.003612 0.004304
0.010461 0.006067 0.004306
0.005753 0.004623 -0.004321
0.008264 0.006894 -0.004320
0.010206 0.005485 0.004306
0.008545 0.004440 0.004305
0.006926 0.005508 0.002130
0.008238 0.005199 0.002139
0.007923 0.006995 0.004307
0.006364 0.006878 -0.004320
0.008199 0.006244 -0.004320
0.011373 0.007085 0.004307
0.013371 0.007198 -0.004320
0.011205 0.007963 0.004307
0.011303 0.004640 -0.004321
0.015127 0.007692 -0.004319
0.012687 0.006536 0.004306
0.014543 0.007017 -0.004320
0.011563 0.003492 -0.004322
0.012905 0.008014 -0.004319
0.015221 0.004967 0.004305
0.012791 0.006032 -0.004320
0.012072 0.004746 -0.004321
0.014883 0.007004 0.004306
0.012476 0.006710 -0.004320
0.014091 0.004928 0.004305
0.012059 0.007460 0.004307
0.013499 0.006278 -0.004320
0.013896 0.007812 -0.004319
0.014492 0.008267 -0.004319
0.013881 0.003776 0.004304
0.011700 0.006177 0.004306
0.014556 0.005561 0.004306
0.013192 0.004790 0.004305
0.011696 0.005443 -0.004321
0.013701 0.004880 -0.004321
0.011279 0.006320 -0.004320
0.014830 0.006214 0.004306
0.015104 0.008146 0.004307
0.013815 0.005605 0.004306
0.014048 0.004063 -0.004322
0.013133 0.003495 -0.004322
0.015079 0.006272 -0.004320
0.010651 0.004824 -0.004321
0.014569 0.004002 0.004304
0.011367 0.004184 0.004305
0.010541 0.006053 -0.004320
0.011671 0.004877 0.004305
0.012385 0.008003 0.004307
0.013625 0.008014 0.004307
0.010760 0.007409 0.004307
0.014355 0.005606 -0.004321
0.012856 0.004323 -0.004322
0.011833 0.007014 -0.004320
0.014628 0.007632 0.004307
0.014147 0.006544 -0.004320
0.012076 0.006710 0.004306
0.013455 0.006842 0.004306
0.013070 0.004955 -0.004321
0.012540 0.007370 -0.004319
0.010994 0.006917 -0.004320
0.011007 0.005407 -0.004321
0.012198 0.004017 -0.004322
0.013486 0.005458 -0.004321
0.011042 0.004762 0.004305
0.010876 0.005540 0.004306
0.014981 0.003751 -0.004322
0.011269 0.007490 -0.004319
0.012286 0.004322 0.004305
0.010979 0.003887 -0.004322
0.015344 0.004554 -0.004322
0.012464 0.005804 0.004306
0.011971 0.006036 -0.004320
0.013096 0.005529 0.004306
0.014222 0.007159 0.004307
0.013421 0.006142 0.004306
0.012436 0.005470 -0.004321
0.014899 0.005080 -0.004321
0.013139 0.003979 0.004304
0.012056 0.007836 -0.004319
0.012381 0.004963 0.004305
0.014684 0.004612 0.004305
0.012832 0.007187 0.004307
0.014130 0.006188 0.004306
0.014675 0.004438 -0.004322
0.011049 0.006292 0.004306
0.010769 0.003959 0.004304
0.015309 0.007538 0.004307
0.010615 0.007944 -0.004319
0.013036 0.007829 0.004307
0.012283 0.003552 0.004304
0.011736 0.005518 0.004306
0.011213 0.003493 0.004304
0.018864 0.003404 -0.004322
0.017722 0.005934 -0.004321
0.019207 0.004177 -0.004322
0.017381 0.006146 0.004306
0.018256 0.007913 0.004307
0.017345 0.008005 0.004307
0.016119 0.005215 0.004305
0.019093 0.003550 0.004304
0.015741 0.003677 -0.004322
0.018097 0.006632 0.004306
0.020395 0.006857 -0.004320
0.017563 0.007083 -0.004320
0.015856 0.006762 0.004306
0.018354 0.005740 -0.004321
0.018296 0.006649 -0.004320
0.018402 0.007234 0.004306
0.020042 0.003718 0.004304
0.017218 0.005290 -0.004321
0.015564 0.005746 -0.004321
0.017259 0.003990 -0.004322
0.019840 0.007382 -0.004320
0.019345 0.004492 0.004304
0.018616 0.005496 0.004305
0.019614 0.006944 0.004306
0.018188 0.004098 -0.004322
0.015586 0.005520 0.004305
0.017853 0.003529 0.004304
0.016136 0.006731 -0.004320
0.018722 0.007183 -0.004320
0.017137 0.006589 -0.004320
0.016651 0.007325 -0.004320
0.018248 0.007679 -0.004319
0.016517 0.004204 -0.004322
0.017641 0.007258 0.004306
0.017685 0.004454 -0.004322
0.018649 0.005162 -0.004321
0.017778 0.005359 0.004305
0.015525 0.006836 -0.004320
0.018769 0.006387 0.004306
0.017467 0.007802 -0.004319
0.016288 0.005282 -0.004321
0.016411 0.006073 -0.004320
0.015859 0.004043 0.004304
0.020031 0.004974 -0.004321
0.019492 0.005959 -0.004321
0.019849 0.003992 -0.004322
0.019338 0.005362 0.004305
0.016682 0.004870 0.004305
0.016703 0.003536 -0.004322
0.018718 0.004137 0.004304
0.019046 0.007900 0.004307
0.020178 0.007659 0.004307
0.018016 0.004341 0.004304
0.020372 0.006017 -0.004321
0.016013 0.004690 -0.004321
0.020014 0.004638 0.004305
0.018502 0.008311 -0.004319
0.016305 0.007952 -0.004319
0.018974 0.006969 0.004306
0.016676 0.007920 0.004307
0.020337 0.007807 -0.004319
0.016771 0.007250 0.004306
0.020345 0.005621 0.004305
0.019124 0.008136 -0.004319
0.018880 0.006184 -0.004320
0.019691 0.006105 0.004306
0.019503 0.003469 -0.004322
0.016112 0.005975 0.004306
0.017044 0.004579 -0.004322
0.017920 0.005036 -0.004321
0.016047 0.007794 0.004307
0.015951 0.007319 -0.004320
0.018193 0.005952 0.004306
0.018484 0.003395 0.004304
0.017032 0.003702 0.004304
0.019687 0.006621 -0.004320
0.017382 0.004875 0.004305
0.015574 0.008116 -0.004319
0.016736 0.005540 0.004305
0.016609 0.006329 0.004306
0.016174 0.003405 0.004304
0.019351 0.004938 -0.004321
0.016537 0.004268 0.004304
0.020327 0.006630 0.004306
0.018822 0.004858 0.004305
0.023139 0.007500 -0.004320
0.020996 0.004386 0.004304
0.022765 0.006831 0.004306
0.022190 0.006212 -0.004321
0.025364 0.008189 -0.004319
0.023434 0.004607 0.004304
0.020831 0.004961 -0.004321
0.023563 0.008298 0.004307
0.023454 0.008083 -0.004319
0.021548 0.006437 -0.004320
0.021632 0.003701 0.004304
0.020939 0.003932 -0.004322
0.025369 0.006403 0.004306
0.025106 0.005591 0.004305
0.022423 0.005858 0.004305
0.025398 0.004119 -0.004322
0.021737 0.007779 -0.004320
0.022540 0.003845 -0.004322
0.024115 0.005679 -0.004321
0.022034 0.006945 0.004306
0.022039 0.005201 -0.004321
0.025356 0.006719 -0.004320
0.024569 0.005236 0.004305
0.020751 0.006164 0.004306
0.024899 0.005125 -0.004322
0.024084 0.004642 0.004304
0.022743 0.007017 -0.004320
0.025249 0.007588 -0.004320
0.023800 0.007356 -0.004320
0.024814 0.004639 0.004304
0.024064 0.005842 0.004305
0.022400 0.005108 0.004305
0.022156 0.007866 0.004307
0.024866 0.007879 0.004307
0.021453 0.005950 0.004306
0.021689 0.005162 0.004305
0.023086 0.005480 -0.004321
0.022526 0.004419 0.004304
0.020722 0.007174 0.004306
0.024682 0.005993 -0.004321
0.023370 0.006292 -0.004321
0.021215 0.008068 0.004307
0.025400 0.007403 0.004306
0.023763 0.003525 -0.004322
0.024458 0.004071 -0.004322
0.024042 0.004878 -0.004322
0.021835 0.004453 0.004304
0.023321 0.003826 0.004304
0.023053 0.005934 0.004305
0.024088 0.006428 -0.004320
0.020848 0.006431 -0.004320
0.020872 0.003675 0.004304
0.023965 0.006831 0.004306
0.021089 0.007503 -0.004320
0.024589 0.007533 -0.004320
0.023099 0.007534 0.004306
0.023338 0.006516 0.004306
0.021437 0.006590 0.004306
0.023697 0.004175 -0.004322
0.022943 0.004679 -0.004322
0.021613 0.007097 -0.004320
0.024791 0.006168 0.004306
0.021350 0.007419 0.004306
0.024705 0.006884 -0.004320
0.023339 0.005266 0.004305
0.025250 0.003952 0.004304
0.021705 0.004438 -0.004322
0.022562 0.003689 0.004304
0.021175 0.005664 -0.004321
0.023718 0.007659 0.004306
0.020940 0.005136 0.004305
0.024489 0.003986 0.004304
0.022334 0.004533 -0.004322
0.024864 0.003419 0.004304
0.024846 0.006799 0.004306
0.022319 0.007583 -0.004320
0.024390 0.007465 0.004306
0.030017 0.004289 -0.004322
0.026973 0.008293 -0.004319
0.027006 0.006807 0.004306
0.029948 0.007682 0.004306
0.028501 0.006160 0.004305
0.030074 0.006979 -0.004320
0.030008 0.005373 0.004305
0.027953 0.003565 0.004304
0.028149 0.003993 -0.004322
0.028103 0.004772 -0.004322
0.027011 0.006103 -0.004321
0.027209 0.003965 -0.004322
0.025482 0.004830 -0.004322
0.026795 0.003355 0.004303
0.026954 0.008177 0.004307
0.029181 0.007332 -0.004320
0.029174 0.005741 -0.004321
0.027668 0.006479 -0.004321
0.030122 0.006010 -0.004321
0.027853 0.007174 0.004306
0.027843 0.008280 -0.004319
0.028641 0.006107 -0.004321
0.026548 0.004133 0.004304
0.028572 0.003730 0.004304
0.026550 0.003869 -0.004322
0.026798 0.005301 -0.004321
0.029223 0.008302 -0.004319
0.029994 0.008179 -0.004320
0.029819 0.005187 -0.004322
0.025812 0.003663 -0.004322
0.030164 0.003494 0.004303
0.026328 0.007751 0.004306
0.030441 0.004992 -0.004322
0.027153 0.004788 0.004304
0.029859 0.006461 0.004306
0.029108 0.006525 0.004306
0.027025 0.005647 0.004305
0.028260 0.005108 0.004305
0.028843 0.007173 0.004306
0.028063 0.005862 -0.004321
0.025868 0.004177 0.004304
0.029290 0.005116 0.004305
0.028495 0.007986 -0.004320
0.029322 0.004803 -0.004322
0.028565 0.004500 0.004304
0.025572 0.004875 0.004304
0.027726 0.004393 0.004304
0.027760 0.007460 -0.004320
0.025505 0.005710 -0.004321
0.030372 0.004846 0.004304
0.028286 0.006754 -0.004320
0.027130 0.007478 0.004306
0.030456 0.006826 0.004306
0.028835 0.008033 0.004307
0.027391 0.004936 -0.004322
0.029276 0.004456 0.004304
0.026127 0.007756 -0.004320
0.029868 0.004211 0.004304
0.028057 0.006586 0.004306
0.029512 0.003704 -0.004323
0.026459 0.006363 0.004306
0.027804 0.005854 0.004305
0.026926 0.006723 -0.004320
0.029467 0.006644 -0.004321
0.027396 0.005586 -0.004321
0.026077 0.006575 -0.004320
0.025912 0.006028 0.004305
0.028889 0.004049 -0.004322
0.026161 0.004906 -0.004322
0.029314 0.005817 0.004305
0.027794 0.008154 0.004307
0.029493 0.007138 0.004306
0.025914 0.008218 0.004307
0.025504 0.003394 0.004304
0.029504 0.008218 0.004307
0.028348 0.007649 0.004306
0.025965 0.006908 0.004306
0.026451 0.005012 0.004305
0.027391 0.003810 0.004304
0.026245 0.005617 -0.004321
0.026635 0.004480 -0.004322
0.030173 0.003550 -0.004323
0.028569 0.005236 -0.004322
0.026700 0.007451 -0.004320
0.028737 0.005522 0.004305
0.027400 0.006330 0.004306
0.035063 0.004765 0.004304
0.031689 0.007563 -0.004320
0.034349 0.003985 -0.004323
0.031977 0.004289 0.004304
0.035063 0.005972 -0.004321
0.030920 0.006350 0.004305
0.033466 0.004358 -0.004322
0.034868 0.007764 0.004306
0.033781 0.003770 -0.004323
0.034386 0.005600 0.004305
0.031183 0.004763 0.004304
0.033108 0.006579 0.004305
0.033452 0.007258 -0.004320
0.032406 0.008013 0.004306
0.033697 0.005474 0.004305
0.033929 0.007646 0.004306
0.032172 0.007211 0.004306
0.031508 0.004151 -0.004322
0.034749 0.006443 0.004305
0.032851 0.003817 0.004304
0.032259 0.005292 0.004305
0.034397 0.005446 -0.004322
0.031943 0.004775 -0.004322
0.032086 0.005566 -0.004322
0.034314 0.004719 0.004304
0.031195 0.005679 -0.004321
0.034451 0.003860 0.004304
0.035185 0.006907 0.004306
0.033675 0.006874 0.004306
0.032106 0.006696 -0.004321
0.033276 0.004400 0.004304
0.033840 0.005131 -0.004322
0.032361 0.006129 -0.004321
0.031003 0.003597 -0.004323
0.031647 0.006607 0.004306
0.033296 0.007916 -0.004320
0.034141 0.007384 -0.004320
0.032816 0.006722 -0.004321
0.031480 0.007455 0.004306
0.032551 0.003850 -0.004323
0.030778 0.004189 0.004304
0.032983 0.005918 0.004305
0.030686 0.007874 -0.004320
0.030570 0.007467 0.004306
0.032387 0.007789 -0.004320
0.033402 0.006037 -0.004321
0.032615 0.004501 -0.004322
0.034916 0.007910 -0.004320
0.034873 0.004790 -0.004322
0.034923 0.003530 -0.004323
0.032752 0.004906 0.004304
0.034787 0.006579 -0.004321
0.033120 0.007539 0.004306
0.033934 0.008172 -0.004320
0.030524 0.005877 0.004305
0.030947 0.006637 -0.004321
0.033927 0.006622 -0.004321
0.032819 0.005182 -0.004322
0.031361 0.005000 -0.004322
0.034424 0.007020 0.004306
0.031580 0.006232 -0.004321
0.032298 0.006492 0.004305
0.035355 0.006934 -0.004321
0.032003 0.005919 0.004305
0.031011 0.007327 -0.004320
0.031407 0.005514 0.004305
0.030787 0.004205 -0.004322
0.035098 0.004192 -0.004322
0.033235 0.003376 -0.004323
0.035065 0.005675 0.004305
0.031784 0.003384 -0.004323
0.033641 0.006243 0.004305
0.030594 0.008138 0.004307
0.031430 0.003905 0.004304
0.030829 0.005269 0.004305
0.031455 0.008075 0.004306
0.030823 0.003539 0.004303
0.035089 0.004136 0.004304
0.038916 0.005678 0.004304
0.035661 0.003860 0.004303
0.039594 0.004744 0.004304
0.035789 0.005282 0.004304
0.035622 0.004916 -0.004322
0.038292 0.006009 -0.004321
0.038952 0.006024 -0.004321
0.037668 0.007788 0.004306
0.037630 0.006367 0.004305
0.039774 0.005825 0.004305
0.038767 0.006683 -0.004321
0.036873 0.005947 -0.004321
0.035859 0.007608 -0.004320
0.038713 0.007136 0.004306
0.036923 0.007141 0.004306
0.036579 0.007658 0.004306
0.038462 0.003730 -0.004323
0.039872 0.003762 -0.004323
0.036408 0.005403 -0.004322
0.036976 0.007968 -0.004320
0.038068 0.005297 -0.004322
0.036794 0.004586 -0.004322
0.038756 0.004433 -0.004322
0.037729 0.007554 -0.004320
0.038004 0.007021 0.004306
0.040314 0.004750 0.004304
0.036374 0.008143 -0.004320
0.039841 0.007372 -0.004320
0.040240 0.007499 0.004306
0.038481 0.007360 -0.004320
0.035929 0.007583 0.004306
0.035743 0.006001 0.004305
0.040225 0.008035 -0.004320
0.036155 0.004521 -0.004322
0.037775 0.004484 -0.004322
0.036490 0.006348 0.004305
0.039581 0.007394 0.004306
0.039121 0.005046 -0.004322
0.035703 0.008237 -0.004320
0.036560 0.005138 0.004304
0.037956 0.006736 -0.004321
0.036005 0.006863 0.004306
0.036257 0.004376 0.004304
0.039139 0.006480 0.004305
0.039790 0.006352 -0.004321
0.038034 0.003541 0.004303
0.036393 0.003637 0.004303
0.036482 0.007283 -0.004320
0.035535 0.008070 0.004306
0.039768 0.006555 0.004305
0.038907 0.007824 -0.004320
0.036938 0.004231 0.004304
0.040213 0.004735 -0.004322
0.037831 0.003815 -0.004323
0.038381 0.006244 0.004305
0.038438 0.007724 0.004306
0.037110 0.003929 -0.004323
0.035967 0.006689 -0.004321
0.039764 0.008215 0.004306
0.040242 0.003729 0.004303
0.039359 0.004102 0.004303
0.035720 0.003877 -0.004323
0.037004 0.005852 0.004305
0.036400 0.003933 -0.004323
0.037679 0.004068 0.004304
0.039866 0.005612 -0.004322
0.038286 0.004443 0.004304
0.035711 0.006127 -0.004321
0.039005 0.008099 0.004306
0.038581 0.005095 0.004304
0.037144 0.007039 -0.004321
0.038701 0.003916 0.004303
0.037781 0.005029 0.004304
0.037138 0.005389 -0.004322
0.037691 0.006134 -0.004321
0.039505 0.004559 -0.004322
0.039304 0.007058 -0.004321
0.037995 0.005770 0.004305
0.036698 0.006555 -0.004321
0.036154 0.008185 0.004306
0.039160 0.003896 -0.004323
0.043260 0.005135 0.004304
0.042103 0.004781 -0.003913
0.045128 0.006597 -0.004321
0.041575 0.005801 0.004304
0.045465 0.005749 -0.003813
0.040795 0.008094 0.004306
0.041500 0.004006 -0.004198
0.044235 0.005788 -0.002715
0.043737 0.007899 0.004306
0.041064 0.003502 -0.004323
0.042420 0.006308 0.004305
0.040758 0.006490 -0.004321
0.041668 0.006531 0.004305
0.042409 0.005348 0.004304
0.042643 0.004770 0.004304
0.042499 0.005214 -0.004322
0.042923 0.003608 -0.004323
0.041821 0.006199 -0.004321
0.043971 0.007367 -0.004321
0.045286 0.004462 0.004303
0.044034 0.008228 -0.004320
0.043119 0.007640 -0.004320
0.043948 0.004191 0.004303
0.044783 0.005964 -0.004322
0.044663 0.004777 0.004304
0.045091 0.007481 0.004306
0.041796 0.004403 0.004197
0.042779 0.004151 0.004303
0.042264 0.007023 -0.004321
0.040636 0.005599 -0.004322
0.041072 0.004896 0.004304
0.043424 0.005852 -0.004322
0.044674 0.007063 -0.004321
0.044206 0.005579 -0.004322
0.042487 0.007845 -0.004320
0.041392 0.003765 -0.003612
0.044886 0.004435 -0.004323
0.043400 0.005152 -0.004322
0.043492 0.003717 0.004303
0.040711 0.007329 -0.004321
0.044531 0.005032 -0.004322
0.041470 0.003955 -0.003014
0.040657 0.004269 -0.004323
0.042798 0.005327 -0.003606
0.044384 0.005810 -0.003399
0.045185 0.005786 -0.002487
0.043524 0.005927 0.004304
0.043448 0.006557 0.004305
0.044947 0.006759 0.004305
0.043680 0.004004 -0.004323
0.044458 0.005465 0.004304
0.044360 0.007514 0.004306
0.042620 0.007520 0.004306
0.045390 0.003989 -0.004323
0.044815 0.003458 0.004303
0.043516 0.005633 -0.003453
0.043057 0.004329 -0.004323
0.042113 0.004790 -0.003257
0.044298 0.006634 0.004305
0.041569 0.007607 -0.004320
0.042250 0.003982 -0.004323
0.041564 0.006977 -0.004321
0.041711 0.005072 0.004304
0.043894 0.004636 -0.004323
0.042699 0.005245 -0.002966
0.041201 0.007358 0.004306
0.041046 0.008002 -0.004320
0.044777 0.007804 -0.004320
0.041897 0.005439 -0.004322
0.042125 0.006945 0.004305
0.043233 0.007205 0.004305
0.043873 0.004820 0.004304
0.041304 0.005834 -0.004322
0.040537 0.005562 0.004304
0.041865 0.003353 0.004303
0.040608 0.006613 0.004305
0.043698 0.006585 -0.004321
0.042325 0.008177 0.004306
0.045375 0.005768 -0.003105
0.045034 0.003486 -0.004323
0.041953 0.008320 -0.004320
0.042713 0.005946 -0.004322
0.041920 0.007564 0.004306
0.041431 0.005025 -0.004322
0.044590 0.004026 0.004303
0.043057 0.006649 -0.004321
0.041108 0.004177 0.004303
0.040821 0.004970 -0.004322
0.041042 0.006106 0.004305
0.044554 0.005840 -0.002141
0.044319 0.006450 -0.004321
0.044662 0.006107 0.004305
0.044330 0.003980 -0.004323
0.041245 0.003393 -0.002802
0.041717 0.004297 -0.003662
0.046217 0.005495 -0.002327
0.045915 0.008178 0.004306
0.049606 0.004479 0.004303
0.046665 0.008174 0.004306
0.045559 0.007681 -0.004320
0.049455 0.003418 0.004302
0.050322 0.004925 0.004304
0.049565 0.004584 -0.004323
0.046782 0.004905 0.004304
0.046777 0.005471 -0.004322
0.047127 0.006704 -0.004321
0.046709 0.005230 -0.003255
0.050284 0.003565 0.004303
0.048037 0.006716 0.004305
0.049380 0.005187 0.004304
0.045941 0.007418 0.004306
0.048145 0.003402 -0.003709
0.050011 0.003918 -0.004323
0.047745 0.004529 -0.004323
0.046327 0.006637 -0.004321
0.046096 0.008035 -0.004320
0.046432 0.007258 -0.004321
0.048444 0.003485 -0.004324
0.045993 0.003594 -0.004323
0.049260 0.003972 -0.004323
0.049558 0.006578 0.004305
0.047382 0.003730 0.004303
0.049287 0.005522 -0.004322
0.047630 0.006308 -0.004322
0.047566 0.005677 -0.004322
0.047995 0.003425 0.004303
0.049579 0.006415 -0.004322
0.046043 0.005935 -0.004322
0.049798 0.007757 -0.004321
0.047838 0.005484 0.004304
0.048356 0.004504 -0.004323
0.048587 0.005600 0.004304
0.047068 0.006657 0.004305
0.049372 0.007243 -0.004321
0.045550 0.005100 -0.004322
0.048197 0.005473 -0.004322
0.046057 0.005554 -0.003814
0.047718 0.004238 -0.003541
0.050359 0.006515 0.004305
0.047877 0.004424 0.004303
0.048471 0.006215 -0.004322
0.046462 0.004928 -0.004322
0.046491 0.003862 0.004303
0.047167 0.004418 0.004303
0.046146 0.006779 0.004305
0.047829 0.004089 -0.002887
0.049650 0.007509 0.004305
0.045561 0.006295 0.004305
0.046238 0.005450 0.004304
0.050186 0.005590 -0.004322
0.050165 0.008174 0.004306
0.048473 0.007215 -0.004321
0.047956 0.008005 0.004306
0.047183 0.004862 -0.001862
0.048888 0.006633 0.004305
0.050235 0.004580 -0.004323
0.048903 0.004809 -0.004323
0.047233 0.004834 -0.003772
0.046263 0.006070 0.004304
0.050127 0.005553 0.004304
0.046722 0.007334 0.004305
0.045553 0.003704 0.004303
0.047392 0.007280 0.004305
0.047314 0.008290 0.004306
0.048768 0.007762 0.004306
0.047835 0.008050 -0.004320
0.047273 0.004794 -0.002534
0.047067 0.005597 0.004304
0.045635 0.006971 -0.004321
0.048790 0.003982 0.004303
0.047852 0.007300 -0.004321
0.048352 0.004978 0.004304
0.045957 0.004304 -0.004323
0.046076 0.004439 0.004303
0.048935 0.004613 0.004303
0.047270 0.007565 -0.004321
0.050177 0.006670 -0.004321
0.045549 0.005334 0.004304
0.046716 0.007930 -0.004320
0.047105 0.004564 -0.004323
0.047425 0.004615 -0.003106
0.046832 0.003731 -0.004323
0.050438 0.004266 0.004303
0.046820 0.005140 -0.002281
0.048142 0.006096 0.004304
0.049244 0.005956 0.004304
0.048788 0.007758 -0.004321
0.046006 0.005573 -0.002951
0.047781 0.003829 -0.004323
0.046812 0.006151 -0.004322
0.048937 0.006659 -0.004321
0.048221 0.007417 0.004305
0.053404 0.004767 -0.004323
0.052090 0.005250 0.004304
0.050838 0.006555 -0.004322
0.052886 0.004497 0.004303
0.053524 0.007098 -0.004321
0.054575 0.008131 0.004306
0.052131 0.007466 -0.004321
0.054177 0.005514 -0.004322
0.052435 0.003433 0.004302
0.052084 0.003536 -0.004324
0.053731 0.006230 -0.004322
0.054504 0.005950 0.004304
0.051555 0.003495 0.004302
0.050865 0.005790 0.004304
0.055195 0.007012 -0.004321
0.055092 0.004951 -0.004323
0.051367 0.006784 0.004305
0.051108 0.004322 0.004303
0.054083 0.004813 -0.004323
0.052317 0.004388 -0.004323
0.053858 0.005485 0.004304
0.054289 0.004128 0.004303
0.050818 0.004215 -0.004323
0.055092 0.006111 -0.004322
0.052166 0.006777 -0.004321
0.053155 0.008075 -0.004321
0.054793 0.003713 0.004302
0.054905 0.004684 0.004303
0.055140 0.003992 -0.004324
0.055457 0.005534 -0.004322
0.052520 0.005129 -0.004323
0.050972 0.004960 0.004304
0.053305 0.008210 0.004306
0.051652 0.004982 -0.004323
0.051854 0.008294 -0.004320
0.053692 0.003843 0.004303
0.050858 0.005445 -0.004322
0.054762 0.007363 0.004305
0.052034 0.005869 0.004304
0.054035 0.007006 0.004305
0.053071 0.006264 -0.004322
0.054038 0.007763 -0.004321
0.053671 0.003869 -0.004324
0.051619 0.004092 -0.004323
0.050826 0.008049 0.004306
0.052987 0.005563 -0.004322
0.051113 0.003677 -0.004324
0.054827 0.007919 -0.004321
0.052372 0.006128 -0.004322
0.052895 0.006983 -0.004321
0.055438 0.005448 0.004304
0.053040 0.007528 0.004305
0.054391 0.006215 -0.004322
0.051627 0.007966 0.004306
0.050604 0.007127 0.004305
0.054603 0.003667 -0.004324
0.054214 0.004768 0.004303
0.051985 0.004579 0.004303
0.053077 0.006768 0.004305
0.055117 0.006776 0.004305
0.052433 0.007263 0.004305
0.051520 0.007581 -0.004321
0.053938 0.007786 0.004305
0.052016 0.005615 -0.004322
0.051043 0.004837 -0.004323
0.052511 0.006334 0.004304
0.051375 0.006970 -0.004321
0.051919 0.006508 0.004305
0.053010 0.005228 0.004304
0.053084 0.005908 0.004304
0.054467 0.004336 -0.004323
0.053098 0.004224 -0.004323
0.053840 0.006405 0.004304
0.051582 0.006122 -0.004322
0.050965 0.008096 -0.004320
0.053546 0.004462 0.004303
0.050692 0.007264 -0.004321
0.054264 0.007034 -0.004321
0.052465 0.008133 0.004306
0.054749 0.005352 0.004304
0.052516 0.008000 -0.004321
0.055438 0.007744 -0.004321
0.053001 0.003868 0.004303
0.059665 0.008180 -0.004321
0.060273 0.004929 0.004303
0.057577 0.008007 0.004305
0.057384 0.003535 0.004302
0.059167 0.004436 -0.004323
0.055943 0.006039 -0.004322
0.058321 0.007513 0.004305
0.059716 0.008025 0.004305
0.058654 0.008272 -0.004321
0.060077 0.005578 0.004304
0.059512 0.003809 -0.004324
0.057624 0.007167 0.004305
0.056822 0.003746 -0.004324
0.057685 0.003483 -0.004324
0.058566 0.006875 0.004305
0.056705 0.004585 -0.004323
0.057870 0.007565 -0.004321
0.057910 0.006385 -0.004322
0.059571 0.005089 -0.004323
0.058436 0.005630 -0.004322
0.058158 0.004281 0.004303
0.056190 0.005245 0.004304
0.058315 0.006989 -0.004322
0.056900 0.005177 -0.004323
0.055532 0.006149 0.004304
0.056710 0.006435 -0.004322
0.057945 0.004655 -0.004323
0.055637 0.004450 0.004303
0.059058 0.007805 -0.004321
0.056490 0.007567 0.004305
0.056076 0.008000 -0.004321
0.056239 0.004161 -0.004323
0.058886 0.004488 0.004303
0.057575 0.007002 -0.004322
0.057323 0.004894 0.004303
0.058324 0.003509 -0.004324
0.058727 0.005546 0.004304
0.057666 0.005717 0.004304
0.059496 0.006933 0.004305
0.057020 0.004082 0.004303
0.055562 0.003769 0.004302
0.056695 0.008105 -0.004321
0.060360 0.005236 -0.004323
0.059751 0.007401 -0.004321
0.060452 0.006097 -0.004322
0.059512 0.005023 0.004303
0.055798 0.006637 -0.004322
0.056038 0.006683 0.004304
0.057600 0.005203 -0.004323
0.058871 0.006278 0.004304
0.056753 0.007236 -0.004321
0.055543 0.007259 0.004305
0.056746 0.006859 0.004305
0.059415 0.005852 0.004304
0.060246 0.004495 -0.004323
0.059010 0.006375 -0.004322
0.057495 0.005822 -0.004322
0.058309 0.004149 -0.004324
0.056204 0.005975 0.004304
0.057614 0.008273 -0.004321
0.059661 0.003974 0.004302
0.058092 0.005031 0.004303
0.060446 0.007987 -0.004321
0.059008 0.007779 0.004305
0.060174 0.007128 0.004305
0.056664 0.003559 0.004302
0.056526 0.004568 0.004303
0.060383 0.003760 0.004302
0.057549 0.004122 -0.004324
0.058080 0.006441 0.004304
0.058931 0.005134 -0.004323
0.055477 0.007939 0.004305
0.056109 0.005290 -0.004323
0.059796 0.005701 -0.004322
0.057250 0.006454 0.004304
0.056879 0.005321 0.004304
0.058444 0.003594 0.004302
0.059688 0.006650 -0.004322
0.056094 0.008304 0.004306
0.058953 0.007184 -0.004321
0.056043 0.007240 -0.004321
0.060380 0.006440 0.004304
0.056875 0.008151 0.004306
0.055784 0.004677 -0.004323
0.056140 0.004024 0.004303
