ply
format ascii 1.0
element vertex 1672
property float x
property float y
property float z
end_header
-0.133980 0.005974 0.000684
-0.131480 0.005455 0.000675
-0.132530 0.005656 0.000681
-0.134430 0.004391 -0.000654
-0.133320 0.006000 0.000415
-0.131920 0.006051 0.000540
-0.133540 0.005348 0.000674
-0.130980 0.006090 0.000096
-0.130310 0.004515 0.000648
-0.131790 0.004093 0.000638
-0.132120 0.006040 -0.000165
-0.130850 0.004461 -0.000652
-0.130490 0.005873 0.000685
-0.133080 0.005313 -0.000676
-0.131850 0.004972 0.000662
-0.131890 0.005573 -0.000682
-0.131310 0.004947 -0.000665
-0.130190 0.004337 -0.000648
-0.133920 0.004464 0.000651
-0.131240 0.006048 -0.000693
-0.133210 0.004600 0.000654
-0.134110 0.005354 -0.000678
-0.134380 0.005912 -0.000693
-0.131290 0.004587 0.000651
-0.129980 0.006129 -0.000523
-0.132580 0.005036 0.000665
-0.130010 0.005268 0.000668
-0.129640 0.005791 0.000682
-0.132450 0.005228 -0.000674
-0.133570 0.004938 -0.000667
-0.133180 0.004152 -0.000647
-0.129660 0.005011 -0.000665
-0.132230 0.004060 -0.000643
-0.130270 0.005466 -0.000677
-0.132530 0.006027 -0.000634
-0.133790 0.004236 -0.000650
-0.131660 0.004374 -0.000651
-0.125280 0.004959 -0.000660
-0.124870 0.004301 0.000638
-0.128470 0.005182 -0.000669
-0.127690 0.004078 -0.000640
-0.128870 0.004297 0.000641
-0.126760 0.006256 -0.000455
-0.127570 0.006219 -0.000582
-0.124770 0.005752 0.000676
-0.129320 0.006154 -0.000534
-0.129020 0.004547 -0.000653
-0.125590 0.005225 0.000663
-0.125920 0.004152 0.000635
-0.126250 0.006270 0.000632
-0.127960 0.004796 -0.000659
-0.127330 0.006181 -0.000001
-0.126890 0.005545 -0.000677
-0.126730 0.004415 0.000643
-0.128200 0.005213 0.000665
-0.129420 0.004883 0.000657
-0.128740 0.006068 0.000689
-0.128300 0.006193 -0.000080
-0.126220 0.004890 0.000655
-0.129390 0.006153 0.000124
-0.127640 0.006218 0.000609
-0.124760 0.006323 -0.000504
-0.126610 0.005446 0.000670
-0.127430 0.005379 0.000669
-0.126570 0.003998 -0.000637
-0.125440 0.004576 0.000646
-0.126940 0.006034 0.000686
-0.124720 0.006323 0.000166
-0.127700 0.004267 0.000640
-0.124770 0.005092 0.000659
-0.125610 0.005506 -0.000674
-0.125010 0.005761 -0.000680
-0.125490 0.006296 0.000577
-0.126900 0.004825 -0.000658
-0.125230 0.004319 -0.000644
-0.126000 0.005003 -0.000662
-0.128240 0.006163 -0.000693
-0.129490 0.004023 -0.000640
-0.127720 0.005538 -0.000677
-0.125970 0.004233 -0.000643
-0.126120 0.005931 -0.000686
-0.125470 0.006297 -0.000644
-0.128960 0.005457 0.000672
-0.126270 0.006180 -0.000001
-0.129270 0.005515 -0.000677
-0.123760 0.005241 0.000662
-0.123970 0.006300 -0.000693
-0.120300 0.006081 -0.000684
-0.120460 0.005659 0.000669
-0.121030 0.004755 -0.000651
-0.120540 0.004468 0.000638
-0.121920 0.006437 0.000006
-0.121760 0.005158 0.000657
-0.120510 0.006489 0.000354
-0.122340 0.004683 0.000646
-0.121040 0.006464 -0.000283
-0.120160 0.005001 0.000652
-0.122460 0.004893 -0.000656
-0.123340 0.004185 -0.000639
-0.120370 0.004620 -0.000647
-0.119800 0.005634 0.000668
-0.121950 0.005856 0.000676
-0.121610 0.006440 -0.000650
-0.124000 0.005449 -0.000672
-0.121140 0.005043 0.000654
-0.121310 0.005941 0.000678
-0.124100 0.006258 -0.000001
-0.122480 0.005832 -0.000680
-0.124240 0.004737 -0.000654
-0.123450 0.006373 0.000656
-0.123290 0.006386 -0.000449
-0.122480 0.006412 -0.000320
-0.121910 0.004236 0.000633
-0.119890 0.006344 0.000687
-0.122800 0.006169 0.000685
-0.123190 0.004115 0.000631
-0.124090 0.006198 0.000687
-0.123370 0.004704 0.000647
-0.122730 0.005219 0.000660
-0.123900 0.004359 0.000639
-0.123210 0.004846 -0.000656
-0.121160 0.004243 0.000633
-0.119950 0.005564 -0.000671
-0.121580 0.005690 -0.000675
-0.122630 0.004021 -0.000634
-0.123250 0.005716 -0.000677
-0.120670 0.005578 -0.000672
-0.121670 0.005039 -0.000659
-0.121200 0.004043 -0.000634
-0.119710 0.004626 -0.000647
-0.118800 0.005983 0.000676
-0.115520 0.004721 -0.000646
-0.116220 0.006635 0.000585
-0.116360 0.004533 0.000636
-0.118940 0.005112 0.000653
-0.115050 0.004345 0.000630
-0.116640 0.005611 0.000665
-0.117710 0.004322 0.000632
-0.117970 0.006580 0.000060
-0.116970 0.006249 -0.000685
-0.115480 0.006511 -0.000002
-0.117050 0.004028 0.000624
-0.115770 0.005988 0.000674
-0.114940 0.006686 0.000242
-0.119510 0.004767 0.000645
-0.117480 0.004994 0.000649
-0.118680 0.004205 -0.000635
-0.117410 0.005825 0.000671
-0.119290 0.006529 0.000477
-0.114730 0.006227 0.000679
-0.118220 0.004718 0.000643
-0.116820 0.006620 -0.000191
-0.118600 0.006555 0.000165
-0.118610 0.004024 0.000625
-0.118450 0.006417 -0.000691
-0.117960 0.005701 -0.000672
-0.116130 0.005316 -0.000661
-0.116110 0.006626 -0.000694
-0.115190 0.005704 -0.000670
-0.117670 0.006593 -0.000613
-0.115650 0.005259 0.000654
-0.114750 0.004967 0.000646
-0.118080 0.005849 0.000672
-0.117000 0.006608 0.000512
-0.115070 0.005524 0.000661
-0.117120 0.004078 -0.000632
-0.118570 0.005146 -0.000659
-0.117550 0.005224 -0.000660
-0.115130 0.004245 -0.000634
-0.119170 0.005030 -0.000657
-0.118150 0.006528 0.000690
-0.116910 0.005300 -0.000662
-0.116480 0.005853 -0.000675
-0.117980 0.004601 -0.000645
-0.118770 0.005864 -0.000677
-0.119380 0.006029 -0.000682
-0.116030 0.004227 -0.000634
-0.116520 0.004653 -0.000645
-0.114590 0.005509 -0.000665
-0.115180 0.006674 -0.000524
-0.115720 0.006140 -0.000681
-0.115340 0.006482 0.000686
-0.119030 0.006542 -0.000414
-0.110300 0.006846 -0.000517
-0.109680 0.006741 -0.000691
-0.112170 0.006289 0.000678
-0.114270 0.006072 -0.000678
-0.110190 0.004397 -0.000634
-0.114400 0.004060 0.000622
-0.112500 0.004716 0.000638
-0.111410 0.005836 -0.000670
-0.113970 0.004794 0.000641
-0.114060 0.006293 0.000680
-0.113590 0.005467 0.000658
-0.113870 0.004595 -0.000642
-0.112710 0.005904 0.000669
-0.110700 0.004601 0.000633
-0.111370 0.006806 0.000595
-0.111150 0.006818 -0.000177
-0.112090 0.006781 -0.000621
-0.109720 0.006110 0.000671
-0.111760 0.006783 -0.000002
-0.110680 0.005602 0.000659
-0.111180 0.005147 0.000648
-0.113210 0.004321 -0.000634
-0.109730 0.005011 -0.000648
-0.111700 0.005483 0.000657
-0.112560 0.006117 -0.000678
-0.112890 0.006563 0.000686
-0.109750 0.005800 -0.000668
-0.110150 0.004286 0.000624
-0.113420 0.004388 0.000630
-0.110630 0.006832 0.000448
-0.111980 0.004071 0.000620
-0.111310 0.004046 0.000619
-0.111410 0.006145 0.000674
-0.110080 0.005277 0.000650
-0.111690 0.004753 0.000638
-0.110460 0.006263 0.000676
-0.112500 0.005407 -0.000661
-0.112790 0.005274 0.000652
-0.111940 0.004312 -0.000633
-0.114260 0.005681 0.000664
-0.114490 0.004800 -0.000647
-0.110880 0.006501 -0.000686
-0.111500 0.006586 -0.000689
-0.110460 0.004984 -0.000649
-0.111860 0.005412 -0.000660
-0.110360 0.006135 -0.000677
-0.113410 0.006199 -0.000681
-0.113120 0.005652 -0.000667
-0.113160 0.004941 -0.000650
-0.111200 0.004438 -0.000636
-0.114210 0.004023 -0.000628
-0.113370 0.006169 0.000676
-0.111190 0.005138 -0.000653
-0.113770 0.005216 -0.000657
-0.113320 0.006740 0.000163
-0.112540 0.004497 -0.000638
-0.114110 0.006694 -0.000694
-0.112880 0.006754 -0.000625
-0.105690 0.005325 -0.000653
-0.106940 0.006964 0.000268
-0.105970 0.006041 0.000666
-0.104940 0.005330 0.000647
-0.106160 0.006630 0.000682
-0.107170 0.005702 -0.000664
-0.106930 0.006814 -0.000691
-0.108920 0.006117 -0.000675
-0.108840 0.006317 0.000676
-0.108860 0.006897 0.000147
-0.108340 0.006912 -0.000554
-0.106810 0.006274 0.000673
-0.107550 0.003999 -0.000622
-0.105270 0.004537 0.000627
-0.104630 0.004243 0.000618
-0.106510 0.004497 0.000627
-0.105510 0.007006 0.000575
-0.109470 0.005072 0.000644
-0.108620 0.004829 0.000637
-0.107520 0.006938 0.000616
-0.106480 0.005828 -0.000666
-0.107480 0.005019 0.000641
-0.105830 0.006993 0.000036
-0.106640 0.005376 0.000650
-0.104900 0.004891 -0.000642
-0.107550 0.006939 -0.000622
-0.105260 0.006098 -0.000672
-0.108010 0.006105 -0.000674
-0.108970 0.004587 -0.000637
-0.107520 0.006018 0.000667
-0.105980 0.006992 -0.000636
-0.107120 0.004132 0.000618
-0.105360 0.006177 0.000669
-0.107770 0.004016 0.000615
-0.108430 0.005821 0.000663
-0.105810 0.005103 0.000642
-0.109060 0.006886 -0.000488
-0.109400 0.006872 0.000677
-0.108380 0.005552 -0.000661
-0.105440 0.004107 -0.000623
-0.108120 0.005253 0.000648
-0.105130 0.007020 -0.000611
-0.108260 0.006882 0.000690
-0.107710 0.004908 -0.000644
-0.108900 0.005397 0.000652
-0.108190 0.004394 -0.000632
-0.107050 0.004523 -0.000634
-0.106270 0.004820 -0.000641
-0.109030 0.005476 -0.000659
-0.109520 0.004252 -0.000629
-0.104560 0.005724 -0.000662
-0.104800 0.006822 0.000686
-0.106160 0.006391 -0.000680
-0.106850 0.005175 -0.000650
-0.102460 0.005631 0.000653
-0.099976 0.006482 0.000672
-0.102940 0.004257 0.000617
-0.101000 0.004964 0.000634
-0.102910 0.005428 -0.000653
-0.103290 0.007055 -0.000002
-0.103700 0.004472 -0.000630
-0.104470 0.006174 0.000668
-0.104390 0.006776 -0.000688
-0.102310 0.007113 -0.000016
-0.101010 0.007154 -0.000183
-0.101200 0.004262 0.000616
-0.101910 0.004676 0.000627
-0.100950 0.005785 -0.000661
-0.100640 0.007167 0.000600
-0.102740 0.007099 0.000542
-0.101120 0.006553 0.000675
-0.103030 0.005017 0.000637
-0.102750 0.006299 0.000670
-0.099938 0.005443 0.000646
-0.102060 0.007115 0.000663
-0.101750 0.004398 -0.000627
-0.103040 0.006307 -0.000675
-0.102450 0.004192 -0.000623
-0.103950 0.004079 0.000613
-0.103960 0.006669 0.000681
-0.099553 0.004886 0.000631
-0.101920 0.005336 0.000644
-0.100530 0.006929 -0.000688
-0.104400 0.007045 0.000167
-0.101740 0.006988 -0.000691
-0.103900 0.007060 -0.000351
-0.104200 0.005507 0.000651
-0.103530 0.006062 0.000665
-0.104180 0.004767 0.000631
-0.101840 0.005977 0.000661
-0.103550 0.005392 0.000647
-0.100280 0.006121 -0.000669
-0.103730 0.006481 -0.000680
-0.100020 0.007102 0.000689
-0.100780 0.005766 0.000655
-0.101440 0.006211 -0.000672
-0.102250 0.006034 -0.000668
-0.101400 0.007141 0.000347
-0.100440 0.004718 0.000627
-0.101810 0.005068 -0.000644
-0.099720 0.005755 -0.000659
-0.099909 0.006764 -0.000684
-0.103900 0.005810 -0.000664
-0.103340 0.007004 0.000689
-0.102810 0.007099 -0.000382
-0.101160 0.004083 -0.000619
-0.100340 0.004110 -0.000619
-0.099810 0.004605 -0.000631
-0.102910 0.004798 -0.000638
-0.103730 0.005222 -0.000649
-0.101170 0.006773 -0.000685
-0.100780 0.004926 -0.000639
-0.100350 0.005490 -0.000653
-0.100370 0.007180 -0.000112
-0.104470 0.004195 -0.000624
-0.097445 0.005164 0.000636
-0.095222 0.007203 -0.000002
-0.098750 0.004603 0.000623
-0.098006 0.006420 -0.000674
-0.099433 0.006117 0.000663
-0.094773 0.006167 0.000659
-0.095919 0.006867 0.000679
-0.098306 0.004107 0.000609
-0.097408 0.006735 -0.000681
-0.098986 0.005281 0.000640
-0.099339 0.006808 0.000680
-0.098550 0.006855 -0.000685
-0.098032 0.007099 0.000686
-0.099082 0.007171 -0.000693
-0.096211 0.004645 -0.000629
-0.094979 0.006755 0.000675
-0.094757 0.004217 -0.000617
-0.096382 0.005933 0.000655
-0.098066 0.004139 -0.000618
-0.098811 0.005872 0.000656
-0.099274 0.005029 -0.000641
-0.096283 0.004944 0.000629
-0.098294 0.005037 0.000634
-0.095315 0.005212 0.000635
-0.094650 0.006929 -0.000684
-0.098668 0.006694 0.000677
-0.099111 0.007030 -0.000002
-0.096551 0.005862 -0.000659
-0.098039 0.005670 -0.000656
-0.095091 0.005875 -0.000658
-0.096276 0.004114 0.000607
-0.096473 0.007302 0.000137
-0.097487 0.004213 0.000612
-0.095519 0.004500 0.000617
-0.097372 0.007145 -0.000002
-0.095572 0.005990 0.000656
-0.095293 0.007332 0.000690
-0.097200 0.006906 0.000681
-0.096278 0.006705 -0.000679
-0.095749 0.005589 -0.000651
-0.098352 0.007207 -0.000002
-0.095743 0.007319 -0.000509
-0.099066 0.004121 -0.000618
-0.098678 0.005544 -0.000653
-0.097003 0.004928 -0.000636
-0.097383 0.006124 0.000660
-0.096807 0.004190 -0.000618
-0.096726 0.006440 0.000668
-0.095402 0.004752 -0.000631
-0.097229 0.005577 -0.000652
-0.097520 0.004504 -0.000627
-0.098135 0.006308 0.000667
-0.096787 0.005449 0.000643
-0.096752 0.007211 -0.000692
-0.095455 0.006372 -0.000670
-0.096869 0.004409 0.000616
-0.094653 0.004908 -0.000634
-0.097733 0.007262 -0.000530
-0.098532 0.004746 -0.000633
-0.098140 0.005688 0.000650
-0.099144 0.006150 -0.000668
-0.094850 0.004606 0.000619
-0.091570 0.005735 -0.000652
-0.093886 0.005245 -0.000642
-0.094276 0.004071 0.000605
-0.091419 0.006795 0.000673
-0.093048 0.006651 0.000671
-0.090202 0.007205 0.000683
-0.093811 0.007045 0.000682
-0.091717 0.006623 -0.000674
-0.092269 0.004509 -0.000623
-0.091350 0.005766 0.000647
-0.091054 0.007459 -0.000416
-0.092446 0.005336 0.000636
-0.093379 0.004458 0.000614
-0.093849 0.005684 0.000646
-0.090592 0.004792 0.000621
-0.091899 0.004441 0.000613
-0.091972 0.006030 0.000654
-0.090828 0.006741 -0.000677
-0.090666 0.006441 0.000664
-0.090623 0.004923 -0.000632
-0.090071 0.005926 0.000650
-0.090185 0.006346 -0.000666
-0.091575 0.005184 0.000632
-0.092970 0.005712 0.000646
-0.090105 0.005236 0.000632
-0.091197 0.004247 0.000607
-0.092404 0.007427 0.000397
-0.093178 0.006651 -0.000676
-0.092357 0.006567 0.000668
-0.092863 0.007303 -0.000002
-0.090894 0.007469 0.000609
-0.089688 0.004331 -0.000617
-0.094287 0.006611 0.000671
-0.093144 0.007401 0.000585
-0.090093 0.007327 -0.000002
-0.094453 0.007329 0.000690
-0.094303 0.004980 0.000628
-0.089947 0.006568 0.000666
-0.093544 0.005087 0.000631
-0.094054 0.006174 -0.000665
-0.092711 0.004654 0.000619
-0.090230 0.005726 -0.000651
-0.090757 0.005391 0.000636
-0.089919 0.004448 0.000611
-0.091734 0.007442 0.000466
-0.092391 0.007108 -0.000687
-0.091966 0.005241 -0.000640
-0.089551 0.005902 -0.000655
-0.091487 0.004205 -0.000615
-0.090878 0.004290 -0.000616
-0.093633 0.007347 -0.000693
-0.094508 0.005559 0.000644
-0.094034 0.007373 0.000123
-0.093637 0.004177 -0.000615
-0.093352 0.004759 -0.000630
-0.089900 0.006899 -0.000680
-0.093024 0.007362 -0.000693
-0.089834 0.005049 -0.000634
-0.090839 0.005701 -0.000651
-0.092254 0.006269 -0.000666
-0.091303 0.004967 -0.000633
-0.092094 0.007430 -0.000194
-0.092759 0.005615 -0.000650
-0.093312 0.005990 -0.000660
-0.093939 0.006775 -0.000680
-0.091654 0.007424 -0.000694
-0.090393 0.007295 -0.000690
-0.092723 0.004945 -0.000634
-0.088035 0.007554 -0.000217
-0.085387 0.005466 0.000635
-0.084975 0.004020 0.000597
-0.086330 0.005738 0.000642
-0.088342 0.004851 0.000621
-0.089019 0.004525 0.000613
-0.086305 0.007608 0.000518
-0.087378 0.005499 0.000637
-0.087045 0.007512 0.000689
-0.087906 0.006475 0.000663
-0.087680 0.004588 -0.000622
-0.084904 0.006260 0.000655
-0.086733 0.004955 0.000622
-0.086107 0.006570 0.000664
-0.084666 0.006513 -0.000667
-0.086238 0.004419 0.000608
-0.089341 0.005913 0.000649
-0.088663 0.006078 0.000653
-0.089525 0.007512 -0.000688
-0.089484 0.007411 0.000688
-0.084693 0.007332 0.000682
-0.088425 0.007530 0.000690
-0.086262 0.004820 -0.000627
-0.087408 0.006680 -0.000673
-0.086855 0.007584 -0.000094
-0.087149 0.006901 0.000673
-0.086743 0.006146 -0.000659
-0.088259 0.005602 0.000640
-0.087198 0.005542 -0.000645
-0.088418 0.004391 -0.000617
-0.087464 0.007390 -0.000690
-0.085777 0.006664 -0.000671
-0.084772 0.007192 -0.000684
-0.085220 0.006988 0.000674
-0.089068 0.006685 0.000669
-0.089514 0.005021 0.000626
-0.085584 0.006214 0.000654
-0.084971 0.004790 0.000617
-0.085476 0.007626 -0.000519
-0.086847 0.004244 0.000604
-0.085537 0.005436 -0.000641
-0.085844 0.005032 0.000624
-0.086864 0.006314 0.000658
-0.087792 0.007256 0.000683
-0.085971 0.005922 -0.000653
-0.085226 0.007638 0.000096
-0.088995 0.005206 -0.000638
-0.087750 0.005827 -0.000652
-0.088477 0.004200 0.000604
-0.088077 0.006624 -0.000672
-0.084736 0.005373 -0.000639
-0.089032 0.007136 -0.000685
-0.086741 0.007116 -0.000683
-0.089058 0.004386 -0.000617
-0.087507 0.004258 0.000605
-0.086566 0.005367 -0.000640
-0.089484 0.007402 -0.000002
-0.085465 0.007585 0.000689
-0.087562 0.004868 0.000621
-0.087875 0.005226 -0.000637
-0.085887 0.004313 -0.000614
-0.084951 0.005961 -0.000653
-0.085070 0.004570 -0.000619
-0.088540 0.005800 -0.000652
-0.085518 0.004355 0.000606
-0.086676 0.004176 -0.000611
-0.088423 0.007271 -0.000688
-0.086126 0.007611 -0.000440
-0.088776 0.006498 -0.000669
-0.086992 0.004843 -0.000627
-0.089386 0.006493 -0.000670
-0.080733 0.006117 -0.000654
-0.081228 0.006722 -0.000670
-0.081673 0.005038 0.000621
-0.080385 0.006399 0.000655
-0.079587 0.005436 -0.000637
-0.079747 0.007785 -0.000470
-0.080799 0.004555 0.000607
-0.084210 0.005826 0.000643
-0.082098 0.004404 0.000605
-0.080095 0.004081 0.000595
-0.080587 0.007767 -0.000046
-0.084026 0.007668 0.000665
-0.082368 0.006723 -0.000671
-0.079637 0.007795 0.000338
-0.084294 0.005036 0.000623
-0.080682 0.007247 -0.000682
-0.083254 0.007424 0.000684
-0.083358 0.005534 -0.000642
-0.079963 0.007322 0.000678
-0.081453 0.006170 0.000650
-0.082771 0.004738 0.000614
-0.079898 0.006774 -0.000670
-0.082633 0.006160 0.000651
-0.080583 0.007397 0.000681
-0.079865 0.005243 0.000625
-0.083256 0.005354 0.000630
-0.083566 0.007682 -0.000551
-0.081336 0.007741 0.000155
-0.082025 0.006405 0.000656
-0.080959 0.005664 0.000636
-0.082487 0.005481 0.000633
-0.081376 0.007741 -0.000645
-0.083451 0.004703 0.000613
-0.080530 0.004638 -0.000618
-0.082207 0.005494 -0.000640
-0.082836 0.007699 -0.000606
-0.081821 0.007077 -0.000679
-0.081565 0.004089 0.000596
-0.083218 0.006695 0.000665
-0.082123 0.006125 -0.000656
-0.083998 0.006798 0.000668
-0.081919 0.004466 -0.000615
-0.079743 0.006134 0.000648
-0.083541 0.004783 -0.000624
-0.081009 0.006833 0.000667
-0.084476 0.004125 -0.000608
-0.083531 0.005952 0.000646
-0.081996 0.007725 0.000192
-0.084287 0.004246 0.000602
-0.084516 0.007654 -0.000251
-0.081230 0.004582 -0.000617
-0.082731 0.005870 -0.000650
-0.082216 0.007674 -0.000694
-0.084015 0.005209 -0.000635
-0.081730 0.006977 0.000671
-0.083893 0.006120 -0.000657
-0.080297 0.005430 -0.000637
-0.083446 0.007683 0.000132
-0.083776 0.004091 -0.000607
-0.081290 0.005822 -0.000648
-0.084131 0.007078 -0.000681
-0.081940 0.005765 0.000640
-0.082924 0.005068 -0.000630
-0.083081 0.007147 -0.000681
-0.082656 0.007710 0.000433
-0.082520 0.007000 0.000672
-0.079942 0.004903 -0.000624
-0.080073 0.006172 -0.000656
-0.080906 0.005295 -0.000635
-0.080249 0.005730 0.000638
-0.083006 0.006497 -0.000665
-0.082569 0.004561 -0.000618
-0.076166 0.006565 -0.000663
-0.078757 0.007813 0.000392
-0.075610 0.004669 0.000607
-0.077831 0.004820 0.000612
-0.076844 0.007430 -0.000684
-0.078562 0.006084 0.000646
-0.076244 0.005124 0.000619
-0.075552 0.006050 0.000642
-0.078399 0.004485 0.000604
-0.075863 0.007387 0.000677
-0.074995 0.007625 -0.000688
-0.077339 0.005755 -0.000643
-0.077477 0.007854 -0.000649
-0.075177 0.005453 0.000627
-0.074867 0.006705 0.000659
-0.075990 0.005867 -0.000646
-0.077229 0.005715 0.000635
-0.079251 0.007058 0.000671
-0.074624 0.005087 0.000617
-0.077139 0.004507 -0.000613
-0.074630 0.005877 0.000637
-0.078817 0.007813 -0.000577
-0.075558 0.007900 0.000345
-0.076152 0.007296 -0.000680
-0.078398 0.006806 0.000664
-0.079125 0.006449 0.000655
-0.076757 0.007850 -0.000002
-0.077980 0.005800 -0.000645
-0.074839 0.004486 0.000601
-0.075558 0.007900 -0.000536
-0.077580 0.006972 0.000668
-0.077835 0.007600 0.000684
-0.075707 0.006698 0.000659
-0.076226 0.004204 0.000595
-0.074888 0.007915 0.000514
-0.077327 0.007855 0.000435
-0.078991 0.004760 0.000612
-0.078157 0.007838 0.000004
-0.077862 0.004871 -0.000622
-0.079339 0.004508 -0.000614
-0.076327 0.007843 0.000689
-0.075103 0.007333 0.000675
-0.076392 0.006113 0.000645
-0.077063 0.007357 0.000677
-0.076924 0.005158 0.000620
-0.079231 0.007149 -0.000679
-0.079202 0.006040 -0.000652
-0.074963 0.006216 -0.000653
-0.077064 0.006298 -0.000657
-0.074578 0.007929 -0.000248
-0.079528 0.004456 0.000604
-0.075087 0.005454 -0.000635
-0.074861 0.004716 -0.000616
-0.076858 0.004448 0.000602
-0.076338 0.006773 0.000662
-0.077886 0.004191 -0.000605
-0.076107 0.004256 -0.000606
-0.077095 0.006376 0.000652
-0.078205 0.007638 -0.000690
-0.078683 0.004974 -0.000625
-0.076117 0.007825 -0.000002
-0.078246 0.005307 0.000625
-0.079237 0.005448 0.000630
-0.078706 0.006544 -0.000664
-0.077274 0.005126 -0.000628
-0.077952 0.006049 0.000644
-0.074839 0.006917 -0.000670
-0.076223 0.005005 -0.000624
-0.075541 0.007121 -0.000676
-0.076737 0.005440 -0.000635
-0.077765 0.006432 -0.000660
-0.077501 0.007104 -0.000677
-0.078100 0.006949 -0.000673
-0.075482 0.004871 -0.000621
-0.071330 0.005905 0.000636
-0.071619 0.004613 0.000602
-0.072485 0.004136 0.000591
-0.070483 0.007433 0.000675
-0.070489 0.005753 0.000631
-0.073353 0.004969 -0.000622
-0.070958 0.007929 -0.000002
-0.072997 0.004252 -0.000604
-0.069894 0.006378 0.000647
-0.072774 0.006353 0.000648
-0.072637 0.007844 0.000687
-0.074425 0.004029 0.000589
-0.069825 0.005218 0.000617
-0.073500 0.005797 0.000635
-0.070119 0.008046 0.000584
-0.073317 0.007799 0.000686
-0.073502 0.004897 0.000611
-0.073281 0.005990 -0.000647
-0.074118 0.007942 0.000541
-0.071477 0.007854 0.000686
-0.073167 0.007840 -0.000002
-0.070675 0.006491 0.000650
-0.070971 0.004819 0.000607
-0.072041 0.006009 0.000639
-0.071277 0.006726 0.000657
-0.073165 0.004050 0.000589
-0.072528 0.005625 0.000629
-0.074003 0.006243 0.000646
-0.070077 0.007907 -0.000692
-0.074067 0.005512 0.000627
-0.074058 0.007943 -0.000590
-0.072308 0.006788 -0.000666
-0.073030 0.006971 0.000664
-0.072584 0.007496 -0.000683
-0.070147 0.004285 0.000593
-0.070833 0.007401 -0.000680
-0.072004 0.005160 0.000617
-0.073448 0.006778 -0.000666
-0.073890 0.006964 0.000665
-0.072612 0.004854 0.000609
-0.072564 0.005176 -0.000626
-0.071585 0.007644 -0.000686
-0.072040 0.006979 0.000664
-0.070337 0.005535 -0.000634
-0.070778 0.008031 -0.000602
-0.073544 0.007448 -0.000683
-0.071638 0.008003 0.000017
-0.071396 0.005346 -0.000630
-0.069594 0.004011 -0.000596
-0.070962 0.006030 -0.000646
-0.072188 0.007989 -0.000379
-0.070781 0.004781 -0.000615
-0.069594 0.007540 0.000677
-0.073747 0.004295 0.000596
-0.069589 0.008061 0.000133
-0.069898 0.006768 -0.000664
-0.071998 0.005571 -0.000636
-0.070245 0.004065 -0.000598
-0.070808 0.008020 0.000640
-0.074187 0.005532 -0.000636
-0.073944 0.006294 -0.000655
-0.069577 0.005521 -0.000633
-0.074200 0.007062 -0.000673
-0.070061 0.004757 -0.000615
-0.071632 0.006124 -0.000649
-0.070020 0.007007 0.000663
-0.074337 0.004251 -0.000605
-0.069882 0.006149 -0.000649
-0.070506 0.006613 -0.000660
-0.071317 0.006646 -0.000662
-0.072196 0.004249 -0.000603
-0.070776 0.004200 0.000591
-0.071972 0.004881 -0.000619
-0.072560 0.005886 -0.000644
-0.072885 0.006453 -0.000658
-0.067766 0.005396 0.000620
-0.066585 0.005256 0.000616
-0.067763 0.007347 -0.000677
-0.068679 0.008078 0.000205
-0.068539 0.005769 0.000630
-0.068829 0.008078 -0.000432
-0.065869 0.005702 0.000627
-0.065419 0.004546 0.000597
-0.066765 0.004104 0.000586
-0.067271 0.005970 0.000635
-0.066236 0.007709 0.000679
-0.069219 0.005783 0.000631
-0.069289 0.006964 -0.000668
-0.066077 0.004360 0.000592
-0.065020 0.007049 0.000661
-0.068073 0.007433 0.000673
-0.066919 0.005694 -0.000636
-0.067428 0.004438 0.000595
-0.067240 0.007040 0.000662
-0.068109 0.008093 0.000688
-0.069399 0.006922 0.000661
-0.066611 0.007176 0.000666
-0.066196 0.006639 0.000651
-0.066199 0.008140 -0.000348
-0.065575 0.004075 -0.000595
-0.065245 0.005238 -0.000623
-0.068909 0.004527 -0.000608
-0.068453 0.005060 0.000612
-0.066416 0.006538 -0.000656
-0.068133 0.006233 -0.000650
-0.064925 0.006471 -0.000653
-0.069222 0.004923 0.000609
-0.065024 0.006329 0.000642
-0.067606 0.004198 -0.000599
-0.068647 0.006719 -0.000662
-0.065099 0.008168 0.000393
-0.065575 0.007644 0.000677
-0.064690 0.008183 -0.000525
-0.066998 0.008022 0.000688
-0.068456 0.004250 0.000591
-0.064817 0.004371 0.000591
-0.067499 0.008108 0.000190
-0.068119 0.008093 -0.000198
-0.068965 0.007606 0.000678
-0.067699 0.008107 -0.000674
-0.065737 0.006694 -0.000659
-0.066612 0.006125 0.000638
-0.067295 0.006441 -0.000654
-0.068190 0.004693 -0.000612
-0.064625 0.005252 0.000614
-0.067273 0.004991 -0.000618
-0.065494 0.005195 0.000613
-0.066919 0.008074 -0.000694
-0.068826 0.006627 0.000653
-0.069202 0.006034 -0.000645
-0.065866 0.007733 -0.000685
-0.065850 0.005893 -0.000640
-0.068422 0.007291 -0.000676
-0.064570 0.005893 0.000631
-0.066201 0.007220 -0.000672
-0.067200 0.007071 -0.000670
-0.068316 0.005442 -0.000630
-0.064688 0.005643 -0.000633
-0.067756 0.006546 0.000650
-0.065098 0.004509 -0.000605
-0.064652 0.004973 -0.000616
-0.065586 0.006584 0.000649
-0.067520 0.005839 -0.000639
-0.065247 0.007918 -0.000689
-0.064744 0.007562 -0.000680
-0.068986 0.005336 -0.000628
-0.065190 0.007099 -0.000669
-0.066689 0.004556 -0.000608
-0.065870 0.004743 -0.000612
-0.069432 0.004892 -0.000617
-0.069337 0.007813 -0.000689
-0.066186 0.005370 -0.000627
-0.062535 0.005300 0.000614
-0.059871 0.004863 0.000601
-0.063713 0.006260 0.000640
-0.060445 0.006479 -0.000651
-0.060880 0.008265 -0.000157
-0.063134 0.006376 -0.000650
-0.064406 0.004225 -0.000598
-0.060340 0.008280 -0.000695
-0.064230 0.004726 0.000600
-0.063161 0.004766 -0.000611
-0.064407 0.007884 0.000682
-0.063027 0.004386 0.000591
-0.059732 0.007255 -0.000670
-0.060377 0.004398 0.000589
-0.062108 0.006774 0.000652
-0.062319 0.005723 -0.000634
-0.062550 0.008230 0.000403
-0.064346 0.006565 0.000648
-0.060954 0.006334 0.000640
-0.061733 0.005097 0.000608
-0.059829 0.008153 0.000686
-0.060292 0.006189 0.000636
-0.061848 0.004477 -0.000603
-0.063860 0.008199 0.000590
-0.063963 0.007458 0.000671
-0.063139 0.006915 0.000656
-0.061054 0.006384 -0.000649
-0.060815 0.005355 0.000614
-0.059901 0.007162 0.000661
-0.063853 0.007370 -0.000675
-0.062963 0.006226 0.000638
-0.063734 0.005150 0.000611
-0.062209 0.004633 0.000597
-0.061252 0.007341 0.000666
-0.061903 0.007445 0.000669
-0.063658 0.008041 -0.000003
-0.061395 0.005341 -0.000623
-0.061430 0.008250 0.000126
-0.062853 0.007467 0.000671
-0.060605 0.007717 0.000676
-0.063978 0.008059 -0.000692
-0.060210 0.008280 0.000074
-0.061526 0.006549 0.000646
-0.062345 0.006453 -0.000652
-0.061095 0.004183 -0.000595
-0.062700 0.008210 -0.000695
-0.061239 0.004611 0.000595
-0.063199 0.008114 0.000688
-0.061759 0.005837 0.000628
-0.059795 0.005304 -0.000622
-0.062080 0.008235 -0.000537
-0.061833 0.007467 -0.000676
-0.062780 0.007009 -0.000665
-0.063922 0.004899 -0.000614
-0.060640 0.007107 -0.000667
-0.063268 0.005664 0.000624
-0.064021 0.006038 -0.000642
-0.063196 0.007765 -0.000684
-0.063924 0.003998 0.000581
-0.061290 0.007112 -0.000667
-0.062516 0.004201 -0.000596
-0.060508 0.006887 0.000654
-0.062441 0.004822 -0.000611
-0.064479 0.006954 -0.000665
-0.063047 0.005527 -0.000629
-0.060325 0.004140 -0.000594
-0.061636 0.006589 -0.000655
-0.059790 0.004674 -0.000606
-0.060078 0.005611 0.000621
-0.060285 0.007620 -0.000679
-0.061680 0.005918 -0.000638
-0.060946 0.007784 -0.000684
-0.060900 0.008264 0.000562
-0.060461 0.004829 -0.000611
-0.061860 0.008246 0.000652
-0.064340 0.008185 0.000064
-0.060299 0.005750 -0.000633
-0.061370 0.008261 -0.000656
-0.059635 0.006526 -0.000652
-0.063827 0.006650 -0.000657
-0.059100 0.008310 0.000348
-0.056661 0.008370 0.000562
-0.059206 0.005468 0.000616
-0.056393 0.007412 0.000665
-0.058291 0.008327 -0.000316
-0.056476 0.005472 -0.000624
-0.059319 0.008158 -0.000692
-0.057891 0.008340 0.000432
-0.057425 0.007634 -0.000678
-0.058523 0.006204 0.000635
-0.057284 0.007525 0.000669
-0.057976 0.004259 0.000584
-0.055762 0.007339 -0.000670
-0.055958 0.005706 0.000620
-0.055391 0.008382 -0.000695
-0.057281 0.008355 -0.000106
-0.058771 0.004822 0.000599
-0.055549 0.006999 0.000654
-0.057255 0.004186 -0.000593
-0.056577 0.006712 -0.000655
-0.057785 0.005280 0.000610
-0.054821 0.006026 0.000628
-0.055381 0.008391 0.000553
-0.054621 0.008407 0.000685
-0.058031 0.007249 -0.000669
-0.055821 0.004847 0.000598
-0.057810 0.005920 0.000627
-0.058396 0.005425 0.000615
-0.059190 0.007089 0.000658
-0.055188 0.004483 -0.000599
-0.057046 0.006667 0.000646
-0.055644 0.004058 0.000577
-0.056191 0.008374 0.000117
-0.058876 0.006592 -0.000653
-0.056720 0.004750 -0.000607
-0.056297 0.004393 0.000586
-0.055483 0.006310 0.000636
-0.056198 0.007995 -0.000686
-0.058657 0.007883 0.000679
-0.054931 0.008405 -0.000109
-0.056701 0.006000 0.000628
-0.057927 0.005500 -0.000626
-0.056635 0.005320 0.000611
-0.056285 0.006503 0.000641
-0.059314 0.006347 0.000639
-0.057231 0.006046 -0.000639
-0.057859 0.008101 -0.000690
-0.054995 0.005334 0.000610
-0.054986 0.004284 0.000583
-0.059186 0.004308 0.000586
-0.055861 0.005998 -0.000637
-0.055154 0.007603 0.000669
-0.057903 0.007389 0.000665
-0.057715 0.006541 0.000643
-0.058330 0.005957 -0.000637
-0.059375 0.007717 0.000675
-0.057138 0.004556 0.000591
-0.057323 0.005065 -0.000615
-0.054571 0.004828 0.000597
-0.058604 0.004053 0.000579
-0.054919 0.006965 0.000652
-0.058359 0.006956 0.000654
-0.056572 0.007352 -0.000670
-0.058427 0.004396 -0.000599
-0.059126 0.004230 -0.000595
-0.055245 0.006493 -0.000649
-0.059152 0.004920 -0.000612
-0.055265 0.007723 -0.000679
-0.055766 0.007848 0.000676
-0.057874 0.006380 -0.000647
-0.054810 0.005947 -0.000635
-0.057269 0.008165 0.000685
-0.055790 0.004728 -0.000606
-0.054824 0.005226 -0.000617
-0.055455 0.005321 -0.000620
-0.054889 0.007026 -0.000661
-0.058617 0.007944 -0.000686
-0.058960 0.005951 -0.000637
-0.056721 0.008360 -0.000520
-0.055561 0.008390 -0.000090
-0.057869 0.004660 -0.000605
-0.058751 0.007203 -0.000668
-0.054559 0.008129 -0.000689
-0.057307 0.006725 -0.000655
-0.056194 0.004045 -0.000589
-0.052756 0.006613 0.000642
-0.052441 0.006066 0.000627
-0.049725 0.004139 0.000575
-0.051987 0.004409 0.000584
-0.053293 0.006289 0.000634
-0.049852 0.004968 0.000597
-0.050460 0.008283 -0.000003
-0.053881 0.007234 0.000659
-0.054166 0.005431 0.000612
-0.049581 0.004831 -0.000605
-0.051595 0.007753 0.000671
-0.050861 0.004839 0.000594
-0.050950 0.008278 0.000684
-0.052472 0.007386 -0.000669
-0.052883 0.005132 0.000603
-0.053249 0.007049 0.000653
-0.054525 0.004169 -0.000591
-0.051942 0.004941 -0.000609
-0.052498 0.008085 0.000680
-0.050956 0.005488 0.000611
-0.051280 0.005906 -0.000632
-0.051652 0.008473 0.000377
-0.051993 0.005100 0.000602
-0.053205 0.006480 -0.000647
-0.053915 0.006473 0.000639
-0.052767 0.004393 0.000584
-0.050114 0.006365 0.000634
-0.052929 0.008182 -0.000003
-0.053848 0.004484 0.000587
-0.053261 0.008440 -0.000540
-0.051539 0.006954 -0.000658
-0.049967 0.005647 0.000615
-0.053571 0.008437 0.000194
-0.050190 0.007065 0.000652
-0.053939 0.008113 0.000682
-0.049536 0.007861 -0.000679
-0.050336 0.004314 0.000581
-0.051662 0.006122 0.000628
-0.049875 0.007728 0.000669
-0.051038 0.006848 0.000647
-0.053751 0.004835 -0.000607
-0.052203 0.007508 0.000665
-0.053157 0.007910 0.000676
-0.053460 0.007118 -0.000663
-0.049923 0.006278 -0.000640
-0.054434 0.007579 0.000668
-0.051799 0.006971 0.000651
-0.049922 0.008507 0.000667
-0.050842 0.006179 0.000629
-0.054041 0.008423 -0.000333
-0.050385 0.007704 -0.000675
-0.051004 0.005279 -0.000616
-0.051582 0.008474 -0.000679
-0.054166 0.005472 -0.000623
-0.054264 0.004010 0.000575
-0.051015 0.004139 -0.000588
-0.051955 0.007731 -0.000677
-0.053457 0.005587 0.000616
-0.052714 0.005244 -0.000616
-0.050393 0.005104 -0.000611
-0.054446 0.006590 -0.000650
-0.054332 0.007311 -0.000668
-0.050554 0.007602 0.000666
-0.050322 0.008505 -0.000653
-0.052038 0.005640 -0.000626
-0.051025 0.006519 -0.000647
-0.053927 0.007934 -0.000683
-0.051925 0.004111 -0.000588
-0.053426 0.005398 -0.000620
-0.052403 0.006307 -0.000642
-0.052916 0.007853 -0.000680
-0.049635 0.004220 -0.000589
-0.049617 0.005641 -0.000624
-0.050962 0.008489 -0.000639
-0.052989 0.004622 -0.000601
-0.053992 0.006123 -0.000639
-0.050500 0.005893 -0.000631
-0.049851 0.007219 -0.000663
-0.050750 0.007111 -0.000661
-0.052959 0.005822 -0.000631
-0.052501 0.008366 -0.000693
-0.051224 0.007557 -0.000672
-0.051744 0.006382 -0.000644
-0.048582 0.004979 -0.000607
-0.048048 0.005753 0.000616
-0.045382 0.006177 -0.000635
-0.046124 0.004059 0.000571
-0.046570 0.005976 0.000621
-0.046120 0.007179 0.000652
-0.045111 0.007298 0.000655
-0.047256 0.005510 0.000609
-0.048505 0.006590 -0.000647
-0.044721 0.004922 -0.000604
-0.046813 0.004003 0.000570
-0.045379 0.004666 0.000586
-0.048662 0.004978 0.000597
-0.044555 0.007773 0.000668
-0.045624 0.006483 0.000634
-0.045484 0.004045 0.000570
-0.048733 0.006337 0.000632
-0.046353 0.006318 -0.000639
-0.045952 0.005041 0.000597
-0.046522 0.008587 -0.000281
-0.045412 0.008586 -0.000003
-0.048221 0.007211 0.000654
-0.047802 0.008555 0.000167
-0.047385 0.006499 0.000635
-0.049459 0.007041 0.000651
-0.049400 0.005941 0.000622
-0.046932 0.007382 0.000658
-0.048686 0.007848 0.000671
-0.047507 0.004448 0.000582
-0.048128 0.008132 0.000678
-0.049178 0.004583 0.000587
-0.046002 0.008590 0.000596
-0.048748 0.005677 0.000615
-0.047352 0.008509 0.000687
-0.049019 0.005836 -0.000629
-0.048295 0.004212 -0.000588
-0.047910 0.008305 -0.000689
-0.047232 0.008491 -0.000693
-0.045462 0.005026 -0.000607
-0.046771 0.004884 0.000593
-0.048522 0.008540 -0.000463
-0.046405 0.007708 -0.000673
-0.045081 0.006068 0.000622
-0.048401 0.007271 -0.000664
-0.047843 0.005125 0.000600
-0.045252 0.008607 0.000686
-0.045264 0.004097 -0.000584
-0.047581 0.007227 0.000654
-0.049092 0.008525 -0.000126
-0.046507 0.007996 0.000674
-0.045607 0.005624 0.000611
-0.045736 0.007903 0.000672
-0.044958 0.005680 -0.000623
-0.047081 0.006062 -0.000633
-0.046512 0.004977 -0.000606
-0.049191 0.008383 0.000685
-0.047386 0.007800 -0.000676
-0.044653 0.008622 0.000535
-0.048428 0.005671 -0.000624
-0.045054 0.005238 0.000601
-0.045241 0.008458 -0.000692
-0.044905 0.004250 0.000575
-0.048447 0.007891 -0.000679
-0.045992 0.008501 -0.000693
-0.048074 0.006423 0.000634
-0.047432 0.005039 -0.000608
-0.045757 0.005603 -0.000621
-0.049512 0.008522 -0.000590
-0.047005 0.004173 -0.000587
-0.045228 0.006918 -0.000654
-0.048582 0.008539 0.000412
-0.047834 0.006366 -0.000641
-0.049212 0.007334 -0.000666
-0.049266 0.006603 -0.000648
-0.047211 0.007211 -0.000661
-0.045847 0.006783 -0.000650
-0.045765 0.007683 -0.000673
-0.046590 0.007096 -0.000658
-0.045938 0.004502 -0.000594
-0.046606 0.006615 0.000638
-0.047112 0.008541 -0.000003
-0.047717 0.004427 -0.000593
-0.045154 0.007569 -0.000670
-0.046727 0.005565 -0.000621
-0.046592 0.008576 0.000390
-0.048596 0.004328 0.000580
-0.048997 0.004436 -0.000594
-0.041727 0.004447 0.000579
-0.043770 0.005939 0.000619
-0.042210 0.004852 0.000590
-0.043689 0.008191 -0.000685
-0.041656 0.004338 -0.000589
-0.042730 0.006028 0.000621
-0.041304 0.006471 -0.000641
-0.041740 0.006007 0.000620
-0.043536 0.004292 -0.000588
-0.043729 0.006981 -0.000655
-0.040542 0.006247 -0.000635
-0.041116 0.004312 0.000575
-0.040771 0.006075 0.000621
-0.041482 0.007409 0.000656
-0.044483 0.006373 0.000631
-0.040105 0.006540 0.000633
-0.041637 0.007978 -0.000679
-0.042211 0.008512 0.000686
-0.042355 0.007741 0.000666
-0.041363 0.005180 0.000598
-0.042383 0.008642 -0.000003
-0.042241 0.004863 -0.000602
-0.043008 0.004566 0.000583
-0.042627 0.005620 -0.000621
-0.040871 0.007274 0.000653
-0.043553 0.005112 -0.000609
-0.040241 0.007229 0.000651
-0.043409 0.005833 -0.000626
-0.043614 0.007651 0.000664
-0.040244 0.004140 -0.000583
-0.044442 0.008545 -0.000694
-0.039913 0.008712 0.000396
-0.041673 0.008678 -0.000193
-0.042354 0.007652 -0.000671
-0.044334 0.005224 0.000600
-0.041649 0.008207 0.000677
-0.040799 0.004665 -0.000596
-0.040398 0.008058 0.000673
-0.040972 0.008543 -0.000003
-0.042850 0.008337 0.000682
-0.042099 0.007043 0.000647
-0.040093 0.008671 -0.000695
-0.043580 0.004791 0.000589
-0.039603 0.005145 -0.000608
-0.040217 0.005620 -0.000620
-0.042953 0.008647 -0.000663
-0.042875 0.004218 -0.000586
-0.042166 0.005513 0.000607
-0.043463 0.008642 0.000261
-0.044218 0.004515 0.000582
-0.040511 0.007258 -0.000660
-0.044347 0.006745 -0.000649
-0.042886 0.006737 0.000640
-0.040119 0.004670 0.000584
-0.043044 0.005285 0.000602
-0.040732 0.005035 0.000594
-0.043104 0.007656 -0.000671
-0.041625 0.006628 0.000636
-0.043892 0.008548 0.000687
-0.040703 0.008695 0.000690
-0.041480 0.007180 -0.000659
-0.043556 0.006711 0.000639
-0.042149 0.007064 -0.000656
-0.041158 0.005692 -0.000622
-0.040287 0.005669 0.000610
-0.039642 0.006205 -0.000634
-0.044311 0.006086 -0.000633
-0.040862 0.008575 -0.000693
-0.042953 0.007536 0.000661
-0.040086 0.007881 -0.000676
-0.039868 0.006873 -0.000650
-0.042849 0.007028 -0.000656
-0.044230 0.007205 0.000653
-0.042134 0.006434 -0.000641
-0.041819 0.005807 -0.000625
-0.043254 0.006495 -0.000643
-0.042220 0.008383 -0.000689
-0.039616 0.004285 -0.000586
-0.039648 0.005744 0.000612
-0.040905 0.007794 -0.000674
-0.043010 0.004827 -0.000601
-0.044385 0.007755 -0.000674
-0.043933 0.008629 -0.000319
-0.041452 0.005050 -0.000606
-0.040079 0.004741 -0.000598
-0.044154 0.005287 -0.000612
-0.044088 0.004587 -0.000595
-0.035957 0.005646 0.000607
-0.036168 0.006885 -0.000649
-0.039522 0.007406 -0.000664
-0.038634 0.004054 -0.000580
-0.036584 0.007690 0.000661
-0.038152 0.005037 0.000593
-0.038127 0.007987 0.000670
-0.035829 0.008297 0.000677
-0.037332 0.005084 0.000593
-0.037258 0.005755 0.000611
-0.036885 0.006538 0.000631
-0.036624 0.005350 0.000600
-0.039070 0.005959 0.000617
-0.037811 0.004951 -0.000602
-0.035129 0.008213 -0.000682
-0.036538 0.004611 0.000581
-0.034657 0.004477 0.000576
-0.034573 0.005197 0.000595
-0.037182 0.005046 -0.000604
-0.035935 0.004206 0.000570
-0.038537 0.005584 0.000607
-0.037238 0.008085 0.000672
-0.039296 0.007877 0.000668
-0.038927 0.004420 0.000577
-0.039283 0.008718 -0.000027
-0.039365 0.006587 0.000634
-0.037751 0.007260 0.000651
-0.036266 0.006703 0.000635
-0.037523 0.008752 0.000473
-0.035278 0.004621 0.000580
-0.038170 0.008368 -0.000687
-0.038951 0.007240 0.000651
-0.038574 0.006453 0.000630
-0.037727 0.005611 -0.000618
-0.034994 0.008794 0.000457
-0.035930 0.004826 0.000586
-0.038468 0.006885 -0.000650
-0.039470 0.004766 0.000586
-0.038143 0.008717 -0.000003
-0.035672 0.007409 -0.000662
-0.035418 0.006900 0.000640
-0.035340 0.006001 0.000617
-0.035562 0.005030 -0.000603
-0.035443 0.007580 0.000658
-0.035158 0.008132 0.000672
-0.035367 0.005631 -0.000618
-0.036159 0.008285 -0.000684
-0.038572 0.008613 0.000686
-0.038156 0.004367 0.000575
-0.036960 0.007147 0.000647
-0.039241 0.008518 0.000684
-0.038743 0.007573 -0.000667
-0.037769 0.007111 -0.000656
-0.037841 0.006140 0.000621
-0.039127 0.006780 -0.000648
-0.036813 0.008688 0.000687
-0.037475 0.006574 -0.000642
-0.037505 0.004172 0.000570
-0.034669 0.005877 0.000613
-0.034831 0.007285 0.000650
-0.038895 0.005391 -0.000613
-0.034666 0.005527 -0.000615
-0.035573 0.004020 -0.000578
-0.037380 0.008295 -0.000685
-0.035998 0.004536 -0.000591
-0.034904 0.008795 -0.000287
-0.036684 0.008770 0.000070
-0.035833 0.006318 -0.000635
-0.035028 0.004594 -0.000592
-0.037049 0.005927 -0.000626
-0.036333 0.007563 -0.000666
-0.036743 0.008740 -0.000695
-0.038241 0.006057 -0.000630
-0.035397 0.006851 -0.000648
-0.039011 0.006121 -0.000632
-0.039287 0.008008 -0.000678
-0.035204 0.005262 0.000597
-0.036268 0.005774 -0.000622
-0.038074 0.007668 -0.000670
-0.035814 0.008787 0.000283
-0.035663 0.008709 -0.000694
-0.036051 0.007285 0.000650
-0.037955 0.004249 -0.000585
-0.037337 0.004405 -0.000588
-0.038973 0.008731 -0.000625
-0.036502 0.005062 -0.000604
-0.034923 0.006355 -0.000636
-0.039174 0.005328 0.000601
-0.038938 0.004591 -0.000594
-0.036846 0.007909 -0.000675
-0.036951 0.007258 -0.000659
-0.037373 0.008754 -0.000252
-0.036785 0.006589 -0.000642
-0.032114 0.008848 0.000548
-0.032195 0.007808 0.000662
-0.032960 0.004881 0.000586
-0.032813 0.008723 -0.000003
-0.033538 0.008156 0.000672
-0.032210 0.004797 0.000584
-0.030722 0.006211 -0.000630
-0.034123 0.004002 -0.000577
-0.033394 0.008828 -0.000616
-0.031021 0.004937 0.000587
-0.029732 0.008669 -0.000691
-0.033721 0.007365 -0.000660
-0.029844 0.008847 0.000688
-0.034515 0.006548 0.000630
-0.030782 0.007440 0.000652
-0.030175 0.006636 -0.000641
-0.031377 0.004434 0.000573
-0.033503 0.004056 0.000565
-0.032088 0.006938 0.000639
-0.034284 0.007610 0.000658
-0.033834 0.006434 0.000627
-0.034069 0.007032 0.000643
-0.031453 0.007604 0.000657
-0.029803 0.005178 0.000592
-0.031178 0.006926 0.000639
-0.032007 0.005699 0.000607
-0.029975 0.004216 0.000567
-0.029669 0.004700 -0.000593
-0.030739 0.005940 0.000613
-0.033574 0.008826 0.000687
-0.029567 0.008040 0.000667
-0.032189 0.008238 -0.000681
-0.030196 0.007904 0.000664
-0.032841 0.008482 0.000680
-0.029829 0.005937 0.000612
-0.031194 0.008866 0.000208
-0.033176 0.007850 -0.000672
-0.030787 0.008069 0.000668
-0.030567 0.004501 0.000575
-0.031359 0.005914 0.000612
-0.030418 0.004613 -0.000591
-0.031943 0.006340 0.000624
-0.030624 0.008811 0.000688
-0.032730 0.005984 -0.000625
-0.033093 0.006400 0.000626
-0.033876 0.005583 0.000605
-0.033542 0.007376 0.000652
-0.032679 0.007113 0.000644
-0.031044 0.005308 -0.000608
-0.032967 0.005721 0.000608
-0.033680 0.004865 0.000586
-0.030126 0.006705 0.000632
-0.032781 0.004913 -0.000599
-0.033523 0.005197 -0.000606
-0.030944 0.008869 -0.000511
-0.034194 0.008811 0.000612
-0.031714 0.008852 -0.000644
-0.031623 0.005182 0.000593
-0.034243 0.008671 -0.000693
-0.029736 0.007909 -0.000672
-0.032158 0.006929 -0.000649
-0.032114 0.005359 -0.000610
-0.031721 0.006142 -0.000629
-0.031660 0.008362 0.000676
-0.034316 0.006660 -0.000643
-0.030111 0.007326 -0.000658
-0.033426 0.006698 -0.000643
-0.034493 0.007569 -0.000666
-0.032955 0.007761 0.000661
-0.031546 0.006724 -0.000643
-0.032810 0.008373 -0.000685
-0.030326 0.005504 -0.000613
-0.032682 0.007454 -0.000662
-0.030504 0.005282 0.000595
-0.030427 0.008033 -0.000675
-0.030354 0.008874 -0.000227
-0.032285 0.004238 -0.000582
-0.034213 0.008761 -0.000003
-0.031256 0.004366 -0.000585
-0.031804 0.007702 -0.000668
-0.031052 0.007418 -0.000660
-0.033717 0.004515 -0.000589
-0.033748 0.005825 -0.000622
-0.031790 0.004802 -0.000596
-0.029983 0.004017 -0.000576
-0.032766 0.006744 -0.000644
-0.032384 0.008847 -0.000584
-0.034329 0.004680 -0.000594
-0.030897 0.006819 -0.000646
-0.031399 0.008265 -0.000681
-0.033967 0.008063 -0.000678
-0.031834 0.008791 -0.000003
-0.029197 -0.013167 0.000112
-0.028810 -0.013954 0.000092
-0.025865 -0.012240 0.001439
-0.027757 -0.013155 -0.000019
-0.027117 -0.011950 0.000143
-0.025386 -0.015695 -0.000150
-0.025260 -0.015223 -0.000816
-0.024604 -0.014748 -0.000921
-0.026126 -0.015661 -0.000335
-0.028476 -0.014471 -0.000020
-0.025352 -0.013726 0.001108
-0.025019 -0.014111 -0.001062
-0.028842 -0.012624 -0.000163
-0.025856 -0.015699 0.000293
-0.025289 -0.011775 0.001541
-0.025066 -0.014423 0.000954
-0.028052 -0.014948 0.000065
-0.024664 -0.013490 0.001160
-0.027710 -0.014055 -0.000127
-0.026880 -0.014048 -0.000020
-0.027683 -0.012485 0.000129
-0.025535 -0.012175 -0.001489
-0.025477 -0.013215 -0.001259
-0.026102 -0.014991 -0.000869
-0.028548 -0.013112 0.000113
-0.026137 -0.014311 -0.001012
-0.027182 -0.014960 0.000031
-0.026118 -0.011920 -0.001545
-0.025136 -0.015693 0.000577
-0.026150 -0.012852 0.001180
-0.025748 -0.014239 0.000995
-0.029126 -0.014457 -0.000118
-0.029308 -0.011878 0.000146
-0.026770 -0.012857 -0.000156
-0.029451 -0.013840 -0.000019
-0.026082 -0.012550 -0.001406
-0.026079 -0.015262 0.000770
-0.028872 -0.015005 0.000055
-0.026135 -0.014542 0.000543
-0.027244 -0.013491 -0.000019
-0.026145 -0.013461 -0.000835
-0.025139 -0.012944 0.001281
-0.028498 -0.011871 -0.000018
-0.025445 -0.014595 -0.000956
-0.024806 -0.015660 -0.000720
-0.028193 -0.013679 -0.000019
-0.025924 -0.013470 0.001167
-0.025071 -0.015033 0.000818
-0.026142 -0.013722 0.000617
-0.025072 -0.012631 -0.001387
-0.024517 -0.015468 0.000721
-0.024457 -0.015567 -0.000150
-0.024482 -0.012568 0.001029
-0.024481 -0.012727 -0.000779
-0.024488 -0.011887 -0.000154
-0.024485 -0.012246 -0.001459
-0.024478 -0.013028 0.000432
-0.024466 -0.014408 0.000325
-0.024476 -0.013267 -0.000476
-0.024469 -0.014137 -0.000750
-0.024472 -0.013738 0.000623
-0.024488 -0.011888 0.001486
-0.024493 -0.013597 -0.001175
-0.024487 -0.011977 -0.000788
-0.024482 -0.012547 0.000034
-0.024471 -0.013827 -0.000214
-0.024462 -0.014877 -0.000186
-0.024474 -0.014638 0.000905
-0.026189 -0.008163 0.001371
-0.028579 -0.010572 -0.000017
-0.027386 -0.009802 0.000199
-0.026198 -0.007114 0.002506
-0.026199 -0.007093 0.001689
-0.027720 -0.006985 0.000273
-0.026178 -0.009581 -0.001312
-0.026049 -0.007069 -0.002615
-0.025331 -0.009123 -0.002160
-0.026186 -0.008590 -0.001815
-0.025683 -0.011246 -0.001694
-0.024871 -0.007989 -0.002409
-0.029359 -0.009459 0.000209
-0.029510 -0.008120 0.000244
-0.026165 -0.011093 0.001491
-0.026202 -0.006731 -0.001679
-0.024531 -0.006756 -0.001939
-0.027841 -0.011556 -0.000018
-0.026038 -0.009529 -0.002072
-0.026185 -0.008653 0.002155
-0.027738 -0.008295 0.000239
-0.026195 -0.007531 -0.001735
-0.027641 -0.009224 0.000214
-0.025148 -0.007211 -0.002581
-0.028017 -0.010797 0.000173
-0.025498 -0.008374 -0.002326
-0.025085 -0.009871 -0.001994
-0.026172 -0.010220 -0.001737
-0.025694 -0.007656 -0.002484
-0.029007 -0.008496 0.000234
-0.029383 -0.010159 0.000191
-0.028787 -0.009634 -0.000016
-0.028992 -0.011445 -0.000192
-0.025140 -0.009214 0.002108
-0.028001 -0.007937 -0.000279
-0.025236 -0.010875 0.001739
-0.027907 -0.009626 -0.000237
-0.028734 -0.008873 -0.000256
-0.025507 -0.007208 0.002552
-0.025141 -0.007954 0.002386
-0.025363 -0.010126 0.001907
-0.024531 -0.006847 -0.000569
-0.024531 -0.006789 0.002535
-0.025107 -0.010821 -0.001785
-0.025867 -0.009590 0.002027
-0.027405 -0.008642 -0.000261
-0.026194 -0.007653 0.002080
-0.026178 -0.009483 0.001339
-0.026109 -0.008229 -0.002359
-0.029362 -0.007828 -0.000282
-0.028376 -0.008560 0.000232
-0.029227 -0.010868 0.000172
-0.027872 -0.010206 -0.000017
-0.025170 -0.011652 -0.001602
-0.027937 -0.007306 -0.000294
-0.025810 -0.008150 0.002345
-0.028254 -0.007619 0.000256
-0.026172 -0.010203 0.001615
-0.028270 -0.009229 0.000214
-0.027202 -0.011360 -0.000194
-0.027481 -0.006862 -0.000305
-0.025535 -0.008738 0.002214
-0.024750 -0.010461 0.001831
-0.028514 -0.011222 0.000162
-0.028064 -0.008797 -0.000257
-0.026169 -0.010601 -0.001243
-0.024522 -0.007837 -0.000982
-0.024497 -0.010756 -0.001610
-0.024518 -0.008338 0.001046
-0.024519 -0.008196 -0.001796
-0.024514 -0.008839 0.002126
-0.024508 -0.009499 0.001991
-0.024530 -0.008129 0.002348
-0.024500 -0.010417 -0.000739
-0.024509 -0.009357 -0.000011
-0.024504 -0.010028 0.000736
-0.024505 -0.009888 0.001507
-0.024503 -0.010106 -0.001641
-0.024499 -0.010598 0.001262
-0.024526 -0.007337 -0.001476
-0.024526 -0.007388 0.001198
-0.024522 -0.007859 0.001714
-0.024503 -0.010078 0.000083
-0.024527 -0.007306 -0.002361
-0.024528 -0.007109 0.001793
-0.024514 -0.008756 -0.001548
-0.024494 -0.011167 -0.000175
-0.024522 -0.007897 -0.000055
-0.024514 -0.008756 -0.002208
-0.024509 -0.009348 0.001069
-0.024510 -0.009327 -0.000796
-0.024509 -0.009406 -0.002076
-0.024524 -0.007608 0.000577
-0.024490 -0.011628 0.000449
-0.024517 -0.008427 -0.000819
-0.024493 -0.011298 0.001265
-0.024492 -0.011417 -0.001123
-0.024498 -0.010688 0.000535
-0.024525 -0.007439 0.002347
-0.024514 -0.008838 0.000338
-0.024513 -0.008888 0.001481
-0.024528 -0.007198 0.000066
-0.024509 -0.009417 -0.001436
-0.028993 -0.006545 -0.000314
-0.026206 -0.006170 -0.002205
-0.028352 -0.004280 -0.000369
-0.024535 -0.006356 -0.002419
-0.026009 -0.003492 0.003377
-0.024747 -0.003712 0.003325
-0.026007 -0.004888 -0.003094
-0.026237 -0.002600 -0.002481
-0.026217 -0.004943 0.002393
-0.025407 -0.002557 0.003582
-0.024918 -0.005949 -0.002858
-0.028407 -0.004970 -0.000352
-0.024542 -0.001965 -0.003604
-0.026048 -0.004732 0.003103
-0.026147 -0.002579 -0.003603
-0.026104 -0.004083 0.003246
-0.026243 -0.001890 -0.002276
-0.025082 -0.004284 0.003201
-0.028327 -0.002590 0.000388
-0.028423 -0.003090 -0.000399
-0.028897 -0.006075 0.000297
-0.028048 -0.003677 -0.000384
-0.026213 -0.005430 -0.001982
-0.026242 -0.001953 0.002170
-0.025065 -0.003950 -0.003299
-0.026220 -0.004570 -0.002193
-0.026235 -0.002843 0.002059
-0.028767 -0.004884 0.000329
-0.026225 -0.003913 0.002136
-0.026237 -0.002531 -0.001610
-0.026206 -0.006253 0.001865
-0.025369 -0.003537 0.003366
-0.026230 -0.003424 0.002731
-0.028953 -0.005455 -0.000341
-0.024603 -0.005426 -0.002972
-0.026002 -0.005452 0.002943
-0.024592 -0.004366 -0.003205
-0.028072 -0.001938 0.000405
-0.029427 -0.003729 -0.000384
