ply
format ascii 1.0
element vertex 1656
property float x
property float y
property float z
end_header
-0.044213 -0.000365 -0.006930
-0.044455 0.001824 0.006698
-0.046781 0.002406 0.006388
-0.047151 0.002616 -0.006291
-0.048261 0.000464 -0.006784
-0.045227 -0.000728 -0.006850
-0.045139 -0.001894 0.006683
-0.043755 0.000716 0.006879
-0.048523 -0.000423 -0.006784
-0.043885 0.001245 -0.006809
-0.047999 -0.001316 0.006682
-0.048384 -0.001159 0.006691
-0.047753 0.000583 0.006781
-0.046717 0.001993 0.006561
-0.048361 -0.001604 0.006632
-0.047507 0.000902 0.006748
-0.047167 0.002227 -0.006452
-0.046732 0.001140 0.006740
-0.044161 -0.001997 0.006676
-0.044928 0.000471 -0.006884
-0.044075 -0.000209 0.006955
-0.045974 -0.000790 0.006817
-0.048534 0.001511 0.006637
-0.044198 0.002108 0.006589
-0.044346 0.000275 0.006925
-0.046431 0.002858 0.006211
-0.046355 0.001605 0.006690
-0.046294 -0.000982 0.006781
-0.045541 -0.001537 0.006732
-0.045136 -0.001468 0.006754
-0.044076 0.002134 -0.006585
-0.044901 -0.000745 0.006858
-0.044689 0.002787 -0.006295
-0.047760 0.001514 0.006659
-0.043858 -0.001523 0.006784
-0.043867 0.000747 -0.006876
-0.047221 -0.002002 -0.006562
-0.046801 0.002033 -0.006544
-0.045784 -0.000040 -0.006922
-0.045043 0.001256 -0.006776
-0.045973 0.000649 0.006826
-0.047357 0.000493 -0.006808
-0.043975 -0.000947 0.006859
-0.044989 0.000650 0.006856
-0.044898 0.002093 -0.006577
-0.044686 0.001760 -0.006720
-0.048158 -0.000528 -0.006782
-0.044368 0.000849 0.006848
-0.043797 -0.000186 -0.006962
-0.047332 -0.001348 -0.006702
-0.048121 0.000997 0.006717
-0.046417 0.001604 -0.006688
-0.046989 -0.000539 0.006817
-0.043992 0.000402 0.006918
-0.045941 0.001337 0.006738
-0.045924 -0.001819 0.006682
-0.043888 -0.001377 -0.006805
-0.044321 0.001668 -0.006743
-0.047768 0.000445 -0.006801
-0.046672 -0.000951 0.006773
-0.044459 -0.000728 -0.006875
-0.046336 0.002378 0.006413
-0.045708 -0.001149 0.006777
-0.045851 0.001705 -0.006692
-0.045985 0.001824 0.006652
-0.046771 0.001596 0.006678
-0.047925 0.002618 0.006265
-0.045200 0.002367 -0.006454
-0.047891 -0.000462 0.006798
-0.045685 0.000922 0.006799
-0.046641 -0.001100 -0.006756
-0.045601 0.001520 0.006724
-0.045253 0.001836 -0.006673
-0.047174 -0.001459 0.006690
-0.045152 -0.001108 -0.006803
-0.048403 0.002021 0.006498
-0.045597 0.000489 0.006859
-0.046448 -0.001852 -0.006652
-0.044646 -0.001850 0.006719
-0.047873 -0.000074 -0.006850
-0.044723 -0.001103 0.006816
-0.046025 0.001329 -0.006737
-0.046145 0.002069 -0.006549
-0.047547 -0.000945 0.006746
-0.045131 0.001792 0.006691
-0.044760 -0.001093 -0.006818
-0.045526 0.000704 -0.006835
-0.044182 0.002799 -0.006305
-0.047081 -0.000527 -0.006817
-0.046324 0.001122 0.006755
-0.047910 0.002688 -0.006238
-0.043934 -0.000572 0.006909
-0.044089 -0.001045 -0.006846
-0.046277 -0.001451 -0.006722
-0.046554 0.002817 -0.006226
-0.044489 -0.000071 0.006961
-0.044603 0.000556 0.006880
-0.047386 0.000987 -0.006741
-0.047765 -0.000546 -0.006792
-0.046081 0.002597 -0.006332
-0.047081 0.000985 0.006750
-0.046905 0.001394 -0.006701
-0.046802 -0.000115 0.006880
-0.047451 0.002364 0.006385
-0.044813 0.001382 0.006766
-0.048085 0.002303 0.006391
-0.045400 0.001367 -0.006750
-0.045616 -0.000098 0.006921
-0.044638 0.001394 -0.006770
-0.045267 0.001250 0.006770
-0.048054 -0.000891 0.006737
-0.048532 -0.001089 -0.006696
-0.047520 0.001585 -0.006657
-0.047186 -0.000086 -0.006871
-0.046266 -0.000194 -0.006886
-0.046947 0.000638 0.006798
-0.046631 -0.000392 -0.006849
-0.048336 0.001340 -0.006665
-0.046700 0.001058 -0.006752
-0.045845 0.002653 0.006314
-0.047571 -0.001414 0.006683
-0.045888 0.000874 -0.006801
-0.047005 0.000356 -0.006836
-0.046323 0.000947 -0.006778
-0.044353 -0.001049 0.006835
-0.048451 0.002679 0.006224
-0.044437 0.002829 0.006283
-0.047796 0.000996 -0.006727
-0.046356 -0.001858 0.006653
-0.044442 0.002025 -0.006619
-0.047607 0.002456 -0.006344
-0.048142 0.000462 0.006786
-0.048200 -0.002068 0.006498
-0.047044 0.000281 0.006843
-0.045732 0.002060 -0.006565
-0.048654 0.002348 0.006355
-0.045767 0.000359 -0.006873
-0.045064 0.000813 -0.006834
-0.046224 0.000359 -0.006859
-0.044244 -0.001870 -0.006725
-0.044709 0.001016 0.006817
-0.044442 -0.001308 -0.006800
-0.046047 -0.001081 -0.006778
-0.045752 -0.001378 -0.006749
-0.043868 0.002545 -0.006417
-0.048001 0.001993 -0.006524
-0.045316 0.002126 0.006548
-0.044354 0.001400 0.006777
-0.048152 -0.001251 -0.006688
-0.046173 -0.002119 -0.006551
-0.045945 -0.000346 0.006876
-0.045172 0.002844 0.006255
-0.048415 -0.001759 -0.006613
-0.046600 0.000317 0.006851
-0.044898 0.000237 0.006913
-0.048506 -0.000291 0.006801
-0.047537 0.000131 -0.006850
-0.044784 -0.000385 0.006909
-0.043944 -0.000620 -0.006903
-0.046461 -0.000419 0.006850
-0.045591 -0.000532 -0.006864
-0.047138 0.002610 0.006293
-0.047973 0.001470 -0.006659
-0.044847 -0.001696 -0.006736
-0.046589 0.000438 -0.006838
-0.045576 0.002454 -0.006406
-0.045317 0.000400 -0.006882
-0.045877 0.000167 0.006893
-0.044008 0.000317 -0.006931
-0.047086 -0.000918 0.006764
-0.045562 -0.000912 -0.006816
-0.044798 0.002433 -0.006439
-0.048709 0.000336 -0.006787
-0.044699 0.000933 -0.006829
-0.047920 -0.000927 -0.006737
-0.044523 0.000378 -0.006908
-0.046013 -0.000516 -0.006853
-0.039241 0.000055 0.007008
-0.040121 -0.000970 0.006899
-0.040062 -0.001971 -0.006748
-0.041877 0.002303 0.006531
-0.039472 -0.000957 -0.006911
-0.040709 -0.000331 -0.006978
-0.042577 0.001268 -0.006819
-0.038857 0.000098 0.007006
-0.043390 -0.001359 -0.006813
-0.041877 0.001786 0.006744
-0.040906 0.002841 -0.006317
-0.039100 -0.002116 -0.006702
-0.041421 -0.001172 0.006858
-0.041472 0.002096 0.006619
-0.040155 0.000542 0.006935
-0.042597 -0.000516 0.006932
-0.041744 0.001437 0.006803
-0.043097 -0.001868 -0.006747
-0.039848 0.000893 0.006892
-0.042007 0.001095 0.006846
-0.041851 -0.000419 0.006953
-0.039994 0.000434 -0.006954
-0.042485 -0.000422 -0.006946
-0.042478 0.000994 0.006855
-0.041019 0.001697 -0.006776
-0.041134 0.001281 -0.006830
-0.042567 -0.002047 0.006681
-0.041281 -0.000415 0.006960
-0.040579 -0.000769 0.006922
-0.039890 0.001227 -0.006849
-0.040217 0.001895 0.006712
-0.039303 0.002184 -0.006603
-0.041072 -0.001691 0.006794
-0.042488 0.002506 -0.006444
-0.040888 0.002306 -0.006539
-0.041760 0.000970 -0.006866
-0.042921 -0.001560 0.006790
-0.038873 0.002133 0.006624
-0.041659 -0.000820 -0.006904
-0.043455 0.002423 0.006469
-0.040055 0.002495 -0.006468
-0.043221 0.000894 -0.006862
-0.043433 0.001355 -0.006799
-0.040234 0.001186 0.006851
-0.038864 0.000602 -0.006942
-0.042942 -0.001413 -0.006812
-0.041941 -0.001773 0.006773
-0.039376 0.002532 -0.006458
-0.043688 0.002696 0.006354
-0.041667 0.000343 -0.006950
-0.039328 -0.000591 0.006959
-0.043110 -0.000995 -0.006864
-0.040463 0.001184 -0.006850
-0.042161 0.001422 -0.006802
-0.042414 -0.001165 -0.006850
-0.042322 0.000838 -0.006878
-0.040967 0.001343 0.006823
-0.042121 -0.000591 -0.006928
-0.042379 0.000315 -0.006947
-0.041687 -0.002030 -0.006700
-0.039158 -0.001673 0.006818
-0.042475 0.002581 0.006411
-0.039843 -0.001143 -0.006882
-0.042253 0.001483 0.006793
-0.041336 -0.001824 -0.006776
-0.041470 0.002572 0.006423
-0.043158 -0.000614 -0.006913
-0.038722 0.002651 -0.006413
-0.040292 0.002186 -0.006594
-0.041936 0.002459 -0.006468
-0.038880 -0.000643 -0.006959
-0.040913 0.000435 -0.006945
-0.041477 -0.000416 -0.006958
-0.038969 0.001486 0.006823
-0.043517 0.001744 -0.006746
-0.039877 -0.000360 0.006983
-0.039488 0.001379 -0.006833
-0.040148 -0.000127 -0.007011
-0.039663 -0.000349 -0.006988
-0.043361 0.000470 -0.006917
-0.039077 0.000021 -0.007017
-0.042615 -0.000815 -0.006893
-0.040575 -0.002095 0.006688
-0.041188 0.000114 -0.006985
-0.042947 -0.001133 0.006846
-0.043648 -0.001893 0.006729
-0.040396 -0.000164 0.007003
-0.040430 0.002799 -0.006338
-0.041248 0.000908 -0.006879
-0.039855 0.002662 0.006398
-0.041780 -0.001217 -0.006850
-0.039965 0.000172 0.006986
-0.041857 0.000080 0.006980
-0.040558 0.000770 -0.006904
-0.039686 0.000727 -0.006917
-0.041384 0.001207 0.006837
-0.041332 0.000070 0.006985
-0.039550 0.000327 0.006969
-0.043328 -0.001426 0.006803
-0.039055 0.001908 -0.006719
-0.042929 0.000655 -0.006897
-0.039568 -0.001746 0.006804
-0.039004 0.001059 0.006878
-0.040592 0.001932 0.006694
-0.038842 -0.000465 0.006981
-0.039418 0.001750 0.006778
-0.041097 0.001800 0.006744
-0.041929 0.002051 -0.006637
-0.043166 0.000067 -0.006972
-0.039154 -0.001531 -0.006839
-0.041537 0.000527 0.006924
-0.040304 -0.001129 -0.006879
-0.042452 0.002196 0.006571
-0.042964 0.001825 0.006719
-0.040915 -0.000569 0.006944
-0.040285 -0.001628 0.006811
-0.043378 -0.000284 -0.006954
-0.043095 0.002571 -0.006412
-0.042219 -0.000611 0.006924
-0.043130 -0.000428 0.006937
-0.042705 0.000413 0.006928
-0.041599 0.001658 -0.006776
-0.039318 -0.000511 -0.006971
-0.042836 -0.000085 0.006986
-0.039704 0.002119 0.006624
-0.042274 0.001881 0.006702
-0.041020 0.002143 0.006603
-0.041080 -0.000810 -0.006911
-0.041909 -0.000985 0.006878
-0.039759 0.001437 0.006822
-0.041336 0.002026 -0.006652
-0.043585 -0.000339 0.006944
-0.042333 -0.001922 -0.006736
-0.041314 -0.000791 0.006910
-0.041393 0.001576 0.006788
-0.041805 -0.000240 -0.006978
-0.043159 0.000786 0.006875
-0.039928 -0.001995 0.006739
-0.042671 -0.000055 -0.006992
-0.040147 0.000810 -0.006902
-0.039741 -0.000730 0.006936
-0.040552 0.002324 0.006533
-0.040924 -0.000035 0.007003
-0.040590 -0.001907 -0.006767
-0.041433 -0.001579 0.006804
-0.039823 0.002123 -0.006624
-0.040422 -0.001505 -0.006828
-0.040778 -0.001242 -0.006859
-0.042901 0.001058 0.006843
-0.041192 -0.001206 -0.006859
-0.040798 0.000779 0.006898
-0.043037 0.002677 0.006367
-0.041994 0.002837 -0.006310
-0.039960 -0.000625 -0.006949
-0.043325 0.001222 0.006817
-0.038757 -0.001471 -0.006852
-0.041584 0.002729 -0.006358
-0.040624 0.001503 0.006805
-0.040625 0.001695 -0.006780
-0.040335 0.000266 -0.006973
-0.039081 0.000502 0.006951
-0.039410 0.001001 -0.006884
-0.039685 -0.001647 -0.006818
-0.040553 0.000451 0.006943
-0.039384 0.000790 0.006910
-0.042855 0.001021 -0.006849
-0.042336 -0.000034 0.006990
-0.040875 -0.001124 0.006870
-0.042564 -0.001186 0.006843
-0.043105 0.000206 0.006952
-0.039016 0.001408 -0.006833
-0.040274 -0.000523 0.006957
-0.043676 -0.001723 -0.006763
-0.043391 0.002139 -0.006589
-0.040066 0.002312 0.006541
-0.038729 0.000633 0.006937
-0.042818 0.002307 0.006522
-0.042074 0.000609 0.006908
-0.039871 0.001749 -0.006779
-0.043488 0.002558 -0.006414
-0.042375 -0.001653 0.006784
-0.040644 0.000050 -0.006998
-0.040261 0.001786 -0.006760
-0.042680 0.001747 -0.006754
-0.042707 -0.001786 -0.006766
-0.040461 -0.001183 0.006867
-0.040569 -0.000832 -0.006915
-0.043352 0.001842 0.006709
-0.043141 0.001863 -0.006706
-0.042342 0.001940 -0.006680
-0.043676 0.001377 0.006793
-0.040228 0.002743 0.006362
-0.041980 0.000626 -0.006909
-0.039418 -0.001315 0.006862
-0.043596 -0.001025 0.006853
-0.042159 -0.001308 0.006832
-0.043641 0.000170 -0.006954
-0.040751 -0.001491 0.006824
-0.041412 0.002425 -0.006486
-0.042696 0.001407 0.006799
-0.043526 -0.000685 -0.006900
-0.039352 -0.002099 0.006705
-0.043224 -0.002083 0.006655
-0.041511 -0.001481 -0.006819
-0.039121 0.002788 -0.006353
-0.043504 0.000061 0.006967
-0.039806 -0.001302 0.006859
-0.042054 -0.001630 -0.006793
-0.039487 0.002453 0.006487
-0.038730 -0.000827 0.006935
-0.039422 0.001232 0.006852
-0.039319 0.000500 -0.006951
-0.039629 0.000209 -0.006987
-0.042944 -0.000753 0.006897
-0.043383 -0.000718 0.006896
-0.040993 0.002521 0.006447
-0.043064 0.001472 -0.006787
-0.038988 -0.001253 0.006875
-0.038950 0.002349 -0.006537
-0.040346 -0.000467 -0.006965
-0.043695 0.002080 0.006609
-0.042776 0.002121 -0.006601
-0.042031 0.000085 -0.006981
-0.043466 0.000439 0.006918
-0.039061 0.002665 0.006403
-0.042135 0.002796 0.006325
-0.039487 0.001862 -0.006735
-0.042079 -0.000966 -0.006880
-0.043655 -0.001084 -0.006846
-0.041215 0.000876 0.006881
-0.039035 0.000971 -0.006891
-0.040959 0.000369 0.006950
-0.034686 0.002243 0.006543
-0.036199 0.001670 -0.006793
-0.036547 0.000560 0.006941
-0.035049 -0.002079 -0.006715
-0.035833 0.000602 0.006928
-0.034687 0.002125 -0.006596
-0.035187 0.002142 -0.006596
-0.036569 -0.002033 -0.006746
-0.037408 0.002510 -0.006475
-0.035003 -0.001249 0.006863
-0.033872 0.000806 -0.006881
-0.033862 0.000336 -0.006943
-0.037374 -0.001735 -0.006825
-0.037674 -0.001384 -0.006873
-0.037100 0.002178 0.006605
-0.037860 0.002569 -0.006454
-0.036612 -0.001382 0.006861
-0.035611 -0.001220 0.006873
-0.038037 -0.000054 -0.007037
-0.036340 0.002169 -0.006601
-0.038127 -0.000846 -0.006941
-0.034762 0.001297 0.006824
-0.036150 0.001548 0.006808
-0.035120 0.002567 0.006416
-0.038293 -0.001183 0.006892
-0.038610 0.002626 0.006423
-0.037289 0.000305 0.006983
-0.036994 -0.001421 -0.006862
-0.035434 0.000267 0.006967
-0.034188 -0.000327 0.006978
-0.037357 -0.001803 0.006812
-0.035033 0.001021 0.006863
-0.034220 -0.001067 0.006880
-0.035866 0.002479 0.006463
-0.037517 -0.000585 -0.006976
-0.034293 0.000665 -0.006904
-0.035610 -0.000778 0.006932
-0.037245 0.000374 -0.006976
-0.034465 -0.000045 0.006996
-0.034929 -0.000979 -0.006901
-0.038707 -0.001031 -0.006910
-0.037046 0.000709 0.006927
-0.036959 0.002577 -0.006440
-0.036057 0.002418 -0.006494
-0.038526 -0.001953 0.006777
-0.038560 -0.002088 -0.006721
-0.036919 -0.000388 0.006996
-0.033977 0.000105 0.006971
-0.035296 0.001069 -0.006862
-0.036010 -0.001327 0.006863
-0.035325 0.000016 -0.007002
-0.036907 -0.001873 0.006799
-0.038555 0.002190 -0.006606
-0.037290 0.002116 -0.006637
-0.037203 -0.001464 0.006856
-0.034447 -0.000708 0.006930
-0.036436 -0.000700 -0.006951
-0.034130 0.002166 -0.006570
-0.038583 -0.001430 0.006856
-0.036313 0.002153 0.006604
-0.034298 -0.001865 -0.006779
-0.037627 -0.000089 -0.007042
-0.034510 0.001501 -0.006796
-0.035584 -0.002006 0.006748
-0.034718 0.000981 -0.006867
-0.038086 -0.000041 0.007030
-0.033927 -0.000562 -0.006946
-0.034930 0.001765 0.006745
-0.035262 -0.001772 0.006797
-0.035752 -0.001670 0.006815
-0.036708 -0.000330 -0.007002
-0.037706 0.000239 0.006997
-0.035817 -0.000548 -0.006965
-0.036151 -0.001968 -0.006769
-0.037291 -0.000067 0.007031
-0.038286 0.000721 0.006929
-0.034302 -0.000514 -0.006956
-0.035996 -0.000696 0.006946
-0.037004 -0.000100 -0.007035
-0.036736 0.001357 -0.006840
-0.038457 0.001510 -0.006825
-0.036710 0.002280 -0.006560
-0.037776 0.002144 0.006628
-0.036091 0.001230 -0.006850
-0.034858 -0.001818 0.006787
-0.035069 0.002118 0.006600
-0.035650 -0.002101 -0.006710
-0.035632 0.002102 0.006615
-0.036250 0.000897 -0.006896
-0.038104 0.000852 -0.006916
-0.035809 0.000128 0.006989
-0.035624 0.002110 -0.006615
-0.038276 -0.000509 0.006982
-0.036993 -0.001911 -0.006798
-0.038172 -0.001276 -0.006884
-0.035667 0.001579 -0.006799
-0.036636 0.002466 0.006480
-0.038654 0.001120 -0.006875
-0.033783 0.002125 0.006579
-0.037776 0.000632 -0.006948
-0.038545 0.000298 -0.006985
-0.033921 -0.000712 0.006925
-0.034541 -0.001515 -0.006827
-0.034961 0.001727 -0.006765
-0.034864 0.000676 0.006907
-0.035897 0.002828 -0.006321
-0.037881 0.000673 0.006939
-0.037631 0.001170 -0.006875
-0.037367 0.000769 -0.006925
-0.035746 -0.000156 -0.007016
-0.037086 -0.000506 -0.006983
-0.034962 0.002652 -0.006381
-0.033938 0.001600 -0.006776
-0.033810 0.002799 -0.006303
-0.036044 -0.001357 -0.006862
-0.034537 -0.001423 0.006836
-0.037788 0.001270 0.006863
-0.036878 0.001964 -0.006694
-0.037866 0.001600 -0.006819
-0.034979 0.000367 -0.006952
-0.034195 0.001542 0.006786
-0.037788 -0.001923 0.006801
-0.036647 -0.000752 0.006945
-0.038344 0.002832 -0.006341
-0.035492 0.002439 0.006475
-0.035401 0.000906 0.006883
-0.036421 0.002690 -0.006386
-0.037033 0.001801 0.006760
-0.035702 0.000313 -0.006967
-0.033852 -0.001871 0.006770
-0.038456 0.002179 0.006609
-0.038672 0.001825 -0.006757
-0.034477 -0.000870 -0.006911
-0.034086 -0.000096 -0.007003
-0.035682 0.001390 0.006823
-0.036996 0.001335 0.006846
-0.036639 0.000490 -0.006954
-0.035268 -0.000505 -0.006966
-0.035106 -0.001405 -0.006847
-0.038131 0.001072 0.006884
-0.038469 -0.000301 -0.007008
-0.037732 -0.000490 0.006990
-0.037590 0.002523 0.006470
-0.034191 -0.002048 0.006720
-0.034968 -0.000499 0.006963
-0.036609 0.000052 0.007008
-0.034333 0.002857 0.006285
-0.037500 0.000687 0.006935
-0.037185 0.002615 0.006426
-0.036539 -0.001478 -0.006851
-0.037629 0.002862 -0.006332
-0.037166 0.001374 -0.006843
-0.038046 -0.001722 -0.006827
-0.037338 0.001129 0.006876
-0.034021 -0.001149 -0.006870
-0.036296 -0.000932 0.006917
-0.034106 -0.001575 0.006812
-0.035990 0.002023 -0.006657
-0.035187 -0.000863 0.006916
-0.037536 -0.000959 0.006925
-0.035497 0.000733 -0.006909
-0.037894 0.002031 -0.006677
-0.036683 0.000115 -0.007004
-0.036676 0.000925 -0.006897
-0.036247 -0.000217 -0.007013
-0.035577 -0.001670 -0.006816
-0.034313 0.001835 -0.006711
-0.034470 0.001905 0.006680
-0.038147 0.002394 0.006523
-0.037595 -0.001412 0.006866
-0.034398 0.000627 0.006908
-0.035683 0.002482 -0.006462
-0.038047 0.002854 0.006333
-0.037265 -0.001071 -0.006911
-0.036336 0.000866 0.006899
-0.038463 -0.000009 0.007023
-0.035846 0.001003 0.006875
-0.034985 -0.000220 -0.007000
-0.038156 0.001760 0.006784
-0.035569 -0.001232 -0.006874
-0.038051 -0.000846 0.006940
-0.038291 0.001896 -0.006731
-0.033920 0.000734 0.006888
-0.034367 0.000222 -0.006964
-0.036416 -0.001776 0.006807
-0.034097 0.002524 -0.006422
-0.034222 0.002507 0.006428
-0.035971 -0.002002 0.006753
-0.034222 0.001037 -0.006854
-0.035293 -0.000901 -0.006914
-0.036769 0.001035 0.006881
-0.036488 -0.000343 0.006998
-0.035195 0.001427 -0.006813
-0.034378 0.001160 0.006838
-0.033713 0.001040 0.006846
-0.033820 0.001244 -0.006822
-0.033795 -0.001629 -0.006805
-0.038490 0.001595 0.006813
-0.035924 -0.000258 0.007003
-0.035874 0.001814 0.006738
-0.038166 0.002329 -0.006552
-0.034682 -0.000500 -0.006961
-0.037390 0.001957 0.006701
-0.036315 -0.001073 -0.006901
-0.038093 -0.001579 0.006842
-0.036187 0.000116 0.006995
-0.035366 0.001801 -0.006740
-0.034091 0.001913 0.006671
-0.033745 0.001485 0.006789
-0.035415 0.001673 0.006783
-0.037477 0.001645 -0.006811
-0.034941 -0.000089 0.007007
-0.035322 -0.000387 0.006981
-0.038558 0.001081 0.006879
-0.035649 0.001201 -0.006849
-0.036938 -0.001146 0.006895
-0.036918 -0.000883 -0.006932
-0.036679 0.001928 0.006702
-0.036586 0.001574 0.006809
-0.037096 -0.000714 0.006954
-0.037331 0.001541 0.006822
-0.034522 0.002488 -0.006442
-0.036058 0.000204 -0.006985
-0.035936 0.000638 -0.006927
-0.033838 -0.001312 0.006844
-0.034876 -0.001755 -0.006799
-0.037947 -0.000500 -0.006988
-0.034794 0.002728 0.006345
-0.034782 -0.000868 0.006911
-0.037751 0.001659 0.006812
-0.038227 0.000303 0.006985
-0.036995 0.000720 -0.006928
-0.037634 -0.000947 -0.006930
-0.034588 0.000308 0.006952
-0.038010 0.001246 -0.006864
-0.035834 -0.000967 -0.006911
-0.034661 -0.000021 -0.006999
-0.033767 -0.000260 0.006983
-0.038112 0.000431 -0.006972
-0.031474 -0.001663 -0.006778
-0.028975 0.001805 0.006586
-0.031805 -0.001988 0.006726
-0.029454 0.001339 -0.006717
-0.032295 0.001341 -0.006792
-0.033175 0.000839 -0.006868
-0.031775 0.001833 -0.006675
-0.033398 -0.001512 -0.006817
-0.033405 0.002180 0.006551
-0.033601 -0.001192 -0.006861
-0.032545 -0.001266 0.006838
-0.030036 0.001500 0.006714
-0.032588 -0.000775 -0.006905
-0.032963 -0.000639 0.006925
-0.028964 -0.001303 0.006747
-0.029709 -0.001172 0.006786
-0.030400 0.000097 0.006908
-0.029063 -0.000879 -0.006808
-0.028931 0.002821 0.006165
-0.031766 -0.000309 -0.006959
-0.031446 -0.000411 0.006940
-0.032206 -0.001575 -0.006797
-0.032336 -0.000409 -0.006951
-0.033037 -0.001522 0.006809
-0.032639 0.000676 -0.006884
-0.029506 -0.000298 -0.006898
-0.029143 0.002662 -0.006241
-0.028796 0.002084 -0.006468
-0.030299 -0.000316 0.006918
-0.029640 0.001518 0.006699
-0.030286 0.000628 0.006836
-0.029735 -0.001876 -0.006698
-0.030775 -0.001121 -0.006828
-0.029586 -0.000633 0.006855
-0.030081 0.002786 -0.006224
-0.029696 0.002793 -0.006207
-0.029482 -0.001038 -0.006800
-0.032355 0.000966 0.006840
-0.030379 0.000334 -0.006880
-0.033231 0.001520 -0.006779
-0.030940 0.002532 0.006359
-0.030760 0.000245 0.006900
-0.031356 0.001087 -0.006812
-0.030241 -0.001550 -0.006756
-0.029888 0.000671 0.006817
-0.029709 0.001980 -0.006545
-0.029320 0.000403 0.006834
-0.030444 -0.000833 -0.006856
-0.029958 0.000101 -0.006898
-0.031432 0.000822 0.006847
-0.032889 0.000150 -0.006957
-0.033436 0.001921 -0.006663
-0.030504 0.000709 -0.006835
-0.029131 -0.001579 -0.006719
-0.031274 -0.000814 -0.006883
-0.033532 -0.000561 0.006941
-0.033497 0.000426 0.006924
-0.029249 0.001751 -0.006623
-0.032340 -0.001990 -0.006730
-0.032484 0.002062 -0.006590
-0.031634 -0.000906 -0.006880
-0.031847 0.000472 -0.006902
-0.032776 -0.001976 -0.006739
-0.029089 -0.000477 0.006860
-0.033145 -0.000493 -0.006948
-0.032060 -0.000832 -0.006893
-0.030905 0.000550 -0.006869
-0.030771 0.002239 -0.006476
-0.031191 -0.000765 0.006885
-0.032578 -0.000651 0.006920
-0.032674 0.002161 0.006548
-0.030857 -0.001965 -0.006714
-0.032262 0.002776 0.006288
-0.031042 0.001520 -0.006745
-0.030270 0.001001 -0.006789
-0.030077 0.002384 -0.006390
-0.030007 -0.000760 -0.006852
-0.029148 0.000719 -0.006790
-0.029177 -0.001922 0.006670
-0.031005 0.001703 0.006703
-0.032585 0.000467 0.006908
-0.029381 -0.000227 0.006902
-0.028869 0.000415 -0.006821
-0.032144 -0.001671 0.006781
-0.029801 -0.001600 0.006733
-0.029370 -0.002020 -0.006646
-0.029070 0.000704 0.006787
-0.032241 0.000971 -0.006840
-0.032940 0.001129 0.006825
-0.033118 -0.001935 0.006754
-0.029319 -0.001057 0.006790
-0.029370 -0.000658 -0.006846
-0.032555 0.001697 -0.006743
-0.031070 -0.001549 0.006778
-0.031326 0.002081 -0.006562
-0.029845 -0.000270 0.006911
-0.033566 -0.001984 -0.006742
-0.031822 -0.001392 -0.006818
-0.029194 0.002106 -0.006473
-0.030507 -0.001812 -0.006730
-0.030121 -0.000274 -0.006919
-0.033536 -0.000995 0.006883
-0.030322 -0.001101 0.006814
-0.029622 0.000105 0.006882
-0.031729 0.002529 -0.006386
-0.031202 0.001175 0.006793
-0.033310 0.000315 -0.006939
-0.032148 0.000212 -0.006940
-0.032590 -0.001871 0.006758
-0.032023 0.000291 0.006925
-0.033487 0.000051 0.006972
-0.028847 -0.000465 -0.006856
-0.033457 -0.001531 0.006812
-0.030990 0.000571 0.006866
-0.030924 -0.000133 0.006955
-0.031212 0.002223 0.006496
-0.030958 0.001076 -0.006801
-0.033542 0.002293 -0.006510
-0.029665 -0.002083 0.006628
-0.028763 -0.000857 0.006799
-0.029744 -0.001470 -0.006751
-0.029736 0.000741 -0.006806
-0.028712 0.002513 -0.006287
-0.032941 0.000606 0.006894
-0.030702 -0.001235 0.006808
-0.031793 -0.001163 0.006845
-0.032949 -0.001116 0.006862
-0.033474 -0.000669 -0.006928
-0.032748 0.001243 -0.006810
-0.031387 0.001726 0.006707
-0.032943 -0.001227 -0.006850
-0.030515 0.002257 0.006456
-0.029256 0.001367 0.006705
-0.028976 -0.000043 0.006881
-0.032583 -0.000130 -0.006990
-0.033235 -0.000330 0.006969
-0.031352 -0.001106 0.006845
-0.033084 0.000192 0.006949
-0.031816 0.000895 -0.006845
-0.028961 0.002321 0.006372
-0.032806 0.002517 0.006403
-0.030593 -0.000462 -0.006909
-0.029403 0.001811 0.006599
-0.032556 0.002473 -0.006421
-0.031971 0.000854 0.006850
-0.030012 0.002009 0.006540
-0.030540 -0.000619 0.006886
-0.031936 -0.001986 -0.006728
-0.032721 -0.001594 -0.006800
-0.031005 0.002565 -0.006350
-0.029646 0.002410 -0.006364
-0.032147 -0.000261 0.006968
-0.033090 0.002480 -0.006425
-0.033472 0.001829 0.006697
-0.031490 0.000258 0.006922
-0.032253 0.001939 0.006634
-0.030535 0.001666 0.006701
-0.033597 0.002665 0.006354
-0.030428 0.001527 -0.006724
-0.031427 -0.000159 -0.006974
-0.032964 0.002102 -0.006580
-0.033218 -0.000075 -0.006990
-0.033142 0.001636 0.006762
-0.032406 -0.001149 -0.006855
-0.030889 0.001894 -0.006624
-0.028739 -0.001785 -0.006680
-0.031429 0.001686 -0.006730
-0.030014 -0.000628 0.006868
-0.028742 0.001412 -0.006685
-0.031850 0.002082 0.006569
-0.031128 -0.001517 -0.006787
-0.031803 0.002573 0.006366
-0.030107 -0.001968 -0.006690
-0.029694 0.002425 0.006357
-0.032721 -0.000261 0.006973
-0.033339 0.001141 0.006828
-0.030151 -0.002004 0.006676
-0.030331 -0.001577 0.006752
-0.029161 -0.000077 -0.006895
-0.030847 0.000088 -0.006928
-0.031220 -0.002041 -0.006694
-0.030557 0.001197 0.006770
-0.029887 0.001098 0.006761
-0.032430 0.002419 0.006438
-0.029360 -0.001533 0.006728
-0.032401 0.000035 0.006962
-0.033076 0.002822 0.006281
-0.032738 0.001533 0.006771
-0.030058 -0.001155 -0.006802
-0.032015 0.001624 0.006751
-0.031383 -0.001818 0.006751
-0.032364 0.001437 0.006779
-0.030468 0.001884 -0.006612
-0.028864 -0.001310 -0.006746
-0.032147 0.002618 -0.006354
-0.030171 0.002667 0.006274
-0.032141 -0.000825 0.006892
-0.031374 0.002578 0.006355
-0.030102 0.001980 -0.006559
-0.031567 0.000187 -0.006936
-0.028892 0.001038 0.006737
-0.029520 0.000201 -0.006870
-0.030756 0.001965 0.006586
-0.031686 -0.000708 0.006905
-0.033153 -0.001992 -0.006735
-0.031383 -0.001198 -0.006836
-0.029285 0.002682 0.006236
-0.031716 0.001368 -0.006782
-0.029888 0.001338 -0.006731
-0.030696 0.000847 0.006820
-0.031720 0.001351 0.006783
-0.029038 0.001164 -0.006727
-0.029488 0.000880 0.006777
-0.031353 0.000650 -0.006870
-0.030678 -0.001757 0.006738
-0.030592 0.001184 -0.006775
-0.033612 0.000037 -0.006980
-0.032845 0.002773 -0.006300
-0.031793 0.000002 0.006959
-0.031001 -0.000362 -0.006934
-0.030021 0.000486 -0.006849
-0.030510 0.002557 -0.006335
-0.032133 0.002175 -0.006538
-0.032164 0.001754 -0.006713
-0.033430 0.001132 -0.006832
-0.031671 -0.001530 0.006795
-0.033198 -0.000916 -0.006893
-0.032201 -0.002106 0.006680
-0.033184 0.002482 0.006424
-0.030065 0.000303 0.006870
-0.027359 0.000948 -0.006702
-0.025188 0.001207 0.006595
-0.025734 -0.002084 0.006509
-0.027063 0.001726 0.006549
-0.028142 0.001235 -0.006689
-0.025224 0.002483 0.006168
-0.026305 -0.001937 -0.006587
-0.024346 0.000473 0.006645
-0.026201 -0.000121 0.006801
-0.026745 -0.001499 -0.006657
-0.025194 -0.000417 -0.006751
-0.028268 0.002484 -0.006282
-0.025372 -0.001948 -0.006555
-0.027532 -0.001510 -0.006679
-0.028271 -0.000932 -0.006777
-0.026411 0.002253 -0.006310
-0.027478 0.001412 0.006642
-0.023960 0.002347 -0.006153
-0.023989 0.002051 0.006274
-0.024482 0.002391 0.006163
-0.028459 -0.000573 -0.006830
-0.026571 0.001279 -0.006632
-0.026939 0.002379 -0.006277
-0.026325 0.000479 0.006727
-0.028391 0.002512 0.006272
-0.024855 0.000608 0.006655
-0.026074 -0.001840 0.006588
-0.028593 -0.000240 0.006877
-0.023912 -0.000859 0.006625
-0.026390 0.002663 -0.006139
-0.024554 -0.001589 -0.006565
-0.028390 0.001807 0.006564
-0.028479 -0.001447 -0.006716
-0.024646 -0.000802 -0.006673
-0.025437 -0.000550 0.006740
-0.026491 0.001256 0.006631
-0.025693 -0.001654 -0.006605
-0.028570 -0.001788 0.006670
-0.026833 -0.001057 0.006715
-0.028688 0.000566 0.006792
-0.027258 -0.000706 -0.006776
-0.025684 0.000488 -0.006709
-0.027313 -0.001963 -0.006607
-0.024761 0.001217 -0.006573
-0.025697 0.001567 0.006564
-0.027103 -0.001800 0.006624
-0.026309 -0.000829 0.006729
-0.025165 -0.001923 0.006548
-0.024777 -0.000596 0.006704
-0.028347 -0.002076 0.006591
-0.027639 -0.000488 -0.006816
-0.024254 -0.001149 -0.006607
-0.026397 -0.002049 0.006543
-0.024721 -0.001230 -0.006621
-0.027343 0.002356 -0.006301
-0.024389 -0.001016 0.006629
-0.024477 0.000811 -0.006611
-0.026525 -0.001317 0.006671
-0.028046 -0.001664 0.006670
-0.023915 -0.000002 -0.006689
-0.023813 -0.001513 0.006533
-0.028488 -0.001385 0.006721
-0.026449 0.000650 -0.006712
-0.027831 0.002322 0.006330
-0.027442 -0.001973 0.006606
-0.028662 0.000945 -0.006744
-0.024960 -0.001842 -0.006553
-0.027418 -0.000409 0.006819
-0.025751 0.002445 0.006203
-0.026217 0.002568 0.006169
-0.026568 -0.000178 -0.006825
-0.026796 0.000519 0.006737
-0.025287 -0.001542 -0.006608
-0.023929 0.001602 -0.006461
-0.026547 0.002799 0.006087
-0.027149 0.002611 0.006187
-0.023972 0.001168 -0.006537
-0.026938 -0.000461 -0.006799
-0.025257 -0.000876 0.006691
-0.027241 -0.001194 -0.006712
-0.025064 0.001915 -0.006398
-0.027044 0.002826 -0.006095
-0.026375 0.001928 0.006440
-0.026866 -0.001091 -0.006714
-0.028078 -0.001420 -0.006708
-0.027875 0.002527 -0.006250
-0.026299 0.000991 -0.006662
-0.027592 0.000706 0.006739
-0.025978 -0.001093 0.006684
-0.024259 0.000439 -0.006649
-0.028661 -0.000953 -0.006787
-0.025226 -0.001121 -0.006661
-0.027772 -0.000070 0.006845
-0.023734 -0.001704 -0.006508
-0.025770 -0.001218 -0.006665
-0.025826 0.001133 0.006626
-0.024540 0.001927 0.006358
-0.024325 0.002224 -0.006226
-0.027848 0.000952 -0.006717
-0.025225 0.001722 0.006483
-0.024996 0.002189 0.006277
-0.024402 -0.002082 -0.006452
-0.026081 -0.000926 -0.006712
-0.028087 0.002830 -0.006132
-0.025587 0.000869 -0.006655
-0.024773 0.001483 0.006537
-0.024738 -0.001481 0.006584
-0.024135 0.002718 0.006008
-0.026490 0.002264 0.006305
-0.028361 0.000463 -0.006798
-0.026660 0.001618 0.006579
-0.025327 -0.000051 -0.006768
-0.028568 0.000178 0.006838
-0.028387 0.001634 -0.006640
-0.025353 0.000252 0.006725
-0.028363 -0.001025 0.006765
-0.027878 0.000093 -0.006832
-0.028146 0.002778 0.006154
-0.026095 0.000139 -0.006768
-0.025061 -0.001276 0.006629
-0.026902 0.001866 -0.006489
-0.024015 -0.000790 -0.006642
-0.028108 0.002073 0.006444
-0.026107 -0.000486 0.006768
-0.024559 0.001106 0.006575
-0.023914 0.001299 0.006515
-0.025147 -0.000259 0.006769
-0.028164 0.002137 -0.006423
-0.025696 -0.000250 -0.006789
-0.025210 0.001199 -0.006599
-0.024690 0.001874 -0.006392
-0.024718 -0.001945 0.006522
-0.027133 0.000848 0.006705
-0.027642 -0.001631 0.006662
-0.025735 -0.000181 0.006794
-0.026982 0.001396 -0.006630
-0.024101 0.000791 -0.006594
-0.023963 -0.000399 -0.006691
-0.027806 0.000326 0.006794
-0.024352 0.001184 -0.006556
-0.027541 0.002859 -0.006100
-0.026016 0.002708 -0.006107
-0.025970 0.000759 0.006679
-0.025795 0.002853 0.006037
-0.024925 0.000133 0.006721
-0.028363 0.000002 -0.006859
-0.025829 0.000189 0.006749
-0.024862 0.000653 -0.006653
-0.027985 0.001782 -0.006564
-0.026948 0.000216 -0.006785
-0.028312 0.000581 0.006778
-0.024336 0.000092 0.006695
-0.028191 0.000810 -0.006747
-0.027262 -0.000983 0.006737
-0.025631 0.001350 -0.006593
-0.028301 -0.001936 -0.006647
-0.027805 -0.001103 -0.006741
-0.025019 0.002494 -0.006155
-0.027300 0.001643 -0.006596
-0.028602 0.001282 0.006696
-0.026997 0.000630 -0.006732
-0.023973 -0.000217 0.006714
-0.025953 0.002123 -0.006347
-0.028034 0.001275 0.006678
-0.025633 -0.001373 0.006637
-0.024418 -0.000266 -0.006732
-0.023865 0.000184 0.006658
-0.026761 -0.000395 0.006801
-0.025097 0.000342 -0.006706
-0.023808 0.002461 0.006094
-0.026983 0.001222 0.006651
-0.024175 0.001039 0.006563
-0.027730 0.000563 -0.006765
-0.025053 0.002852 -0.006008
-0.027858 -0.001086 0.006742
-0.026002 0.001420 -0.006595
-0.027546 0.001934 0.006480
-0.028268 -0.000627 0.006815
-0.026159 -0.000375 -0.006787
-0.025499 0.000819 0.006656
-0.027784 -0.000516 0.006816
-0.023816 0.000940 0.006557
-0.027308 -0.001469 0.006675
-0.028199 0.000089 0.006838
-0.024705 -0.000184 0.006751
-0.025439 0.001711 -0.006500
-0.024731 0.002769 0.006022
-0.023745 0.000524 -0.006611
-0.026714 -0.000011 0.006803
-0.025824 0.002055 0.006367
-0.024318 -0.001932 0.006503
-0.026519 -0.000594 -0.006769
-0.024571 0.002505 -0.006124
-0.027492 0.001993 -0.006458
-0.027132 -0.001585 -0.006657
-0.025485 -0.000846 -0.006705
-0.026559 0.000858 0.006685
-0.025555 0.002145 -0.006324
-0.026743 0.000921 -0.006685
-0.026216 -0.001373 -0.006658
-0.024311 0.001435 0.006518
-0.024602 0.000073 -0.006716
-0.024091 -0.001235 0.006585
-0.026143 0.001500 0.006588
-0.025417 0.002544 -0.006153
-0.027299 -0.000186 -0.006846
-0.025776 -0.000772 0.006720
-0.025930 -0.001947 -0.006572
-0.026922 -0.001437 0.006667
-0.025361 0.002085 0.006338
-0.024218 0.002648 -0.006044
-0.026628 -0.001698 0.006623
-0.026278 0.001810 -0.006489
-0.027198 0.002087 0.006404
-0.027292 0.000040 0.006815
-0.024337 -0.000543 0.006689
-0.024125 -0.001580 -0.006544
-0.024279 0.001881 -0.006365
-0.028214 0.000948 0.006727
-0.027881 0.001655 0.006608
-0.027407 0.000379 -0.006779
-0.025968 0.000814 -0.006675
-0.027568 0.001336 -0.006657
-0.028070 -0.000290 -0.006855
-0.027272 0.000460 0.006760
-0.025845 0.001756 -0.006496
-0.026497 -0.001024 -0.006712
-0.027903 -0.001970 -0.006623
-0.028681 0.002034 0.006481
-0.027453 0.002346 0.006306
-0.027977 -0.000681 -0.006801
-0.024463 0.001568 -0.006506
-0.027016 -0.000704 0.006767
-0.024908 0.001575 -0.006530
-0.027702 0.001065 0.006695
-0.022786 0.002206 0.006139
-0.022768 -0.000029 -0.006632
-0.023214 -0.000905 -0.006586
-0.019774 -0.000562 0.006453
-0.022373 -0.000625 -0.006580
-0.020299 -0.001348 0.006376
-0.019689 -0.000842 -0.006415
-0.019941 -0.001014 0.006402
-0.021578 0.000331 0.006517
-0.020308 -0.000591 -0.006479
-0.019351 -0.000292 0.006467
-0.021510 -0.001953 -0.006353
-0.021919 -0.000720 0.006542
-0.023110 -0.001524 -0.006500
-0.019350 0.001193 -0.006289
-0.023249 -0.001126 0.006556
-0.019272 0.001721 0.006131
-0.023290 0.002291 -0.006137
-0.020730 0.001491 -0.006318
-0.020558 0.001922 0.006125
-0.021756 -0.000183 -0.006599
-0.022601 0.000642 0.006531
-0.021142 0.000219 0.006509
-0.021592 -0.000230 0.006591
-0.021130 -0.001550 -0.006396
-0.019921 0.001213 -0.006317
-0.019572 0.000395 0.006402
-0.022861 0.000534 -0.006562
-0.019012 0.001143 0.006275
-0.021929 0.001525 -0.006374
-0.022850 -0.000240 0.006654
-0.022396 0.002329 0.006065
-0.023180 0.000500 0.006580
-0.019119 -0.000809 -0.006390
-0.022546 -0.000828 0.006560
-0.020389 0.001190 -0.006344
-0.018822 0.002571 -0.005755
-0.022672 0.000883 -0.006506
-0.018987 0.002190 -0.005925
-0.021015 0.001943 0.006143
-0.022772 -0.000759 -0.006583
-0.023326 -0.001896 -0.006462
-0.020643 0.000610 0.006431
-0.021720 -0.001961 0.006359
-0.019911 0.002304 -0.005932
-0.022839 0.000969 0.006501
-0.019404 -0.000065 -0.006458
-0.019366 0.002849 -0.005673
-0.021740 0.002767 -0.005848
-0.022201 -0.000254 -0.006620
-0.023587 0.002024 -0.006265
-0.021515 0.000121 -0.006546
-0.018839 0.000982 -0.006287
-0.023318 0.000566 -0.006582
-0.021060 -0.000883 -0.006479
-0.021317 0.000873 0.006433
-0.018929 -0.001718 -0.006261
-0.022640 0.002080 -0.006186
-0.020505 -0.001994 -0.006283
-0.020681 -0.001312 0.006400
-0.019258 -0.002012 -0.006210
-0.022342 -0.000991 -0.006531
-0.022168 0.002127 -0.006139
-0.019121 -0.001816 0.006253
-0.022413 -0.000326 0.006619
-0.022262 0.002711 0.005900
-0.021079 0.001348 0.006358
-0.021120 0.000209 -0.006513
-0.021315 0.001605 -0.006305
-0.021870 0.000063 0.006568
-0.020584 0.000855 -0.006399
-0.023548 0.001227 0.006505
-0.021013 0.001989 -0.006127
-0.020107 -0.001970 -0.006272
-0.022895 0.001336 0.006456
-0.020043 0.000218 0.006450
-0.023164 0.001106 -0.006503
-0.020599 0.001853 -0.006160
-0.020349 0.002352 0.005935
-0.020231 0.001775 -0.006170
-0.022255 0.000407 0.006543
-0.019134 0.000550 0.006359
-0.020493 -0.000578 0.006488
-0.022265 0.001355 0.006420
-0.023541 -0.000667 0.006632
-0.020268 0.001323 0.006318
-0.020811 -0.000447 -0.006524
-0.021325 0.002463 0.005946
-0.021041 -0.000165 0.006554
-0.019425 0.000763 -0.006350
-0.020919 0.002322 0.005980
-0.018986 -0.000447 -0.006431
-0.020084 -0.001192 -0.006389
-0.022031 0.001746 0.006284
-0.019435 0.001041 0.006311
-0.022917 0.002549 0.006005
-0.019763 0.002827 -0.005706
-0.023683 -0.001131 -0.006581
-0.019523 0.002482 0.005832
-0.021487 0.001972 -0.006163
-0.023633 -0.001913 0.006471
-0.022144 0.000155 -0.006575
-0.018998 0.000434 -0.006371
-0.022923 -0.001335 0.006512
-0.019872 0.000189 -0.006450
-0.019285 0.001831 -0.006091
-0.021513 -0.000649 0.006531
-0.020495 0.001020 0.006370
-0.021910 0.002388 0.006012
-0.022449 0.000424 -0.006555
-0.020471 0.000278 0.006465
-0.018892 -0.001180 0.006325
-0.022040 0.001000 0.006455
-0.019754 0.000822 0.006357
-0.021891 0.000505 -0.006515
-0.021660 0.002637 0.005894
-0.021387 0.001097 -0.006410
-0.023684 0.000927 -0.006554
-0.020944 -0.000563 0.006513
-0.023578 -0.000657 -0.006638
-0.021620 -0.001301 -0.006453
-0.019845 0.000830 -0.006363
-0.023048 0.002005 -0.006242
-0.020438 0.002415 -0.005917
-0.021693 0.000861 -0.006457
-0.019431 0.000380 -0.006401
-0.020372 0.000060 -0.006493
-0.023431 0.002579 0.006023
-0.021645 0.001434 0.006377
-0.020815 -0.000004 -0.006525
-0.022205 -0.001827 -0.006414
-0.023654 0.000493 0.006606
-0.022849 0.002663 -0.005957
-0.021290 0.002381 -0.005982
-0.023229 -0.000376 0.006655
-0.021402 0.001745 0.006247
-0.021992 -0.000803 -0.006538
-0.020638 -0.000051 0.006517
-0.021553 -0.000535 -0.006550
-0.022290 0.001718 -0.006316
-0.018900 -0.002100 0.006152
-0.019696 0.001732 -0.006156
-0.020627 -0.001047 -0.006436
-0.023091 -0.001860 0.006450
-0.019313 -0.000692 0.006413
-0.020438 -0.001529 -0.006363
-0.021822 0.002401 -0.006005
-0.022700 0.000132 0.006603
-0.022920 0.001408 -0.006450
-0.021425 -0.001501 0.006413
-0.022682 -0.001499 -0.006481
-0.023505 0.002087 0.006231
-0.019108 0.002774 0.005687
-0.020014 0.001712 0.006179
-0.020110 0.000551 -0.006414
-0.021872 -0.001269 0.006467
-0.018773 0.001745 -0.006093
-0.019669 -0.001714 -0.006300
-0.020789 0.002562 -0.005877
-0.022599 -0.001936 0.006415
-0.019575 0.000026 0.006451
-0.021615 0.002035 0.006140
-0.019838 -0.000400 -0.006481
-0.022044 0.001052 -0.006451
-0.019872 -0.001543 0.006328
-0.021179 -0.000371 -0.006553
-0.019582 -0.001176 0.006362
-0.021105 -0.001744 0.006364
-0.022927 -0.000858 0.006575
-0.019787 0.001371 0.006287
-0.022480 0.001987 0.006212
-0.020713 0.001421 0.006329
-0.021025 -0.001075 0.006449
-0.020765 0.000455 -0.006462
-0.022707 -0.001967 -0.006410
-0.018777 0.001816 0.006059
-0.021511 0.000496 -0.006496
-0.019209 0.002068 0.005985
-0.019996 -0.000155 0.006497
-0.019263 -0.001373 0.006319
-0.023555 0.002782 -0.005949
-0.019338 0.002446 -0.005839
-0.018909 0.000000 -0.006422
-0.020619 -0.001689 0.006347
-0.021100 0.000673 -0.006451
-0.020855 -0.001880 -0.006338
-0.020132 0.002688 -0.005786
-0.023388 -0.001631 0.006496
-0.021459 -0.001083 0.006471
-0.022979 0.001886 0.006283
-0.018943 -0.000415 0.006430
-0.022037 -0.000368 0.006595
-0.023111 -0.000256 -0.006666
-0.020892 0.000929 0.006403
-0.021976 -0.001195 -0.006485
-0.021230 0.002777 -0.005814
-0.023342 0.000839 0.006545
-0.023433 0.000171 0.006637
-0.023475 0.001351 -0.006487
-0.023313 0.001561 0.006436
-0.019602 0.001949 0.006057
-0.022200 -0.001443 0.006460
-0.018861 0.002180 0.005916
-0.023536 0.000127 -0.006652
-0.019514 -0.001168 -0.006363
-0.022619 0.001600 0.006379
-0.019925 0.002319 0.005923
-0.020242 -0.001716 0.006324
-0.023698 0.001756 0.006379
-0.019141 0.001503 -0.006219
-0.019806 -0.001948 0.006264
-0.020983 0.001077 -0.006391
-0.023311 0.001766 -0.006356
-0.022534 0.001272 -0.006447
-0.023505 -0.000292 -0.006682
-0.019194 0.000100 0.006421
-0.022662 0.001679 -0.006354
-0.019479 -0.001676 0.006290
-0.020002 0.002734 0.005756
-0.022423 0.002489 -0.006004
-0.021564 -0.000923 -0.006500
-0.021683 0.000723 0.006471
-0.019079 -0.001252 -0.006330
-0.019560 0.002124 -0.005986
-0.022265 -0.001437 -0.006468
-0.023665 -0.001141 0.006575
-0.022703 0.002856 0.005866
-0.022907 -0.001139 -0.006540
-0.023589 -0.000216 0.006695
-0.020141 0.000730 0.006388
-0.020677 -0.000930 0.006451
-0.021793 -0.001712 -0.006408
-0.018749 0.000200 0.006380
-0.023159 0.000226 -0.006619
-0.019308 -0.001550 -0.006303
-0.015459 0.001957 -0.005735
-0.015702 0.000651 0.006095
-0.017392 -0.002000 -0.006082
-0.018589 -0.000134 0.006412
-0.014864 -0.000406 -0.006141
-0.018173 -0.002000 0.006139
-0.017845 0.000258 0.006305
-0.017072 0.002119 0.005796
-0.015369 0.001091 -0.006016
-0.015040 0.002841 0.005319
-0.017604 0.002064 -0.005865
-0.018257 -0.001989 -0.006151
-0.014924 0.000155 -0.006107
-0.016134 -0.001274 -0.006118
-0.014624 0.001854 0.005704
-0.016051 -0.001883 -0.006030
-0.014706 0.002390 0.005490
-0.015833 -0.000367 -0.006215
-0.014845 0.000524 0.006049
-0.016446 0.001318 0.006064
-0.016830 0.000886 0.006148
-0.017745 0.000917 0.006213
-0.014031 0.000862 0.005944
-0.017706 -0.000343 -0.006353
-0.018627 -0.000704 0.006369
-0.017825 -0.001198 0.006245
-0.015596 0.000177 0.006150
-0.014526 0.000920 0.005974
-0.015297 0.000098 -0.006142
-0.016506 -0.001414 -0.006126
-0.016117 0.002604 -0.005520
-0.014025 -0.000818 -0.006026
-0.016308 0.000968 0.006100
-0.017473 -0.001708 0.006152
-0.018047 0.000039 -0.006353
-0.018614 0.002478 0.005773
-0.014489 0.000917 -0.005974
-0.016881 0.000208 -0.006245
-0.016586 0.001711 0.005923
-0.013733 0.000650 -0.005954
-0.018360 0.002524 -0.005736
-0.017637 0.001698 0.006015
-0.018214 -0.001181 0.006276
-0.018286 0.000863 0.006260
-0.014988 -0.002093 -0.005863
-0.017906 0.002675 -0.005636
-0.018695 0.001460 0.006199
-0.015182 0.000654 -0.006060
-0.015318 -0.001941 0.005949
-0.015879 0.002096 -0.005711
-0.014355 0.000381 0.006031
-0.016218 -0.000617 -0.006210
-0.018162 0.001962 -0.005953
-0.014992 -0.000335 0.006156
-0.018368 0.001669 0.006086
-0.015989 -0.000909 -0.006155
-0.018692 -0.000875 -0.006354
-0.015051 0.001693 -0.005811
-0.014493 0.002836 -0.005276
-0.016032 0.000328 -0.006166
-0.014593 -0.001312 0.005998
-0.018603 0.001340 -0.006223
-0.014712 -0.001105 -0.006038
-0.014821 -0.002062 0.005861
-0.016861 0.002421 -0.005657
-0.016454 -0.001681 0.006083
-0.014584 0.002204 -0.005561
-0.014900 -0.001647 -0.005980
-0.018276 0.001638 -0.006097
-0.015448 -0.000241 -0.006198
-0.016429 0.000237 -0.006208
-0.013981 0.002809 0.005242
-0.016058 0.000439 0.006150
-0.017327 -0.001143 0.006218
-0.015141 0.000182 0.006115
-0.017253 -0.000477 0.006300
-0.015304 0.002520 0.005486
-0.017355 0.001122 0.006157
-0.015360 0.001916 0.005739
-0.015386 -0.000663 -0.006144
-0.018212 0.000113 0.006351
-0.016395 -0.000119 0.006248
-0.016569 -0.000881 -0.006201
-0.018388 0.000307 -0.006343
-0.014794 0.000550 -0.006045
-0.016320 0.002448 0.005598
-0.016466 -0.002131 0.005956
-0.017573 0.000009 -0.006322
-0.017728 -0.000938 -0.006277
-0.014217 0.002046 -0.005597
-0.018121 0.002745 0.005622
-0.016386 0.002109 0.005744
-0.016005 0.002131 0.005704
-0.018607 0.000634 -0.006316
-0.014601 -0.001729 0.005943
-0.016979 0.001384 -0.006096
-0.016469 0.001652 -0.005943
-0.014664 0.001612 -0.005813
-0.013734 -0.001231 0.005946
-0.016463 0.000529 0.006168
-0.014310 0.000229 -0.006052
-0.016765 0.002364 0.005669
-0.015913 0.001591 -0.005923
-0.017932 0.000569 -0.006275
-0.016328 -0.000599 0.006218
-0.018521 -0.001495 -0.006260
-0.018263 0.000484 0.006307
-0.016669 -0.000380 -0.006274
-0.017227 0.001857 -0.005920
-0.015881 0.001029 0.006060
-0.014178 0.002338 0.005469
-0.017315 -0.000892 -0.006253
-0.016640 0.002863 -0.005455
-0.016439 0.002376 -0.005641
-0.015968 -0.001746 0.006039
-0.015037 0.002149 0.005617
-0.018066 -0.001655 -0.006207
-0.014101 -0.001782 -0.005905
-0.016532 0.002022 -0.005795
-0.016048 -0.001259 0.006109
-0.017570 0.002282 0.005769
-0.016592 0.002845 0.005456
-0.018007 0.002166 0.005852
-0.014562 -0.001839 -0.005931
-0.014704 -0.000772 0.006078
-0.017070 0.002861 0.005488
-0.017211 -0.000300 -0.006323
-0.015663 0.000181 -0.006158
-0.015606 0.002340 -0.005588
-0.016382 -0.000129 -0.006253
-0.014939 0.001012 -0.005995
-0.014166 0.001871 0.005660
-0.014322 -0.001453 -0.005964
-0.015342 -0.001653 -0.006011
-0.015871 0.001031 -0.006061
-0.018433 0.002014 0.005950
-0.018207 -0.001122 -0.006287
-0.018257 0.001145 -0.006223
-0.014134 -0.001720 0.005911
-0.017090 -0.001521 0.006149
-0.018296 -0.000667 -0.006353
-0.014219 0.001600 -0.005782
-0.017633 -0.001617 -0.006181
-0.017348 0.002576 0.005629
-0.017349 0.000533 0.006233
-0.015084 -0.000908 0.006087
-0.017301 0.001165 -0.006150
-0.014328 0.001314 0.005903
-0.016728 0.000951 -0.006136
-0.017865 -0.001629 0.006191
-0.016537 -0.001821 -0.006075
-0.013985 0.000004 -0.006058
-0.015014 0.001614 0.005836
-0.015385 -0.000373 0.006180
-0.014374 -0.002078 0.005821
-0.017569 0.000867 -0.006209
-0.013929 0.000463 0.005989
-0.015580 -0.001606 0.006030
-0.016973 -0.000609 -0.006266
-0.014906 0.001260 0.005958
-0.014120 -0.001324 0.005962
-0.016897 -0.001135 0.006188
-0.014940 -0.001484 0.006000
-0.017751 -0.000235 0.006363
-0.013920 0.001602 0.005751
-0.017244 0.002401 -0.005696
-0.017975 0.001241 0.006187
-0.014175 -0.000414 -0.006090
-0.016865 0.000286 0.006229
-0.017244 0.001737 0.005966
-0.017877 0.001734 -0.006024
-0.017717 0.001315 -0.006160
-0.014473 -0.000247 0.006121
-0.015385 0.000862 0.006045
-0.016238 0.001217 -0.006064
-0.013722 -0.001641 0.005891
-0.016488 -0.001009 0.006175
-0.015873 -0.000721 0.006169
-0.015620 -0.001157 0.006092
-0.018622 0.000589 0.006320
-0.018090 -0.000478 0.006360
-0.018500 -0.000301 -0.006416
-0.018642 -0.002032 -0.006162
-0.015323 -0.001220 -0.006067
-0.017138 -0.002122 0.006010
-0.015856 -0.000240 0.006223
-0.015678 -0.001849 -0.006010
-0.015575 0.001234 0.006011
-0.016042 0.001431 0.005995
-0.014762 0.000137 0.006093
-0.013766 -0.001217 -0.005955
-0.013794 0.001223 0.005880
-0.014280 0.002404 -0.005453
-0.015579 0.000570 -0.006101
-0.018487 0.002174 -0.005891
-0.018282 -0.001627 0.006221
-0.017019 -0.001818 -0.006110
-0.015554 0.001453 -0.005951
-0.016299 0.000678 -0.006140
-0.015767 0.002489 0.005536
-0.015092 -0.000892 -0.006093
-0.015620 -0.001001 -0.006117
-0.016179 0.001796 0.005856
-0.013897 -0.000758 0.006022
-0.016963 0.001505 0.006040
-0.015013 0.000883 0.006014
-0.015707 0.001707 0.005854
-0.016814 -0.001941 0.006061
-0.017443 0.000065 0.006301
-0.014297 -0.000679 0.006061
-0.017726 -0.000677 0.006308
-0.016975 0.000633 -0.006196
-0.014330 -0.001044 -0.006018
-0.016987 -0.001122 -0.006199
-0.013798 0.001485 -0.005795
-0.015123 0.002574 -0.005452
-0.017356 -0.001340 -0.006197
-0.013932 -0.000040 0.006055
-0.014236 0.001222 -0.005915
-0.014102 0.002743 -0.005298
-0.016767 -0.000445 0.006270
-0.017010 -0.000074 0.006287
-0.018669 -0.001753 0.006232
-0.015113 0.002098 -0.005648
-0.014557 -0.000108 -0.006115
-0.014652 0.002863 0.005265
-0.015777 -0.001372 -0.006079
-0.017373 0.000523 -0.006240
-0.017977 0.002319 -0.005790
-0.014157 0.000624 -0.005989
-0.015442 -0.000746 0.006134
-0.017432 0.001558 -0.006061
-0.014541 -0.000602 -0.006092
-0.011238 0.000305 0.005780
-0.013162 0.001531 -0.005724
-0.011568 0.002774 0.005005
-0.009581 0.000765 -0.005566
-0.009153 -0.000533 -0.005639
-0.011904 0.001370 0.005666
-0.009726 0.001520 0.005377
-0.012254 0.001205 -0.005762
-0.011057 0.002138 -0.005264
-0.009273 -0.001733 0.005487
-0.009289 0.000108 0.005621
-0.009324 -0.001873 -0.005453
-0.011114 -0.000972 -0.005764
-0.011060 -0.001282 0.005713
-0.010896 -0.001626 0.005652
-0.009643 -0.000383 -0.005704
-0.013266 0.002603 -0.005288
-0.012904 0.002729 0.005198
-0.012213 0.001043 0.005776
-0.012008 0.001778 0.005508
-0.013595 -0.002068 0.005767
-0.010378 0.001383 -0.005507
-0.011067 0.000156 -0.005788
-0.010025 -0.000669 0.005699
-0.011963 0.000487 -0.005829
-0.009286 -0.000875 0.005603
-0.012201 -0.001356 -0.005814
-0.013362 0.001850 0.005603
-0.009986 0.001003 0.005570
-0.012282 -0.000008 0.005919
-0.012757 0.000388 -0.005916
-0.008752 0.000999 -0.005457
-0.009673 0.002665 0.004855
-0.012520 -0.001087 -0.005879
-0.011729 -0.000044 0.005871
-0.013654 0.001807 -0.005650
-0.012914 0.001791 0.005591
-0.008996 0.002816 0.004656
-0.011421 0.000992 0.005708
-0.011431 0.002440 -0.005178
-0.010356 -0.001107 -0.005675
-0.009058 0.001375 -0.005373
-0.011951 0.002228 -0.005320
-0.011116 -0.001927 0.005604
-0.010744 -0.000548 0.005782
-0.010127 -0.000045 0.005719
-0.010754 0.000903 0.005656
-0.012201 0.002391 0.005276
-0.011945 -0.001942 0.005678
-0.013354 0.000703 -0.005919
-0.012318 -0.000726 0.005904
-0.012867 0.002775 -0.005166
-0.009672 -0.001385 -0.005575
-0.012993 -0.001926 0.005780
-0.010358 -0.001716 -0.005596
-0.012458 0.002546 -0.005241
-0.013003 -0.000859 0.005944
-0.011452 0.001916 -0.005397
-0.009013 0.000938 0.005486
-0.009290 0.001221 0.005455
-0.009848 0.001398 -0.005445
-0.012885 0.001268 -0.005809
-0.009502 0.002752 -0.004773
-0.009307 0.002142 0.005077
-0.012897 -0.001699 -0.005830
-0.012503 0.002677 0.005189
-0.010174 -0.001898 0.005523
-0.012861 0.000012 0.005969
-0.011319 -0.000627 -0.005828
-0.009694 0.000227 0.005644
-0.009337 0.000162 -0.005623
-0.012774 -0.001340 0.005863
-0.008858 0.002461 0.004899
-0.013641 0.002554 -0.005339
-0.010817 0.001783 -0.005387
