ply
format ascii 1.0
element vertex 1773
property float x
property float y
property float z
end_header
0.636161 6.326340 0.125000
0.222152 5.531970 0.439164
0.214016 5.322050 0.422190
0.659813 6.005210 0.125000
0.941905 7.052770 0.125000
0.146352 6.478650 0.377884
0.193457 6.414360 0.125000
0.878034 6.610300 0.125000
0.952714 6.162130 0.125000
0.910437 7.501290 0.380465
0.938972 7.368130 0.491109
0.164789 5.982990 0.563924
0.427756 7.415450 0.625000
0.755938 7.700260 0.125000
0.797894 6.917110 0.125000
0.303370 7.162760 0.625000
0.505770 5.311320 0.625000
0.955239 6.073200 0.125000
0.154485 6.023420 0.247377
0.860737 5.741730 0.625000
0.890683 7.033820 0.125000
0.357421 6.072600 0.625000
0.141779 6.578300 0.498555
0.233435 7.006030 0.184161
1.072140 5.967450 0.125000
0.895883 7.569210 0.125132
0.591886 5.386800 0.625000
0.284759 7.245540 0.256176
0.837688 7.840790 0.421706
0.593750 5.738010 0.327359
0.185554 6.439450 0.261087
0.726110 5.490950 0.125000
1.072600 5.927360 0.163466
0.181397 6.763190 0.274431
0.309084 6.546900 0.125000
0.518960 6.722820 0.125000
0.738788 7.391650 0.125000
0.275659 6.440160 0.625000
0.764833 7.143540 0.454904
0.819508 5.898430 0.125000
0.708304 5.470440 0.625000
0.198570 6.273980 0.187192
0.656250 5.856490 0.529118
0.584836 7.535520 0.623284
0.383383 5.964780 0.125000
0.332738 7.469450 0.372021
0.901264 5.653320 0.125000
1.078300 6.169370 0.261101
0.671284 6.853930 0.564079
0.883528 7.505160 0.625000
0.398293 6.042560 0.625000
0.564598 5.301010 0.183125
0.172600 6.708730 0.125000
0.915052 5.800200 0.125000
0.555945 6.464690 0.625000
0.752538 6.477340 0.625000
1.063080 6.384590 0.248540
1.030490 5.691190 0.625000
0.182218 5.904540 0.372437
0.858283 7.744680 0.355004
0.870731 7.686590 0.243712
0.991394 6.901860 0.625000
0.440025 6.252220 0.625000
0.380599 6.745890 0.625000
0.334184 7.465730 0.125000
0.593750 5.672070 0.337280
1.075350 6.450350 0.180805
0.940323 5.876220 0.125000
0.593750 5.702470 0.285191
0.656250 5.944390 0.488795
0.370971 7.647870 0.436366
0.892426 7.230070 0.125000
0.773242 5.743140 0.125000
0.870678 6.003490 0.125000
0.324834 6.624090 0.125000
0.173735 5.944740 0.220553
0.611438 7.329930 0.125000
0.357238 7.583780 0.339915
0.371458 7.151500 0.625000
0.347924 5.708510 0.625000
0.900809 7.546230 0.545476
0.771365 6.905260 0.625000
0.509100 6.225550 0.125000
0.219421 5.611850 0.166108
0.405671 6.329330 0.625000
1.087800 6.462800 0.356773
0.654795 7.522800 0.125000
0.743912 5.799700 0.125000
0.765732 7.575140 0.625000
0.426363 7.906360 0.378267
0.210253 5.725460 0.266103
0.368692 7.375050 0.625000
0.558341 8.250000 0.127839
1.037340 6.909060 0.540771
1.073610 6.173830 0.399273
0.691690 8.025860 0.625000
0.715279 5.841460 0.625000
0.356943 7.582400 0.128264
1.097950 6.626230 0.128130
0.833387 5.954150 0.125000
0.854741 7.708100 0.625000
1.096300 6.552730 0.625000
0.435653 5.661020 0.625000
0.817770 6.355840 0.125000
0.586746 7.219600 0.125000
0.717472 6.893930 0.526078
0.434875 6.686380 0.625000
0.573332 8.250000 0.552648
0.189795 6.308230 0.411477
0.762947 5.947500 0.125000
0.176823 6.741840 0.419311
0.385675 6.259160 0.625000
0.502909 6.060340 0.125000
0.656250 5.728880 0.277391
0.490068 6.942990 0.522209
0.765962 6.542980 0.125000
0.464160 8.082750 0.604649
1.026840 6.958100 0.265334
0.844679 6.650880 0.125000
0.406147 7.812020 0.567582
0.190209 6.804310 0.451722
0.788885 8.068540 0.609328
0.703728 7.848200 0.125000
0.457041 7.846420 0.125000
1.003850 7.065370 0.540721
0.482403 8.167880 0.231725
0.433302 7.489810 0.125000
0.436235 6.729820 0.125000
0.877523 6.224280 0.625000
0.774332 7.922310 0.125000
0.159325 6.660180 0.455060
0.232264 7.000570 0.568718
0.304134 5.566340 0.625000
0.267868 5.455120 0.625000
0.550782 8.130970 0.125000
0.379618 7.205890 0.625000
0.790497 7.710990 0.625000
0.239108 7.032500 0.329666
0.781173 5.996390 0.125000
1.019360 6.992990 0.368507
1.098100 6.625550 0.252237
1.063650 6.786320 0.444907
1.082420 6.165450 0.617981
1.105730 6.143300 0.374643
0.646362 6.181940 0.625000
0.532471 5.264490 0.625000
0.129605 6.109630 0.128572
1.050570 6.656480 0.125000
0.779362 6.722510 0.125000
0.823274 6.172650 0.125000
0.593750 5.637580 0.224938
0.293451 5.852520 0.125000
0.163494 6.679640 0.241160
0.207866 5.263710 0.620335
0.380120 7.365470 0.125000
0.628088 6.726010 0.125000
1.048800 5.797550 0.396665
0.756190 7.342430 0.125000
1.102340 6.605730 0.622171
0.846071 6.822610 0.125000
0.166483 5.976340 0.621881
1.081470 6.456470 0.598189
0.506100 8.071830 0.125000
0.471848 5.586780 0.125000
0.851164 6.270220 0.625000
0.858590 6.215320 0.125000
0.593750 5.711420 0.134951
1.067300 6.179820 0.165121
0.761265 6.177650 0.125000
0.424857 7.899330 0.277187
0.697844 5.271000 0.625000
0.581521 6.852050 0.491605
0.770311 7.443780 0.125000
0.201814 6.858470 0.202256
1.078200 5.953880 0.585056
0.650883 6.586680 0.125000
0.382603 6.946190 0.625000
0.244896 7.059510 0.246398
0.709926 8.124950 0.125000
0.421588 6.912940 0.625000
0.707573 8.250000 0.623676
0.887941 7.606280 0.574835
0.593750 5.682960 0.619439
0.801743 8.007070 0.625000
0.798579 5.697550 0.125000
0.994868 7.107280 0.338410
1.003410 6.020610 0.625000
1.007870 7.046590 0.453833
0.418589 5.986110 0.625000
0.318421 6.316150 0.625000
0.802724 8.003950 0.346834
1.066130 5.896720 0.209358
0.460422 6.190670 0.125000
0.225450 6.166810 0.625000
1.019270 5.933000 0.125000
0.933663 7.106170 0.125000
0.272883 6.815310 0.625000
0.264258 6.030800 0.125000
0.907389 5.701090 0.625000
0.939783 6.899520 0.625000
0.406518 7.195670 0.582460
0.221257 6.949200 0.548091
0.485049 7.831690 0.625000
0.343561 7.519950 0.365881
1.042200 5.744990 0.395272
0.212562 6.908620 0.188276
1.068440 6.443440 0.250515
0.441526 6.796380 0.625000
0.299835 7.315900 0.241684
0.521659 5.365130 0.625000
0.213956 5.734350 0.625000
0.772180 8.146490 0.334302
0.593750 5.840640 0.539330
0.831134 7.871370 0.463014
0.710899 7.047830 0.424085
0.903208 6.776270 0.625000
1.050240 6.269350 0.378775
0.904598 6.171280 0.625000
0.149421 6.613970 0.369201
0.206556 5.754900 0.210128
1.058070 6.299890 0.200509
0.656250 5.673090 0.259747
0.853385 7.767540 0.511407
0.131843 6.531930 0.364721
1.034300 5.665850 0.574228
0.178782 6.750980 0.532961
0.543859 6.882950 0.510893
1.029510 6.330610 0.125000
0.527164 7.536940 0.625000
0.458317 8.035720 0.625000
0.637448 8.250000 0.313565
0.697766 6.491560 0.625000
0.593750 5.776890 0.290895
0.406197 5.433380 0.125000
0.478029 6.649140 0.625000
0.230189 5.574580 0.125000
1.062700 6.419080 0.373400
0.269159 7.172740 0.282203
0.361892 5.818530 0.125000
1.093600 6.154840 0.553704
0.892289 7.585990 0.252509
0.760459 8.201190 0.394699
0.842302 7.176440 0.529703
1.059880 6.306970 0.254571
1.059110 5.859020 0.456588
0.773171 7.321390 0.459669
0.593750 5.861920 0.467865
0.778176 5.622540 0.625000
0.494784 7.259110 0.449409
0.425539 7.573620 0.125000
0.184932 6.092000 0.125000
0.499534 5.542460 0.125000
0.189332 6.800220 0.390960
0.774506 8.135640 0.617767
0.279475 7.086820 0.125000
0.326477 6.803690 0.625000
0.606940 8.071540 0.125000
1.066770 6.180320 0.315607
0.761683 8.134750 0.125000
0.743901 6.781670 0.125000
0.935359 7.384990 0.544336
0.636326 7.456680 0.381472
0.231850 6.862610 0.625000
0.710106 6.837100 0.125000
0.680715 7.339400 0.125000
0.212585 6.219270 0.622541
0.656250 5.939370 0.341764
0.839447 5.534270 0.625000
0.656250 5.525600 0.409745
0.469264 8.106570 0.405086
1.045840 6.852140 0.625000
0.510438 8.250000 0.623212
0.535654 8.188400 0.125000
0.717165 6.893630 0.582493
0.579632 7.781460 0.125000
0.898240 7.171340 0.625000
0.642866 7.379300 0.125000
0.474937 8.133040 0.336350
0.416212 7.649680 0.125000
0.539603 7.252100 0.423798
0.698609 7.937030 0.125000
0.902734 7.537240 0.441314
0.212671 5.305810 0.261894
0.751786 6.931660 0.578221
0.288199 7.261590 0.621656
0.957928 6.476980 0.125000
0.167518 6.698420 0.493083
0.775099 8.132870 0.397778
1.046670 5.780600 0.191533
0.784226 6.363470 0.625000
0.965728 5.512680 0.125000
0.762467 6.825040 0.625000
1.007450 5.743130 0.625000
0.163834 6.681220 0.171736
0.501487 8.250000 0.409341
0.711960 7.262340 0.424692
0.552571 5.565510 0.625000
0.939752 5.770310 0.625000
0.989406 7.132770 0.413737
0.766180 8.174500 0.223420
0.205926 5.759920 0.477200
0.342600 7.515470 0.126985
0.293975 5.368310 0.125000
0.760725 8.190840 0.625000
0.648026 7.849490 0.625000
0.411732 6.832990 0.125000
0.485322 5.918220 0.125000
0.359184 7.243090 0.125000
0.593750 5.558680 0.146147
0.262191 6.205000 0.625000
1.092400 6.652120 0.570960
0.781167 7.412800 0.564418
0.922638 7.444360 0.228592
0.980434 5.674800 0.625000
0.656250 5.914170 0.544008
0.845298 6.776580 0.625000
0.221900 6.743310 0.125000
1.056000 6.715840 0.125000
0.291208 7.275640 0.128268
0.335340 5.339340 0.125000
0.415389 7.855150 0.170775
0.593750 5.628330 0.158202
0.396031 6.694690 0.125000
0.432090 7.391220 0.125000
0.215221 6.921030 0.493760
0.239997 7.036650 0.140670
0.689033 5.518800 0.625000
0.775566 6.964750 0.612771
0.864043 7.717800 0.293681
0.656250 5.397000 0.178403
0.970376 7.221580 0.180009
0.471139 5.683330 0.125000
1.043310 5.955560 0.625000
1.001950 6.273650 0.625000
0.656250 5.810720 0.322054
0.477695 7.326350 0.125000
0.656250 5.851100 0.622560
0.870417 6.985940 0.125000
1.101320 6.045940 0.225560
0.593750 5.654600 0.574907
0.837423 7.842020 0.618791
0.246639 6.445650 0.125000
0.530382 7.489330 0.488277
0.234035 6.763740 0.625000
0.558265 7.171080 0.125000
0.385679 6.984340 0.125000
0.359846 7.595950 0.198958
1.035060 6.919740 0.597563
0.319383 6.284580 0.125000
1.074740 6.684130 0.625000
0.744717 8.250000 0.388491
0.308021 5.511270 0.625000
0.484557 5.377720 0.125000
0.713570 7.325640 0.425612
0.672559 8.250000 0.355134
0.642215 6.142430 0.125000
0.479333 8.153550 0.388426
0.308945 7.358410 0.201103
0.376812 7.323970 0.625000
0.390235 7.156320 0.125000
0.281801 6.815320 0.125000
0.424349 5.381400 0.125000
0.757657 8.214270 0.329406
0.762254 8.192810 0.172332
0.749591 5.553100 0.125000
0.946152 6.369450 0.625000
0.449836 8.015900 0.576745
0.508044 8.250000 0.131970
0.181343 6.762940 0.623991
0.464023 8.082110 0.337280
0.589189 6.983570 0.125000
0.627360 7.251920 0.125000
0.316101 6.194220 0.125000
0.864702 6.875200 0.625000
0.874397 6.718370 0.625000
0.461931 7.217960 0.468182
0.840030 6.761380 0.125000
0.567315 6.073160 0.125000
0.654713 7.123060 0.125000
1.040670 5.732780 0.215644
0.792028 6.132770 0.125000
0.245782 7.063650 0.561306
0.719560 7.636360 0.625000
0.418811 7.871120 0.454467
0.863484 7.418660 0.625000
0.845413 6.397980 0.625000
0.481305 7.545420 0.125000
1.034490 6.429470 0.625000
0.219131 5.388800 0.412642
0.707647 6.055620 0.125000
1.074110 6.737480 0.572015
0.876737 5.284320 0.625000
0.536960 5.362140 0.125000
0.444095 7.160260 0.125000
0.521164 7.480400 0.622251
0.315981 6.476840 0.625000
0.203646 5.778070 0.601201
0.237242 5.967560 0.125000
0.162089 5.993580 0.489723
0.225240 6.373870 0.125000
0.920528 5.839470 0.625000
0.275340 6.503030 0.125000
0.172529 6.170160 0.256237
1.089920 6.001480 0.320066
0.386262 6.455800 0.125000
0.622956 7.669330 0.125000
0.616225 6.377580 0.625000
0.795389 6.401820 0.125000
0.495242 6.348360 0.125000
1.032990 6.153510 0.125000
0.837559 7.123310 0.518429
0.524012 5.509920 0.625000
0.550163 7.907410 0.625000
0.299226 7.313050 0.307103
0.774728 8.134600 0.468912
0.193712 5.842210 0.313603
0.924160 7.357150 0.625000
0.635086 8.010050 0.625000
0.497928 7.086780 0.447613
0.876161 5.852390 0.125000
0.966135 7.241370 0.483930
0.167132 6.696620 0.392879
0.167104 5.973910 0.263051
0.481551 5.971290 0.625000
0.912277 5.464560 0.125000
0.656250 5.542110 0.306901
0.186929 6.385580 0.373456
0.792839 8.050090 0.320332
0.593750 5.844870 0.622418
1.002300 6.682060 0.125000
0.776669 7.815130 0.625000
0.364645 6.994420 0.625000
0.224881 6.966110 0.222615
0.199795 5.806010 0.272796
0.729033 7.528430 0.125000
0.543816 6.528060 0.625000
0.201582 6.857380 0.127198
1.086140 6.681330 0.406343
0.186581 6.353900 0.575836
0.968340 7.231080 0.323305
0.618945 7.942400 0.625000
0.227670 6.537170 0.125000
0.217865 5.368490 0.183387
0.671984 6.904900 0.125000
0.710011 6.062370 0.625000
1.063700 6.327990 0.372859
0.624782 6.633100 0.125000
0.707908 8.181760 0.625000
0.833848 6.915950 0.625000
0.958145 7.278660 0.213365
0.650947 7.625440 0.625000
1.040320 6.895150 0.271562
0.347610 7.538850 0.196814
0.676862 7.084450 0.404636
0.593750 5.477290 0.565857
1.005270 5.493120 0.625000
0.394172 7.743170 0.625000
0.183296 6.441700 0.210022
1.008190 5.424530 0.625000
0.925976 7.428780 0.376461
0.253053 6.263110 0.625000
0.661691 5.652900 0.125000
0.915086 7.479600 0.440962
0.404086 7.802400 0.186482
0.784862 5.890300 0.625000
0.451300 7.006610 0.511287
0.656250 5.545600 0.248465
0.728093 7.481120 0.519843
1.063440 6.352340 0.202564
0.590713 6.154550 0.125000
0.219612 5.400460 0.357468
0.471985 6.538600 0.625000
0.728708 5.565390 0.625000
0.768930 5.351170 0.625000
0.521561 7.197690 0.434108
0.515043 5.978540 0.125000
1.065870 6.775940 0.620445
0.823390 7.907520 0.498894
0.401923 6.780910 0.125000
1.087320 6.462320 0.424295
0.686703 6.864290 0.621908
1.012960 7.022860 0.502921
0.561115 6.084100 0.625000
0.146766 6.478230 0.222772
0.982108 7.166830 0.194182
0.585999 5.787100 0.625000
0.820456 6.315160 0.625000
0.201604 5.794330 0.435855
0.710105 7.824700 0.625000
0.186826 6.376210 0.165802
0.656944 6.679650 0.125000
0.306153 7.345380 0.561868
0.620390 5.946510 0.305943
0.881245 7.620580 0.125000
0.217651 5.365910 0.238914
0.699363 6.739680 0.625000
0.267053 6.134000 0.625000
1.057320 6.815850 0.580427
0.216526 5.352340 0.301423
0.198187 6.275470 0.603318
0.392518 7.534410 0.125000
1.022270 6.979420 0.181625
0.650778 7.801850 0.125000
0.250694 7.086570 0.486420
1.067900 6.766490 0.396833
0.973097 6.060860 0.625000
0.467145 7.762930 0.625000
0.149854 6.041600 0.531089
0.773542 6.532760 0.625000
0.955294 7.291960 0.346412
0.359527 7.255670 0.625000
0.205102 5.823830 0.625000
0.642723 8.129830 0.125000
0.593750 5.676450 0.394604
0.593750 5.556080 0.403762
1.113340 6.554420 0.232425
0.627917 6.022230 0.625000
0.721334 7.302880 0.125000
0.929389 7.412850 0.169689
0.728592 6.230860 0.125000
0.806303 5.755250 0.625000
0.490932 8.207690 0.437034
1.068580 5.908310 0.539188
0.656250 5.393120 0.232192
0.979489 6.943090 0.125000
0.890660 7.593590 0.304362
1.114960 6.091500 0.385762
0.467581 7.411060 0.575475
0.799971 8.016800 0.161429
0.835751 7.849830 0.205713
0.192406 6.814560 0.605134
0.410778 6.927900 0.125000
0.656250 5.865980 0.291490
0.602251 7.547220 0.506710
0.962999 5.828740 0.125000
0.800206 7.313470 0.125000
0.330033 7.456820 0.436830
0.220479 5.586610 0.311371
0.870371 5.492440 0.625000
0.757521 7.649090 0.125000
0.133343 6.097150 0.552405
0.968223 5.775080 0.125000
0.153011 6.029210 0.339640
0.804103 6.452030 0.625000
0.802285 7.368450 0.125000
0.743734 7.582550 0.125000
1.000510 6.627090 0.125000
0.413989 5.813150 0.625000
0.646172 7.902010 0.125000
1.120880 6.128910 0.590384
0.593750 5.849210 0.129065
0.646202 6.748080 0.625000
0.194878 6.191390 0.492347
0.656250 5.522330 0.356645
0.884738 5.949510 0.625000
1.040040 5.727780 0.579588
0.637115 7.851110 0.125000
0.200122 5.804060 0.166360
0.466332 7.123720 0.465668
1.054180 6.830480 0.420692
0.331588 7.408120 0.125000
0.258741 7.124130 0.560276
0.882887 5.802610 0.625000
1.087810 6.160330 0.212285
0.484459 6.577370 0.125000
0.187005 6.392520 0.609082
0.561905 8.221310 0.625000
0.957721 7.280640 0.288325
0.593750 5.410520 0.233334
0.779898 8.110480 0.294277
0.925271 7.432070 0.427432
0.685179 6.008960 0.625000
0.205713 6.246090 0.480132
0.839676 6.448560 0.125000
0.577145 5.334470 0.145023
1.063060 6.386400 0.539124
0.656250 5.899300 0.464222
0.381330 7.444290 0.125000
1.026380 5.715640 0.125000
0.292649 6.638800 0.625000
1.105500 6.480500 0.468383
0.715305 7.493510 0.599783
0.656250 5.714580 0.414378
0.769148 5.939230 0.625000
0.540997 7.341520 0.423002
0.210196 6.897580 0.550810
0.487604 6.863710 0.125000
0.222156 5.522110 0.305306
0.977301 7.189260 0.427337
0.957103 5.511370 0.625000
0.289126 6.078740 0.625000
1.101780 6.608360 0.314976
0.918951 6.956550 0.125000
0.368053 7.634250 0.370812
1.122870 6.497870 0.205732
0.656250 5.631290 0.192256
0.350453 7.552120 0.545109
0.551207 6.281750 0.125000
1.062670 6.790880 0.132387
1.110990 6.565370 0.379564
1.020240 6.988870 0.307323
0.995660 7.103590 0.129354
0.967303 7.235920 0.244459
0.656250 5.472620 0.245087
0.681093 7.248560 0.125000
0.762254 7.194150 0.125000
0.366922 6.131380 0.625000
0.283924 6.385380 0.625000
0.875262 7.665440 0.579283
0.402039 7.792850 0.411670
0.877709 7.654030 0.287878
0.901848 5.558480 0.625000
0.924746 7.434520 0.303591
0.486656 7.117180 0.125000
0.370960 7.309820 0.125000
0.783395 8.094160 0.240939
0.812432 7.958650 0.169153
0.360591 5.522230 0.625000
0.204856 6.872660 0.399664
0.812577 7.090140 0.125000
0.674060 7.894090 0.625000
0.372960 6.446540 0.625000
0.692666 7.515440 0.497331
0.489559 6.923080 0.125000
0.996359 6.712670 0.625000
0.465543 7.634110 0.625000
1.041070 6.056870 0.625000
0.593750 5.541300 0.223274
0.412141 7.765990 0.125000
0.444661 7.987560 0.125000
0.280735 7.226760 0.142039
0.577203 5.334630 0.583759
0.593750 5.630610 0.622205
0.509045 6.776170 0.625000
0.302140 5.796770 0.125000
0.454987 6.744180 0.625000
0.619817 6.213480 0.125000
0.935378 6.898700 0.125000
0.902145 7.280020 0.125000
0.807508 7.624970 0.125000
0.310063 6.161630 0.625000
0.728791 6.970890 0.125000
0.329138 6.746950 0.625000
0.591934 7.554870 0.125000
0.975928 7.195670 0.559297
0.584443 5.392220 0.125000
0.358497 7.589650 0.584917
0.382741 5.202880 0.125000
0.146182 6.598850 0.448987
0.750502 8.247660 0.593543
1.110740 6.566570 0.569482
0.496004 7.803550 0.125000
0.687475 7.956650 0.625000
0.812576 7.887100 0.625000
0.448837 5.289810 0.625000
0.919320 6.309260 0.125000
0.584854 5.733090 0.625000
0.261642 7.137660 0.235100
0.593750 5.502850 0.508669
0.783166 8.095230 0.434928
0.608078 7.617830 0.125000
0.696824 5.957610 0.625000
0.841047 7.484070 0.125000
0.854707 6.936890 0.125000
0.234345 7.010270 0.260065
0.339220 5.403840 0.125000
0.186340 6.331980 0.456884
0.717772 6.591190 0.125000
0.221418 5.444330 0.403582
0.593897 7.718830 0.125000
0.219093 5.619670 0.384531
0.708145 5.581860 0.125000
0.593750 5.509710 0.441714
0.319757 5.271470 0.125000
0.761451 7.765540 0.625000
0.936743 7.365020 0.125000
0.152702 6.629280 0.498299
0.654032 7.580190 0.125000
0.959111 7.274150 0.126580
0.524310 6.106240 0.125000
0.426291 7.795180 0.625000
0.657787 5.795090 0.125000
0.906540 5.583800 0.125000
1.018360 6.997630 0.579968
0.610134 6.228620 0.625000
0.407420 7.514690 0.625000
0.416543 7.860530 0.237513
0.618969 6.277030 0.125000
0.421900 7.085110 0.568300
0.393180 7.751510 0.187283
0.186625 5.883660 0.428396
1.101140 6.045360 0.437877
0.842769 7.203660 0.623985
0.276791 6.312190 0.125000
1.064730 6.781260 0.344680
0.473563 8.126630 0.466942
0.432217 7.588400 0.625000
0.656250 5.708370 0.469176
0.870491 6.336860 0.625000
0.825494 7.897690 0.320780
0.426787 5.178710 0.625000
0.282096 6.595930 0.125000
0.258024 5.515470 0.125000
1.056260 6.099350 0.125000
0.656250 5.926930 0.610473
0.733268 7.095650 0.436868
0.203281 6.255590 0.132003
0.326236 6.980240 0.125000
0.233946 6.577450 0.625000
1.088460 6.670540 0.352298
0.730052 8.197170 0.125000
0.755720 7.836880 0.125000
0.189977 6.326400 0.625000
1.117840 6.533410 0.168806
0.494601 6.592940 0.625000
0.222168 5.488150 0.353997
0.656250 5.408710 0.505111
0.404314 6.396160 0.125000
0.693658 7.625880 0.125000
0.892477 5.390790 0.125000
1.099910 6.148840 0.142131
0.282611 7.235520 0.547262
0.349439 7.547380 0.256985
0.479873 7.213270 0.125000
0.772981 6.032450 0.625000
0.219905 5.407580 0.515461
0.708982 6.340800 0.125000
0.634141 8.250000 0.550829
0.703730 6.158870 0.125000
0.965606 6.270840 0.125000
0.745698 7.377390 0.443970
0.426891 7.908820 0.209537
0.219040 5.386600 0.616957
0.558980 7.164770 0.412726
0.521745 7.132970 0.434003
0.675474 5.327490 0.560502
0.528696 6.311790 0.625000
0.867799 6.343100 0.125000
0.603757 7.178860 0.387139
0.336712 5.177520 0.625000
1.095740 6.024300 0.563440
1.045690 5.772750 0.343390
0.675919 5.328400 0.625000
0.828840 7.882080 0.272467
0.593750 5.795070 0.339985
0.815291 5.384740 0.625000
1.096050 6.474460 0.125000
0.346526 5.227870 0.625000
0.455693 7.439350 0.125000
0.989409 5.957940 0.625000
0.403681 5.573910 0.125000
0.308230 7.355070 0.138962
0.914217 7.483650 0.500042
1.034100 6.924200 0.462125
0.656250 5.928250 0.404729
0.508098 8.250000 0.253944
0.399248 7.779820 0.232767
0.250405 5.800950 0.125000
0.644143 7.004540 0.375000
0.428175 6.090880 0.625000
0.451347 8.022950 0.193581
0.208593 5.269530 0.554737
0.478776 6.398770 0.125000
0.272173 5.732640 0.625000
0.282310 7.234110 0.377310
1.025670 5.788890 0.125000
0.963373 7.023190 0.625000
1.010420 7.034690 0.177445
0.191788 5.853660 0.231904
0.593750 5.770350 0.137578
0.928915 6.235400 0.625000
0.424284 7.308940 0.551751
0.968202 5.348210 0.625000
1.078610 5.955830 0.274026
0.300731 6.552650 0.625000
0.186655 6.360630 0.499920
0.321839 7.418580 0.364192
0.410503 7.832350 0.280003
0.656250 5.813140 0.583513
0.465757 6.976820 0.561155
0.273196 6.132040 0.125000
0.792287 7.392170 0.622521
0.128355 6.515660 0.187162
0.341054 7.508250 0.506928
0.452416 7.473890 0.625000
0.598529 7.246380 0.390127
0.760414 6.156480 0.625000
0.898020 6.392210 0.125000
0.839052 5.695130 0.625000
0.186269 6.325520 0.349507
0.928510 6.761050 0.125000
0.438322 6.197430 0.625000
0.327630 6.465090 0.125000
0.593750 5.941270 0.510698
1.039410 5.722800 0.467514
0.326373 5.455370 0.625000
0.380652 7.693040 0.397772
0.504212 7.382760 0.125000
0.727718 8.250000 0.132311
0.344215 5.897640 0.125000
0.145058 6.144060 0.207435
0.319520 7.407760 0.199979
0.595428 5.946380 0.434236
0.446349 6.963610 0.125000
0.849862 7.783980 0.417123
0.910879 7.471380 0.125000
0.500863 6.294360 0.125000
0.771406 8.150100 0.518069
0.167200 5.973530 0.419419
0.334086 6.674440 0.125000
0.920975 5.387050 0.625000
0.595150 8.250000 0.273115
0.387160 7.044650 0.625000
0.593750 5.583210 0.598383
0.305923 5.999390 0.125000
0.526509 5.415520 0.125000
0.168039 6.157890 0.625000
0.240462 7.038820 0.423742
0.285191 7.247560 0.328708
0.656250 5.427580 0.276609
0.747853 8.250000 0.438776
0.392767 7.102700 0.625000
0.437507 7.958370 0.554590
0.354657 5.462210 0.125000
0.660419 6.407660 0.625000
0.404614 6.515240 0.125000
0.377368 6.321850 0.125000
0.656250 5.852440 0.126741
0.357729 6.749880 0.125000
0.462021 8.072760 0.469030
0.186688 6.363710 0.313134
0.593750 5.896360 0.363843
1.054160 5.829520 0.229843
0.893320 6.468720 0.125000
0.948791 7.322310 0.241951
1.055100 6.288290 0.139201
0.828914 7.342860 0.625000
0.951572 6.606210 0.625000
0.580488 8.250000 0.382116
0.988366 6.662820 0.625000
0.834540 7.276690 0.613821
0.453954 6.244330 0.125000
0.407876 7.820090 0.354855
0.596976 8.211390 0.125000
0.139637 6.568310 0.188745
0.915333 7.478450 0.331501
0.319796 7.409050 0.421760
1.055500 6.289850 0.328549
0.217683 6.051410 0.125000
1.013320 5.881380 0.125000
0.815389 6.865400 0.125000
0.989921 7.130370 0.290691
0.422115 5.809510 0.125000
0.298346 5.925730 0.125000
0.145419 6.595290 0.573817
0.795043 8.039800 0.229204
1.068710 6.762680 0.293875
0.956915 7.284390 0.545743
0.474285 6.848860 0.625000
0.435535 6.474250 0.625000
0.221416 5.444270 0.608790
0.593750 5.926870 0.265280
0.484349 7.578110 0.625000
0.951050 6.118210 0.625000
0.592667 6.424290 0.625000
0.656250 5.846800 0.461429
0.588016 7.385460 0.125000
0.709111 6.391740 0.125000
1.056480 6.537020 0.125000
0.425534 5.317230 0.125000
0.345328 7.528200 0.421504
0.127330 6.510870 0.286133
0.809686 7.005980 0.625000
0.558313 6.717540 0.625000
0.905776 7.523050 0.160748
0.722051 6.720110 0.125000
0.867004 5.863910 0.625000
0.433813 7.690330 0.625000
0.692126 8.250000 0.402125
1.044530 6.201450 0.620720
0.960427 7.268010 0.406751
0.593750 5.580900 0.313394
0.579762 8.250000 0.328371
0.138155 6.486850 0.582227
0.138940 6.486060 0.127618
0.880094 7.642890 0.520746
0.579142 7.630540 0.625000
1.111410 6.563400 0.437995
0.268546 6.254620 0.125000
0.735299 8.093510 0.625000
0.406760 7.186960 0.517389
0.213317 6.912140 0.616842
0.538613 7.046660 0.424364
0.456276 8.045950 0.535814
0.910587 6.038060 0.125000
0.707311 6.447970 0.125000
0.598486 5.948060 0.125000
0.773853 7.646090 0.625000
0.656250 5.820190 0.171159
0.554238 6.944520 0.125000
1.063560 6.340940 0.293404
0.221565 5.447890 0.463973
0.296157 7.298730 0.469072
0.255363 5.295190 0.625000
0.526326 5.441880 0.625000
0.352574 6.235700 0.125000
0.182499 6.442500 0.565165
0.729668 7.780760 0.125000
0.902514 6.815200 0.125000
0.332778 7.469630 0.266685
0.513082 7.067720 0.125000
1.057590 6.814560 0.303138
1.062660 6.422940 0.451632
0.416429 7.860000 0.529601
0.222170 5.482630 0.207099
0.656250 5.556770 0.602183
0.199827 6.849190 0.332587
0.776500 7.756090 0.125000
0.430570 6.624250 0.125000
0.865457 7.529050 0.125000
0.494918 7.994520 0.125000
0.224388 6.436440 0.625000
0.154631 6.470370 0.439760
0.203624 5.778250 0.321874
0.323282 7.425320 0.475790
0.294811 5.471240 0.125000
0.656250 5.611910 0.320700
0.468610 8.103510 0.513577
0.187182 5.881020 0.183731
0.176798 6.454670 0.625000
0.604856 8.250000 0.621826
0.311755 7.046000 0.125000
0.263940 6.864170 0.125000
0.807231 7.982920 0.406618
0.435758 7.039190 0.591347
0.472841 6.291410 0.625000
0.832318 7.284810 0.560043
0.656250 5.604330 0.246954
0.320018 7.029230 0.625000
1.078650 5.956030 0.523690
0.593750 5.448050 0.270078
0.294803 5.408980 0.625000
0.731600 6.620280 0.625000
0.808807 7.975570 0.464915
0.806632 7.362100 0.556106
0.195044 5.930530 0.625000
0.437496 7.958310 0.253271
0.931082 7.404950 0.598053
0.137825 6.559850 0.248104
0.210085 5.726800 0.565159
0.172192 6.720230 0.590726
0.593750 5.715860 0.556498
0.331777 6.352840 0.125000
0.531487 8.146950 0.625000
0.593750 5.783470 0.545937
0.379428 7.687330 0.467819
1.070290 5.916440 0.466588
0.762137 7.518800 0.625000
0.593750 5.936990 0.181450
0.828637 5.654380 0.125000
0.254274 7.103280 0.423725
0.435702 7.949940 0.322365
0.889416 6.084500 0.125000
0.183986 6.775270 0.137117
1.007690 7.047450 0.283919
0.897859 7.418810 0.125000
0.429672 6.309010 0.125000
0.832162 5.819520 0.625000
0.781157 6.767450 0.625000
1.047580 6.258940 0.542844
0.656250 5.855020 0.219663
0.150338 6.149070 0.491274
0.741890 5.984340 0.625000
0.139071 6.565660 0.309425
0.939668 5.451710 0.625000
0.567526 7.950100 0.125000
0.414876 5.628700 0.125000
1.076540 6.726130 0.441775
0.547785 6.662500 0.625000
0.656250 5.437410 0.460290
0.593750 5.720270 0.455183
0.722042 5.672130 0.125000
0.184192 6.181240 0.192200
0.593750 5.944980 0.349186
0.665345 6.540540 0.625000
0.776199 7.192970 0.461399
1.061150 6.311900 0.527082
0.911867 6.305260 0.625000
0.656250 5.452330 0.185491
0.941665 7.250840 0.625000
0.698784 7.509520 0.553896
0.517623 5.637760 0.125000
0.256784 6.325030 0.625000
0.749234 7.457230 0.583827
0.669374 6.964060 0.125000
0.866747 7.705180 0.543686
0.884648 7.115780 0.625000
0.917768 6.981300 0.625000
0.554029 8.250000 0.437261
0.289609 5.566610 0.125000
1.075730 6.729920 0.349223
0.448023 6.675780 0.125000
0.178977 6.751890 0.344503
0.589390 6.140400 0.625000
0.330130 6.894890 0.625000
0.308932 7.358350 0.419425
0.593750 5.564600 0.543779
0.825651 7.896960 0.184954
0.968117 6.024050 0.125000
0.921074 7.175660 0.125000
0.734386 5.422040 0.625000
0.187284 6.417840 0.310129
0.762872 5.497220 0.625000
0.454382 5.383840 0.625000
0.708340 7.136410 0.125000
1.087690 6.674110 0.239463
0.692124 8.124860 0.625000
0.376961 6.871380 0.625000
0.656250 5.613720 0.550914
0.132504 6.099950 0.257740
0.401189 5.230500 0.625000
0.265940 7.150390 0.125000
0.437745 7.959470 0.381328
0.687182 6.310110 0.625000
0.987771 6.732850 0.125000
0.527570 5.302340 0.125000
1.119970 6.108210 0.438249
0.254759 5.240730 0.625000
0.203147 6.668120 0.125000
0.656250 5.945580 0.203254
0.597661 7.310400 0.375000
0.933986 5.986590 0.125000
0.551919 6.015490 0.125000
0.211705 5.713580 0.327868
0.978963 7.181510 0.313874
0.421334 6.988720 0.625000
0.649997 6.457000 0.625000
0.632486 6.579510 0.625000
0.154419 6.152950 0.149403
0.650150 6.805180 0.625000
0.813634 5.461960 0.625000
1.109150 6.573980 0.126493
1.063650 6.332630 0.578352
0.854054 7.764410 0.257750
0.283789 7.241020 0.494192
0.593750 5.940440 0.563047
0.212786 5.700650 0.520738
0.330869 7.460720 0.523975
0.836993 6.063470 0.625000
0.875541 7.664140 0.182173
0.836659 6.165690 0.625000
1.123690 6.506110 0.509130
0.439418 5.935100 0.625000
0.478405 8.149220 0.567640
0.820905 7.919110 0.233236
0.607008 8.250000 0.156672
0.190338 6.804910 0.541073
0.695369 7.697980 0.125000
0.946506 7.073920 0.625000
0.773298 5.697050 0.625000
0.526174 6.533230 0.125000
1.053840 5.827660 0.507321
0.963191 7.195980 0.625000
1.078370 5.954710 0.338951
0.948977 6.604940 0.125000
1.086570 6.679360 0.290595
0.132308 6.534100 0.471692
1.028550 6.008720 0.125000
0.507550 7.488410 0.125000
0.742724 7.251740 0.125000
0.936314 7.380540 0.207769
0.269799 6.717380 0.625000
0.664309 8.197470 0.125000
0.324845 7.432610 0.577385
0.149687 6.042250 0.396100
0.718472 5.718810 0.625000
0.392784 5.761560 0.125000
0.843880 7.424780 0.125000
0.774912 6.660260 0.125000
0.833038 7.783030 0.125000
0.872090 7.621790 0.625000
0.489183 7.617820 0.125000
0.481230 8.162410 0.510743
0.464441 7.529810 0.625000
0.227895 6.980180 0.454581
0.254588 7.104740 0.281791
0.656250 5.453200 0.618884
0.705015 7.195780 0.125000
0.159208 6.157500 0.547040
0.786438 8.079960 0.365556
0.426718 7.109240 0.125000
0.823922 6.721440 0.625000
0.467487 7.711270 0.125000
0.706815 6.184130 0.625000
0.981176 5.434820 0.125000
0.439566 7.967970 0.192171
0.604263 7.824210 0.625000
0.352258 5.887060 0.625000
1.108190 6.068870 0.276460
1.085460 5.983960 0.232797
0.384245 5.928480 0.625000
0.593750 5.804750 0.493255
1.048580 6.856640 0.158801
0.815641 7.943680 0.281878
0.174861 5.939400 0.334248
0.402519 7.795090 0.519855
1.048770 6.855730 0.357234
1.071860 5.923870 0.413476
0.187564 5.878800 0.615388
0.656250 5.463590 0.503600
0.315131 7.387280 0.523826
0.656250 5.508500 0.467418
1.020070 5.900690 0.625000
0.218175 5.636200 0.219910
0.153683 6.049120 0.625000
0.499732 8.248750 0.567311
1.113100 6.555530 0.301796
0.432104 7.047820 0.533421
0.599940 8.250000 0.494837
0.225505 6.969020 0.334065
0.757294 7.271490 0.450596
0.744787 5.304530 0.625000
0.944375 6.695540 0.125000
1.075720 6.729980 0.247830
0.819892 7.055110 0.615912
0.515842 8.250000 0.471330
0.593750 5.449860 0.511724
0.399350 7.780300 0.318945
0.593750 5.399150 0.545628
1.059050 6.391900 0.125000
0.518950 6.999920 0.125000
0.657443 8.250000 0.454805
0.919597 6.649750 0.125000
0.569321 7.525090 0.470679
1.016600 6.494050 0.125000
0.590441 8.250000 0.218440
0.495163 5.569740 0.625000
0.686662 6.864260 0.454988
0.645458 6.463830 0.125000
0.485632 6.178050 0.625000
0.244492 7.057630 0.623457
0.540602 5.758940 0.125000
0.974437 6.852450 0.125000
0.500394 6.454050 0.125000
0.780827 7.451090 0.625000
0.193476 5.843610 0.460906
0.972804 5.715100 0.125000
1.095010 6.021450 0.126052
0.177643 5.940500 0.125000
0.656250 5.816170 0.379566
0.507517 8.197320 0.625000
1.047200 6.257470 0.487456
0.341863 7.194370 0.125000
0.393585 6.272150 0.125000
0.205937 5.248260 0.483469
0.450598 8.019460 0.359638
1.067820 5.904720 0.357024
0.427597 5.871740 0.125000
0.565367 5.657800 0.125000
0.484356 6.028630 0.625000
0.677448 7.175910 0.404970
0.265347 6.901520 0.625000
0.755616 8.223790 0.248203
0.404164 7.802760 0.465558
0.896910 6.396250 0.625000
0.614084 6.871110 0.125000
0.440968 7.974520 0.622120
0.662215 8.250000 0.130862
0.937067 6.717650 0.625000
0.898464 7.557170 0.338692
0.954460 6.804480 0.125000
0.280213 6.373670 0.125000
0.296511 7.300380 0.585188
0.694246 6.584880 0.625000
0.228279 5.363520 0.125000
0.450383 8.018460 0.299185
0.181780 5.906620 0.548339
1.057080 5.846920 0.566105
0.710682 8.250000 0.311057
0.809147 6.977170 0.125000
0.800813 7.103120 0.475464
1.023130 6.975390 0.468296
0.343862 5.744930 0.125000
0.864358 5.419970 0.625000
0.981105 6.428130 0.125000
0.923765 6.549710 0.625000
0.473576 8.126690 0.284460
1.043200 6.482840 0.625000
0.810594 6.209980 0.625000
0.695297 5.387070 0.625000
0.562450 6.647000 0.125000
0.621161 6.047610 0.125000
0.990319 7.128510 0.540012
0.668044 5.347300 0.252013
0.656250 5.866680 0.414710
0.611387 5.950040 0.625000
0.782975 8.047420 0.125000
0.980123 6.201380 0.625000
0.656250 5.483940 0.302685
0.246519 5.622320 0.625000
0.359804 5.986900 0.625000
0.222154 5.528220 0.503525
0.441615 7.977540 0.444570
0.370956 7.647790 0.312131
0.593750 5.612420 0.400531
0.204034 6.017730 0.625000
0.487542 8.191860 0.334671
0.981380 5.845500 0.625000
0.212531 5.304130 0.136737
0.267339 5.674600 0.125000
0.345891 5.564040 0.125000
0.788542 6.594670 0.125000
0.229058 6.908620 0.125000
0.359294 7.546100 0.625000
1.110370 6.076170 0.552465
0.656250 5.662950 0.322479
1.038690 5.785230 0.625000
0.593750 5.502730 0.374622
0.750364 7.990670 0.625000
0.845215 6.655060 0.625000
0.833220 6.506690 0.125000
0.442749 7.360800 0.569238
0.896014 6.934450 0.625000
0.946092 7.334900 0.529985
0.656250 5.723040 0.132541
0.802121 6.585430 0.625000
0.526300 5.705160 0.625000
0.475747 6.140090 0.125000
0.842253 7.175900 0.580867
0.934122 7.390760 0.271921
0.790459 5.601020 0.125000
0.533860 7.492700 0.554896
0.493991 6.232600 0.625000
0.723896 5.854640 0.125000
0.979775 6.206190 0.125000
0.211723 6.904710 0.336230
0.213585 5.316840 0.193891
0.895147 6.596360 0.625000
0.672975 5.334150 0.203387
0.856442 5.698540 0.125000
0.763413 8.187410 0.480567
0.414369 7.850390 0.406471
0.544356 7.961700 0.625000
0.762233 8.192910 0.548124
0.211260 5.717450 0.433561
0.997128 7.096740 0.457766
1.112670 6.083840 0.329290
0.330018 5.942280 0.625000
0.931492 6.223050 0.125000
0.221393 5.564800 0.557361
1.050720 5.809080 0.291170
0.416652 5.879190 0.625000
0.734971 5.899290 0.625000
0.870979 7.163270 0.125000
0.593750 5.589180 0.260836
1.061910 6.314860 0.454162
1.122920 6.126980 0.265555
0.472351 5.517420 0.625000
0.529499 6.137300 0.625000
0.839598 7.831870 0.280604
0.349584 5.400910 0.625000
0.672610 5.335130 0.146501
0.468385 5.453250 0.625000
0.984344 5.559090 0.625000
0.323843 7.427930 0.304562
0.371857 7.093300 0.125000
1.057860 6.359500 0.625000
0.536389 5.625530 0.625000
0.235292 7.014690 0.377199
0.365320 5.646300 0.625000
0.323759 5.334600 0.625000
0.308944 6.238780 0.625000
0.454462 6.526970 0.125000
0.228219 5.464160 0.125000
1.062210 6.184650 0.448708
0.947482 5.937930 0.125000
0.524819 6.172250 0.125000
0.793078 8.048970 0.550305
0.656250 5.591840 0.129439
0.593891 7.880270 0.125000
0.427746 7.912820 0.513165
0.252158 5.786190 0.625000
0.801433 7.150900 0.125000
0.651547 7.398410 0.375000
0.571960 7.831710 0.125000
0.217845 5.368250 0.483622
0.189763 5.865710 0.506703
0.484385 6.762750 0.125000
0.919851 6.668500 0.625000
0.933535 6.028760 0.625000
0.733110 5.663570 0.625000
0.212069 6.588340 0.125000
0.260082 6.198720 0.125000
0.500532 5.479430 0.125000
0.381736 7.698100 0.582952
0.763441 7.866990 0.625000
0.376745 7.674810 0.517007
0.270694 6.758440 0.125000
0.538386 6.882540 0.125000
0.197370 5.845820 0.125000
1.121710 6.515360 0.412341
0.365220 6.200010 0.625000
0.169289 6.706680 0.284603
0.500947 8.250000 0.353833
0.706811 8.250000 0.246446
0.609222 8.066360 0.625000
0.692068 6.546060 0.125000
1.068560 6.763380 0.190945
0.503307 6.709850 0.625000
0.182514 5.903140 0.291017
0.462165 5.240480 0.625000
0.593750 5.561200 0.477634
0.664639 7.253410 0.397651
0.174958 6.450040 0.160378
0.762400 7.113170 0.125000
1.024400 6.969480 0.520861
0.804167 7.851770 0.125000
0.830413 7.502280 0.625000
0.870537 7.687490 0.356182
0.955284 7.292010 0.460240
0.673459 6.246190 0.125000
0.413417 7.269220 0.605647
0.880657 7.063010 0.625000
0.272376 5.345800 0.625000
0.413726 7.847390 0.619357
1.045950 6.868910 0.467889
0.305857 5.279310 0.625000
0.734167 7.215820 0.437381
0.130463 6.106760 0.464973
0.521589 5.818600 0.625000
0.572843 7.527460 0.554686
0.261972 7.139200 0.388310
0.678645 6.360620 0.625000
0.664514 5.504050 0.125000
0.247119 7.069890 0.183959
1.060660 5.868240 0.263672
0.519864 7.293150 0.125000
0.656250 5.510920 0.189884
0.656250 5.899640 0.166680
0.699435 7.758300 0.625000
0.929066 6.545780 0.125000
0.596305 8.151460 0.625000
0.593750 5.624770 0.453299
0.496190 7.450860 0.555046
0.946995 7.330690 0.189308
0.613369 6.506760 0.625000
0.726781 6.902670 0.125000
0.839869 7.830610 0.156735
0.819856 5.986870 0.625000
0.516400 7.401880 0.437057
1.024610 5.640840 0.625000
0.779850 8.110700 0.571892
0.539656 6.583260 0.125000
0.297770 7.306260 0.360512
0.526126 6.382990 0.625000
1.098180 6.033900 0.377913
0.688124 7.075020 0.125000
1.111220 6.078990 0.603202
0.222154 5.527570 0.241698
0.693534 6.124850 0.625000
0.498974 7.752310 0.125000
0.610071 7.125900 0.383531
0.215837 5.664170 0.478404
0.298095 7.307780 0.184531
0.256947 6.014030 0.625000
1.053100 5.823230 0.155687
0.208495 5.771500 0.125000
0.995141 7.106010 0.241418
0.559603 6.483210 0.125000
0.553586 6.335200 0.125000
0.593750 5.533920 0.293612
0.414581 5.352950 0.625000
1.062940 6.397870 0.177655
0.127482 6.511580 0.411594
0.838806 5.504540 0.125000
0.869063 5.647960 0.625000
0.509668 8.250000 0.198532
0.373100 5.132380 0.625000
0.656250 5.469980 0.416785
0.825023 7.899890 0.128564
0.593750 5.875010 0.581924
0.380520 6.500240 0.625000
0.541520 7.777360 0.625000
0.656250 5.532670 0.554216
0.204175 5.773860 0.541212
0.628600 6.513720 0.125000
1.101900 6.607820 0.529373
0.783641 8.093010 0.162315
0.276464 7.206830 0.621645
0.847231 7.796260 0.195808
1.037650 6.907620 0.167435
0.208810 6.708810 0.625000
0.372059 5.311620 0.625000
0.616611 6.702320 0.625000
0.748169 8.250000 0.199524
0.656250 5.744950 0.580042
0.621099 7.068050 0.125000
0.899834 7.550780 0.392267
0.252346 5.847470 0.625000
0.187427 6.430870 0.506761
0.987054 7.143750 0.478254
0.311171 7.368800 0.261821
0.320344 7.131110 0.125000
0.231485 6.651430 0.625000
0.200789 6.265310 0.325723
0.370646 7.646350 0.618406
1.124120 6.504110 0.264899
0.491481 7.006580 0.451297
0.948135 7.325370 0.422477
0.259799 7.129060 0.328895
0.463573 5.973240 0.125000
0.571023 7.277610 0.125000
0.656250 5.568560 0.438484
1.008480 6.373130 0.625000
1.031070 6.938330 0.213492
0.593750 5.865960 0.196558
1.041390 6.234790 0.234919
0.769229 6.412150 0.625000
0.724861 7.902750 0.625000
0.985315 7.151860 0.592112
0.751828 6.931720 0.524542
0.783851 5.267660 0.625000
0.819057 7.927730 0.437973
0.340999 6.811450 0.125000
0.699750 6.638860 0.125000
0.146351 6.053720 0.460054
0.144486 6.480510 0.531903
0.593750 5.454430 0.460828
0.544953 7.437160 0.125000
0.171364 6.169050 0.433584
0.834185 5.257040 0.625000
0.260501 5.421430 0.125000
0.820987 6.116200 0.625000
0.600941 7.435700 0.125000
1.034610 6.560880 0.625000
0.938820 5.975060 0.625000
0.235532 5.890320 0.125000
0.514697 7.940820 0.125000
0.470679 8.113170 0.235618
0.166028 6.691460 0.543540
0.214282 5.325260 0.538077
0.888841 7.347850 0.125000
0.812933 5.370120 0.125000
0.668291 6.685750 0.625000
0.647556 6.406470 0.125000
1.046620 6.122440 0.625000
0.553748 7.447260 0.415715
0.361343 7.481700 0.625000
0.542951 5.703480 0.125000
0.148706 6.045860 0.197732
0.728522 7.706800 0.625000
0.434081 5.532090 0.125000
0.672788 5.381090 0.125000
0.232432 6.793980 0.125000
1.050160 6.849260 0.535721
0.437342 7.357120 0.625000
0.980346 6.343780 0.125000
0.562189 6.213710 0.125000
0.376508 6.626750 0.125000
1.062020 5.876320 0.150203
0.656250 5.769770 0.183934
0.726345 6.676820 0.625000
0.891025 6.121050 0.625000
0.557962 7.032960 0.125000
0.317895 6.049920 0.125000
0.173614 6.171190 0.363389
0.186393 6.336860 0.200660
0.646344 7.959980 0.125000
0.222174 5.471630 0.298301
0.593750 5.820410 0.248986
0.129277 6.519960 0.624416
0.687800 7.413530 0.125000
0.534557 7.557340 0.125000
0.585492 6.541300 0.125000
0.684841 6.231460 0.625000
1.095510 6.023420 0.507747
0.870317 7.688520 0.492209
0.151707 6.624630 0.189106
1.064310 6.439310 0.519127
0.541426 6.992090 0.422756
0.485666 6.479300 0.625000
0.150025 6.616780 0.301771
0.656250 5.386010 0.565956
0.463933 5.798900 0.625000
0.229767 6.987470 0.125000
0.937144 6.443120 0.625000
1.085970 5.985980 0.461475
0.860088 7.736250 0.470597
0.935512 7.384280 0.441880
0.874806 7.111560 0.125000
1.083980 5.978180 0.388304
0.828638 7.198860 0.125000
0.656250 5.625570 0.466084
0.453221 8.031700 0.435665
0.230768 6.061790 0.625000
0.682796 7.746940 0.125000
0.459239 5.232820 0.125000
1.012060 6.786060 0.125000
0.477573 7.030770 0.125000
0.653455 8.250000 0.607200
0.656250 5.649810 0.510949
0.718097 7.030910 0.125000
0.306373 5.991580 0.625000
0.222174 5.472190 0.512740
0.875815 6.864890 0.125000
0.593750 5.387810 0.487329
0.452410 5.596600 0.625000
0.258784 7.124320 0.176947
0.481440 5.193320 0.625000
0.749163 6.236080 0.625000
0.593750 5.484980 0.313775
0.557253 7.842820 0.625000
0.500115 7.991120 0.625000
0.368721 7.637370 0.138335
0.712099 8.069960 0.125000
0.970029 7.223200 0.381534
0.520367 5.837300 0.125000
1.015900 7.009130 0.240668
0.214891 5.332600 0.351308
0.529041 5.206200 0.611865
0.358121 6.872120 0.125000
0.215540 5.667720 0.265024
0.807057 7.983730 0.572951
0.382072 7.699670 0.336163
1.087800 6.160340 0.488968
0.297691 7.305890 0.412295
0.712675 5.922900 0.125000
0.337442 7.491400 0.565582
0.658657 6.087160 0.125000
0.212072 5.709190 0.129012
0.558698 7.512990 0.125000
0.953409 7.126240 0.625000
0.593750 5.798650 0.435073
0.586211 5.358650 0.197662
1.090140 6.002350 0.183192
0.684429 5.801530 0.625000
0.656250 5.717310 0.524782
0.209333 6.307030 0.125000
0.520633 6.815030 0.125000
0.593750 5.788050 0.203806
0.643239 6.107310 0.625000
0.903869 5.520930 0.125000
0.294381 5.904820 0.625000
0.541326 6.885400 0.584249
0.199898 6.268790 0.544103
0.848775 5.598280 0.125000
0.656250 5.680090 0.206914
0.408707 6.574910 0.125000
0.876441 7.659940 0.412280
0.456356 5.711570 0.625000
1.090710 6.660010 0.480323
0.800676 6.052960 0.125000
0.914204 7.483710 0.571148
0.951497 5.647260 0.125000
0.787074 7.950680 0.625000
0.653915 6.635850 0.625000
1.044950 6.248680 0.593759
0.593750 5.828060 0.301917
0.864493 7.715700 0.141600
0.215202 5.671760 0.583131
0.860527 6.971130 0.625000
0.166568 5.976010 0.176898
0.571775 5.914250 0.625000
0.656250 5.759210 0.324523
1.043200 6.881740 0.214627
0.386665 6.818150 0.625000
0.169964 6.531340 0.125000
0.241040 6.630260 0.125000
0.418413 5.476070 0.625000
1.122740 6.510540 0.343972
0.441488 6.601680 0.625000
0.556384 7.612930 0.125000
0.381136 7.695300 0.283172
0.457944 8.053740 0.134364
0.401468 6.211640 0.125000
0.656250 5.640530 0.598367
1.016990 6.247200 0.125000
0.574295 6.839340 0.125000
1.029220 6.946990 0.339953
0.656250 5.570100 0.379056
0.220120 5.412820 0.306374
0.415529 6.138160 0.125000
0.729669 7.896970 0.125000
0.702536 5.618590 0.625000
0.747755 8.250000 0.507107
0.656250 5.768360 0.437722
0.548518 8.038950 0.125000
0.460584 7.934070 0.125000
0.502892 6.664000 0.125000
0.222060 5.548890 0.178934
1.040940 6.892260 0.409569
0.500598 7.320740 0.446087
0.404427 5.426210 0.625000
0.781191 6.972570 0.508965
0.411653 7.132140 0.584548
0.593750 5.894480 0.153813
0.878294 6.449730 0.625000
0.656250 5.710410 0.340035
0.514477 5.767500 0.625000
0.218118 5.636890 0.314424
1.054660 6.637510 0.625000
0.304579 5.620350 0.625000
0.906336 7.520430 0.288323
0.188423 6.313580 0.264644
0.837349 7.120950 0.593647
0.750117 6.309020 0.625000
0.857148 7.665460 0.125000
0.844104 7.810850 0.473163
1.057110 6.816840 0.192041
0.674263 8.250000 0.504714
0.700736 8.250000 0.562158
0.806657 5.798150 0.125000
0.334450 6.607760 0.625000
0.656250 5.763280 0.386499
0.309373 7.360410 0.472746
0.353095 5.759240 0.625000
0.465558 6.362710 0.625000
0.931655 5.643420 0.625000
0.369093 6.167100 0.125000
0.876628 6.277210 0.125000
0.773398 8.140810 0.185613
0.656250 5.927620 0.275483
0.806198 7.987740 0.247417
0.826004 6.281760 0.125000
0.995557 6.518770 0.625000
0.351554 6.699460 0.625000
0.738435 6.116440 0.125000
0.583416 5.351200 0.527445
0.706043 6.799940 0.625000
0.220505 5.585990 0.239063
0.803868 7.998610 0.516687
1.051960 5.848280 0.625000
0.213493 6.147960 0.125000
0.577590 6.268350 0.625000
0.648835 7.017760 0.125000
0.593750 5.618670 0.527995
0.152421 6.627960 0.245580
0.524205 7.626000 0.625000
1.067540 5.903380 0.601953
0.553119 6.602400 0.625000
1.060270 5.865930 0.392816
0.819918 5.930670 0.625000
0.889487 7.599060 0.420909
0.358062 6.936430 0.125000
0.537526 7.684090 0.625000
0.570904 5.505090 0.125000
0.766904 6.106510 0.625000
0.836909 7.844420 0.534506
0.649480 7.778470 0.625000
0.571872 8.024280 0.625000
0.813101 7.715790 0.125000
0.842495 7.254780 0.125000
0.998051 6.767240 0.625000
0.566404 6.016970 0.625000
0.818806 7.928900 0.572511
0.593750 5.891850 0.418949
0.568977 6.704870 0.125000
0.341979 5.628020 0.125000
0.394453 6.571700 0.625000
0.540130 6.393650 0.125000
0.695899 6.950700 0.415514
0.364300 7.616730 0.247441
0.207683 5.745930 0.388045
0.508754 7.884080 0.125000
0.905397 7.524810 0.230250
0.655917 7.471460 0.125000
0.197000 5.822640 0.565821
0.490484 5.783640 0.125000
1.124600 6.125380 0.514927
0.867605 6.020660 0.625000
0.950868 6.792580 0.625000
0.550196 6.208770 0.625000
0.314794 7.385700 0.616786
0.881533 7.636180 0.345880
0.656250 5.874720 0.341896
1.042820 5.749950 0.287246
1.022100 6.060370 0.125000
0.453305 6.072100 0.125000
0.364497 7.034440 0.125000
0.870106 6.538380 0.625000
0.675732 5.680870 0.625000
0.430898 7.927520 0.452891
0.965919 5.576890 0.125000
0.838921 7.835030 0.333694
0.383740 7.707460 0.231850
0.375905 5.595890 0.625000
0.490715 8.206670 0.273311
0.593750 5.703810 0.209074
0.358588 5.836550 0.625000
0.593750 5.898580 0.311541
0.859105 7.740840 0.583496
0.198126 5.815940 0.511719
0.169426 6.606730 0.625000
0.664147 8.076870 0.625000
0.593118 6.436250 0.125000
0.775840 5.837280 0.625000
0.656250 5.452570 0.557558
0.936603 7.379180 0.386685
0.576210 7.090920 0.402880
0.966913 5.910700 0.625000
0.796152 7.001270 0.576558
0.689516 8.250000 0.175020
0.334452 7.477440 0.322147
0.852107 7.773500 0.310936
0.892517 6.707170 0.125000
0.417287 7.053140 0.125000
0.562106 7.730010 0.625000
0.656250 5.572250 0.507083
0.984880 5.794420 0.625000
0.184865 6.514980 0.625000
0.650193 6.953370 0.389396
0.712916 7.450330 0.425238
0.581419 7.364150 0.399904
0.656250 5.566420 0.184383
0.221871 5.455340 0.250544
0.527169 7.233930 0.125000
0.741243 5.622780 0.125000
0.642280 8.250000 0.194331
0.391470 7.743530 0.372254
0.470984 6.967520 0.625000
0.981444 7.169930 0.374835
0.897391 5.912620 0.125000
0.687368 6.494320 0.125000
0.288922 5.684570 0.625000
0.312390 6.914970 0.125000
0.213406 5.693240 0.378444
0.712336 7.468240 0.125000
1.062050 5.876490 0.314207
1.097130 6.630050 0.437309
0.152674 6.151290 0.301766
0.996853 7.098020 0.188437
0.222297 6.954050 0.167302
0.244225 5.184970 0.625000
0.976906 6.323270 0.625000
0.451802 8.025080 0.486723
0.303431 5.788310 0.625000
0.649053 7.725520 0.625000
0.593750 5.737460 0.510141
0.202084 6.260260 0.431586
0.593750 5.746560 0.236531
0.143250 6.481750 0.324663
0.821342 5.308380 0.625000
0.423327 5.529620 0.625000
0.978948 5.616850 0.625000
0.271475 7.183550 0.434234
0.701966 6.437890 0.625000
0.568065 7.666360 0.125000
0.222160 5.511370 0.559625
0.263200 5.615150 0.125000
0.216693 5.653920 0.425798
0.656250 5.795800 0.483023
0.948694 6.383790 0.125000
1.059420 6.806050 0.252079
1.062640 6.424850 0.316609
0.939405 6.498500 0.625000
1.031630 6.436220 0.125000
0.407086 7.816400 0.131700
0.201452 5.795540 0.381439
0.656250 5.637120 0.376286
0.204374 6.200410 0.128071
0.224721 6.965370 0.616527
0.191687 5.854260 0.381764
0.660891 8.058510 0.125000
0.771273 5.872050 0.125000
0.263171 7.009390 0.625000
0.373080 6.108480 0.125000
0.553964 6.938350 0.415592
0.578661 6.853970 0.553187
0.593750 5.878270 0.245410
0.133862 6.133420 0.373585
0.478787 5.326110 0.125000
0.820730 5.551950 0.125000
0.593750 5.683110 0.498906
