ply
format ascii 1.0
element vertex 552
property float x
property float y
property float z
end_header
85.380203 11.387700 2.789270
67.750900 19.333900 0.747252
70.309196 31.775101 4.181150
55.361599 23.360300 0.828166
61.549999 23.836399 0.828166
90.916000 39.344700 1.950910
75.226799 38.268002 3.780120
79.020103 15.167700 0.846694
83.042900 37.005402 1.357570
78.024200 32.904598 3.889670
77.651100 17.561600 0.747252
56.767799 28.779100 4.181150
82.870796 37.847401 3.798090
70.883003 34.276299 4.277280
73.278397 15.207600 3.949240
70.731903 33.959599 0.920892
63.163399 28.066700 4.181150
87.645599 12.455400 1.408440
80.784401 37.623001 1.368000
78.850197 37.618900 1.295410
55.720299 33.590099 1.081130
56.469398 25.610500 4.181150
79.576698 17.722500 2.769190
84.409698 13.210800 3.432830
72.137901 33.761101 0.920892
81.021103 35.891399 1.195590
76.092796 38.265202 1.232540
79.953598 15.759100 3.811450
65.223900 18.294399 4.007510
85.987000 40.017200 3.042740
65.417702 35.494801 3.340890
71.159798 13.699400 3.084760
69.344398 31.834600 0.920892
61.974899 20.505800 0.747252
70.446503 17.286800 0.672484
73.297699 33.448502 0.920892
76.239899 16.322300 0.754363
62.334900 20.853001 4.007510
58.862000 28.233000 4.181150
62.864300 26.689501 0.828166
80.668999 12.153600 1.864450
84.395401 39.758499 3.506030
83.439499 12.393500 3.393920
76.704597 12.798000 2.585810
57.320999 26.406700 4.181150
66.772598 22.297300 3.501060
70.152298 30.407301 0.920892
87.098099 40.197800 2.068750
76.718597 36.093399 4.156870
60.447701 22.555599 4.181150
64.838997 30.418200 0.920892
74.550903 17.453501 3.461130
74.211899 16.541201 0.696670
63.216801 25.610500 0.828166
67.581902 28.927299 3.971700
74.178902 17.738600 0.925065
72.171097 19.832899 2.125640
56.424500 20.374599 0.851390
76.898399 13.469100 0.778842
65.400398 19.076599 0.747252
84.370598 37.045799 3.728240
82.089600 15.934600 3.702530
62.987598 24.061701 4.181150
81.811600 34.848400 1.205130
85.473297 38.864498 3.627150
62.845299 17.084499 3.066740
68.986198 20.778900 0.747252
84.443802 11.540000 2.153460
70.705200 20.035900 0.747252
80.880798 34.329102 2.390520
74.234200 38.106701 2.422320
59.486099 24.621799 4.102410
78.496498 12.506700 2.408170
56.351101 23.992901 4.181150
71.723701 35.458401 0.920892
81.995598 37.440701 1.401940
78.491600 16.348301 0.793283
80.625198 15.317500 0.944849
67.483002 18.385799 4.007510
76.608101 14.742800 0.777038
87.257401 39.763599 3.500880
71.141899 21.236500 2.361480
81.459396 39.083302 3.844520
67.195297 36.317001 4.015700
59.905399 32.945099 3.393810
76.049301 34.141399 3.371400
64.893898 20.950100 4.007510
81.925598 35.364799 3.904560
59.784199 26.890499 4.102410
58.713902 31.579201 4.179570
80.513298 14.283900 3.621120
84.687500 14.994600 3.524190
75.439796 34.036598 1.665910
56.441898 31.640400 0.915589
70.672302 36.516602 1.295100
68.156898 33.791901 0.920892
75.030197 13.070200 2.027240
85.493698 39.750900 1.676680
61.792198 30.237301 4.181150
78.054199 36.784000 4.104080
64.349297 25.698700 4.107340
63.975201 29.606600 0.920892
63.209202 32.114601 4.181150
70.595001 30.240999 2.360090
56.338299 22.283001 0.828166
73.777397 38.032398 3.933310
72.358498 37.801800 3.581030
61.844799 33.842201 1.856880
68.854897 14.304900 1.429840
55.513699 26.303200 4.181150
58.607101 29.570400 4.181150
69.364098 37.314999 1.512740
69.585701 34.326099 4.296710
82.160896 36.091400 1.255580
55.961201 27.805901 4.181150
63.393902 33.545101 0.920892
88.599098 11.016200 1.518910
68.163300 35.379799 0.920892
70.175499 18.343201 4.007510
55.206699 30.656601 0.868201
71.863602 31.986601 4.167770
64.687500 16.232401 2.274340
60.394199 21.754900 0.828166
83.783203 14.151500 3.545700
60.659500 33.293900 4.168890
61.473400 27.544500 4.181150
60.356800 28.185699 0.828166
77.290100 34.140400 3.645260
58.136700 26.910700 0.906906
83.346497 15.826200 3.631660
68.730797 37.027199 4.355520
57.642799 21.036699 0.828166
75.307999 15.688800 3.903310
77.656097 14.789900 3.759500
62.825901 34.151901 4.333990
55.667198 26.806000 0.828166
76.006104 34.832298 0.986266
64.641296 33.900501 0.920892
68.068001 19.411200 4.007510
69.867401 34.914398 0.920892
64.362396 35.006699 1.858280
80.673698 36.387600 3.955470
73.202103 37.938900 1.444560
59.307999 27.682600 0.828166
66.417503 15.432200 3.302430
82.883400 13.060300 1.122420
79.321701 17.271400 0.828743
69.489700 33.725800 0.920892
65.453201 28.125700 2.551020
55.164200 20.361401 0.876717
72.110199 37.157600 1.014600
88.602097 38.188202 2.081010
89.766800 39.294498 3.369640
53.793400 27.171900 0.820216
60.633999 19.523199 0.747252
78.070297 12.576000 1.253080
54.337898 25.744900 0.828166
54.729301 32.755699 0.920668
67.804398 17.235001 0.637758
72.391403 14.353400 0.514939
81.223099 12.847600 1.030500
68.224503 22.739500 1.246720
76.344704 37.409901 4.160660
79.928902 39.032398 3.811200
77.712799 35.593201 1.113850
79.510696 12.341900 1.532690
79.035400 17.993000 1.773250
82.460297 39.443901 2.381530
74.699501 17.075899 2.378270
58.965900 19.180901 0.737109
70.778801 32.980598 4.181150
65.642601 22.555300 4.007510
63.919701 21.945999 4.007510
72.167000 19.841000 3.745150
54.291500 22.862400 0.853243
75.093597 37.071800 1.120830
82.407700 14.292900 3.599310
56.543400 21.878099 4.181150
74.321701 34.181599 3.594930
83.705704 38.051701 1.503960
61.278500 25.909599 4.181150
83.384804 11.712100 1.204070
61.240898 31.515301 0.920892
56.958000 26.263399 0.828166
55.771900 19.158199 0.889900
67.308998 31.717600 4.181150
62.843601 32.527199 0.920892
68.228203 14.594700 2.558180
70.050102 37.426498 3.340010
71.154503 30.813299 4.181150
72.113800 31.931900 2.299820
90.806900 10.507700 2.897400
65.650299 28.668400 4.163080
76.981300 38.553299 3.009810
60.360298 23.142900 0.828166
73.323898 36.824902 1.039260
64.503304 28.602900 4.181150
72.305603 32.147202 1.037180
59.027000 21.922400 4.181150
64.652397 30.195601 4.181150
65.339699 26.961100 2.551020
77.400101 16.743700 3.976130
70.363503 19.499701 4.007510
65.461304 21.068701 0.747252
68.650002 21.712500 3.236480
88.977501 11.529400 3.147630
85.333801 11.636800 1.306540
83.898598 13.727800 1.162080
60.314400 18.255100 1.951590
69.518997 14.186600 4.007510
60.075699 31.472401 4.181150
61.819599 23.224400 4.181150
67.427597 24.249901 2.377380
72.767197 18.642401 2.381160
83.160301 15.931400 2.238970
67.862503 16.200600 4.007510
68.547798 27.413601 2.799950
71.248596 17.633600 4.007510
70.039200 15.704700 4.007510
69.087502 23.765800 2.108010
61.703800 18.852900 4.007510
73.780998 18.007799 2.680570
70.134598 21.250000 2.918240
65.893501 35.640202 4.454660
76.507698 13.272300 3.707910
60.819199 24.526100 4.102410
81.520103 38.653801 1.459730
78.766197 34.612701 4.104490
72.260101 15.786200 0.575687
71.533302 18.822300 4.007510
65.211403 15.990100 0.993944
66.234802 31.393999 0.920892
62.751202 24.143900 0.828166
74.889999 37.290699 4.248410
82.445702 35.111301 2.405120
83.928101 15.547700 1.343860
59.538502 29.625700 0.828166
77.538300 38.095600 1.276040
91.077202 39.425301 3.261220
80.645897 34.389500 1.124260
58.874699 32.001598 0.920892
82.692001 11.824700 2.761630
82.250099 11.896600 1.550040
73.482498 33.565701 2.792220
75.201897 13.584200 0.676129
59.131500 23.075199 0.828166
88.438202 13.293500 1.635440
86.897400 14.063600 1.891360
90.132004 11.581200 1.573250
62.558899 18.035601 4.007510
83.281998 35.529301 1.609280
65.815498 35.329899 0.920892
74.802498 35.814098 1.031600
66.326599 23.922600 1.577190
73.203400 13.367200 3.715490
86.898804 11.140900 2.713190
67.728302 36.563499 1.191610
56.453602 29.895500 4.148370
80.566299 34.622002 3.998570
74.191902 35.147999 4.258200
66.186996 17.580000 4.007510
64.221100 28.452499 0.920892
61.257301 17.819000 2.400930
66.448097 32.769299 0.920892
71.790001 18.141001 0.747252
89.842300 12.591700 2.523670
91.613197 11.706600 2.808390
86.804604 13.751400 3.357830
74.515999 38.152500 1.168800
75.298401 13.026600 3.211220
67.157501 30.136900 4.181150
75.751801 16.804001 1.905690
67.723000 36.561100 2.367280
73.708199 14.986800 0.605867
75.418800 38.299301 2.361150
65.755501 16.461399 4.007510
71.155998 37.606300 3.508600
72.803200 32.837700 4.181150
89.848396 38.811199 2.145530
88.414703 38.094601 3.409950
78.452904 38.792500 1.451840
67.314796 21.028601 0.747252
63.722599 16.678699 0.725498
54.930000 24.394699 4.181150
53.977100 30.067801 0.873290
87.896896 12.782100 3.256410
63.302502 26.630501 4.181150
69.126701 22.337999 2.377380
71.248703 14.409100 0.445410
70.084801 13.909900 0.365983
62.672798 18.114300 0.682469
64.085602 20.599100 0.747252
68.392403 33.557899 4.235310
62.692402 21.508900 0.835128
58.189201 32.017799 2.250750
67.741699 32.395500 0.920892
78.400497 38.240200 4.048130
68.968498 29.408800 3.999360
69.568100 13.975000 2.349350
63.373901 30.400600 4.181150
68.391800 35.467300 4.421260
68.906700 18.160999 0.740315
74.296402 33.984699 1.886550
68.912498 28.362700 3.424990
61.796200 17.569799 1.404300
69.234596 17.243200 4.007510
78.013603 33.244400 1.968980
69.827698 36.404598 4.496390
61.586102 25.709600 0.828166
60.665100 33.296501 2.388500
75.225700 15.358500 0.705103
58.151299 27.346600 4.125780
65.585197 35.572201 2.087570
57.921799 22.696400 0.828166
76.931900 33.980999 2.465090
62.188499 28.884001 4.181150
72.912903 34.347301 4.229570
84.471001 11.821000 3.319680
62.996601 17.014500 1.697970
69.952301 30.638500 4.181150
54.023998 19.410900 0.907414
66.014198 19.150200 4.007510
57.618900 30.426600 0.863875
64.784500 22.701000 0.747252
90.526497 40.454399 3.282740
65.280701 33.221401 4.237500
68.993500 30.607300 0.920892
76.362999 17.055901 3.604330
57.381302 24.606501 4.181150
68.769600 31.205400 4.181150
55.744598 17.709999 2.627030
66.131798 30.031601 0.920892
58.682999 32.379700 3.310380
79.570000 33.673901 1.822480
89.287903 40.373299 3.351050
66.491898 15.397800 1.395480
79.964600 39.038200 1.658660
63.913300 19.321199 4.007510
55.086700 28.814800 0.834337
55.570999 17.898600 0.919797
59.832401 26.321899 0.906906
66.801201 26.916300 2.984620
73.116402 36.484001 4.345160
73.065804 18.620501 3.783340
67.531601 14.916900 1.074320
66.992699 27.994400 3.553300
79.212997 12.997100 3.589600
56.674801 27.507099 0.828166
70.220200 22.811001 1.633730
63.626202 17.253300 4.007510
81.879303 36.793598 3.884540
86.283600 38.844799 1.625410
86.583099 12.397700 3.300490
63.242802 34.488800 3.297790
84.944504 38.158798 1.521480
65.981003 32.195400 4.181150
67.383797 21.442900 4.007510
66.912598 22.964701 1.144260
76.887802 33.972301 0.920892
76.572601 36.846100 1.162090
63.469898 31.425301 0.920892
58.058800 23.194500 4.181150
85.150398 12.820600 1.258340
60.575802 18.218599 0.683365
87.141899 11.384500 1.416880
64.260696 32.618698 0.920892
64.094704 33.667599 4.285620
59.782902 20.597500 4.174300
86.032898 37.569901 3.621300
70.729401 14.340300 3.990550
67.202400 15.069200 2.426070
61.768700 33.136600 0.920892
59.298000 24.503599 0.906906
65.217697 31.952801 0.920892
86.414398 37.094799 2.098810
60.542999 33.240101 1.193150
62.017200 19.264099 0.747252
69.763199 21.707500 0.938110
79.465698 35.931999 4.044270
85.842003 14.591100 2.409650
72.453400 19.324400 0.983238
61.632401 33.743900 3.724320
64.346497 32.436199 4.181150
67.606102 30.762899 0.920892
65.804703 29.848900 4.181150
59.486099 25.764799 4.102410
89.070297 12.153100 1.498630
67.954803 29.418600 0.938553
60.068802 18.368799 3.710560
57.806599 28.090799 0.828166
84.589897 36.182899 3.000980
66.303497 20.627800 4.007510
60.125702 31.709600 0.920892
67.056396 35.184898 4.408760
62.700001 25.652000 4.181150
68.378502 14.555200 0.387371
79.162697 33.470402 3.531980
56.557499 29.860201 0.828166
82.620102 39.469898 3.755750
71.563004 37.011600 4.449020
55.629002 23.077299 4.181150
60.217098 25.255699 0.906906
69.701202 19.159800 0.747252
61.435501 27.160999 0.828166
71.243301 13.685800 1.483690
62.986099 34.370098 1.647700
66.231697 20.070299 0.747252
60.061001 20.617901 0.821801
78.098801 34.170200 0.952642
64.614799 16.382299 4.007510
87.504700 37.639801 1.688550
64.338898 34.995800 3.317170
61.362999 21.558201 4.181150
58.787300 21.264900 0.828166
90.690300 40.652500 2.012770
54.379101 21.303400 0.880577
79.715599 35.691101 1.137480
78.707100 13.730700 0.864368
62.536999 30.581301 0.920892
76.961601 16.942699 1.443530
73.123398 35.455799 0.946486
80.579903 17.221100 2.533470
87.233597 38.055199 3.541820
64.441803 17.952000 0.675076
69.664497 28.686199 2.551020
85.538498 13.132500 3.400950
55.757000 33.531502 3.254860
66.106003 16.828800 0.581399
67.975700 22.864000 2.377380
69.337402 20.095699 4.007510
83.819298 39.664799 1.960440
75.264397 36.137600 4.207480
60.058899 29.417299 4.181150
57.889599 24.769899 0.906906
72.749901 16.247200 4.007510
70.704399 15.858200 0.536265
68.803703 16.364799 0.564245
56.243401 28.568199 0.828166
61.268101 17.813999 3.575620
58.716301 19.384100 4.048180
80.366096 17.286600 3.852070
61.761600 22.601400 0.828166
66.625999 36.053600 1.407630
57.719601 20.791201 4.135800
71.328903 20.901300 1.152000
80.758202 17.131901 1.321190
64.120399 24.155399 4.016800
61.242298 32.181099 4.181150
58.813400 18.949400 3.004990
66.210701 21.994801 0.747252
81.484100 14.092500 1.014610
71.708000 35.798000 4.388550
53.118099 29.212799 0.835620
69.379097 32.553501 4.181150
88.249199 40.164200 1.805470
79.375801 37.405701 4.012900
85.135300 36.800098 1.466300
62.573101 22.204000 4.181150
58.916500 30.688499 0.916329
71.180801 31.896700 0.920892
67.107399 33.900799 4.283140
56.528099 23.859501 0.828166
70.778999 20.556700 4.007510
84.291702 36.033901 1.454110
58.378201 29.327101 0.828166
79.094398 14.190900 3.668390
81.557098 16.732700 2.041700
80.974197 39.202301 2.625240
73.436996 17.415899 4.007510
55.987701 18.234699 3.904960
71.529800 15.205000 4.007510
83.360802 35.568600 3.470710
79.916901 13.286300 0.944745
86.523300 12.623900 1.341720
70.795601 37.547699 1.754930
76.162697 14.613700 3.804370
65.954803 34.299900 4.334660
77.407501 15.602600 0.767021
91.653900 11.378900 1.665650
78.127296 18.221600 2.640300
81.924202 15.365500 1.018850
78.932098 16.475000 3.906590
90.444397 11.722600 3.076990
64.288597 26.160000 1.086200
68.235497 15.097800 4.007510
63.271400 19.678499 0.747252
78.196098 18.274900 3.978140
87.687500 38.875900 1.694280
60.780701 19.610500 4.007510
81.375801 37.880100 3.883730
55.351601 24.618099 0.828166
71.877403 33.527000 4.193140
71.537399 22.506100 1.824650
66.215401 34.044399 0.920892
85.220299 14.419700 1.228950
71.451500 30.841200 1.540250
63.925400 23.908600 0.828166
71.341103 31.223801 3.075340
66.460098 35.976898 2.941890
89.337799 40.561901 1.949280
63.501598 20.546301 4.007510
59.527500 32.770302 2.073840
68.893303 36.443001 0.920892
69.712196 15.150000 0.456159
66.538902 17.884501 0.686790
84.585197 15.219200 2.398670
83.932297 38.500301 3.723150
80.978699 12.575900 3.497320
75.277496 17.202600 0.747252
74.068298 13.226600 0.957679
68.965103 37.135601 2.715140
71.672302 16.756001 0.634573
82.291199 12.973100 3.472980
67.276100 16.087000 0.520024
79.401497 34.577499 1.034040
75.012001 14.138600 3.817810
65.278297 31.304300 4.181150
77.856903 12.962900 3.638180
74.160500 13.211600 3.082030
78.608299 38.817699 3.045300
73.143600 13.376900 2.418290
61.980701 28.477301 0.828166
72.975700 17.099600 0.702587
68.917397 18.557699 4.007510
71.960197 37.737000 2.182510
88.347198 39.238602 3.453110
62.050598 24.708200 4.181150
61.079201 29.253700 0.828166
76.389000 34.911800 4.174020
70.330200 32.671398 0.920892
65.161201 27.717100 3.716990
77.799202 35.431099 4.152230
70.922203 16.514999 4.007510
72.171204 13.818900 3.904150
68.301003 20.595301 4.007510
79.696297 12.311700 2.697110
57.671101 22.064400 4.181150
62.231701 32.896000 4.224170
76.092598 12.897500 1.406810
79.261398 17.738501 3.930350
72.557899 13.472100 1.403650
69.709801 21.175600 4.007510
89.720200 10.682200 2.605690
90.879898 10.553700 1.728480
82.731598 14.444000 1.077420
67.327599 34.566299 0.920892
56.797600 25.060301 0.828166
76.750099 15.622800 3.845270
77.706299 36.760700 1.199170
79.814301 37.018902 1.294090
81.357300 16.832600 3.442830
83.130798 36.668400 3.807720
