ply
format ascii 1.0
element vertex 1529
property float x
property float y
property float z
end_header
44.543900 29.488701 2.923780
27.715900 17.092600 0.539722
31.547300 11.064500 1.331490
43.536598 3.276640 1.344790
48.040798 27.488600 0.000000
52.085602 1.203300 0.244612
31.666800 25.920601 0.297273
26.412600 13.562300 2.533400
45.964100 2.402620 2.382980
55.765400 3.880420 -0.044442
49.726101 27.247000 0.029443
38.900799 5.700610 1.749650
51.642899 30.709700 0.000000
56.481701 30.274200 0.546044
33.861000 9.632200 2.879340
30.391199 21.433001 0.459349
36.614101 10.266700 2.879340
30.643400 22.105301 0.000000
55.028702 2.434850 -0.044442
26.037701 13.709500 1.194850
39.686501 8.953360 2.284290
36.212002 11.110100 0.869756
26.384800 16.145599 2.879340
23.724001 19.942699 2.879340
43.433201 29.403799 0.000000
29.373800 25.464500 0.059162
55.151199 1.130990 1.684020
35.661098 26.091499 2.923780
61.899101 4.289020 1.137190
53.468498 30.753799 2.923780
38.098598 7.584190 -0.044442
38.476700 6.722560 2.879340
37.853802 8.695930 2.879340
52.197102 27.211901 1.653200
17.856899 23.791300 0.000000
34.356400 26.515600 2.923780
54.851898 3.303030 -0.044442
37.307201 10.379400 0.881159
23.912100 17.381300 2.879340
27.044800 13.302400 2.694100
49.630600 1.510450 1.135280
51.242199 29.885099 0.000000
38.955200 25.485800 1.420580
31.832600 23.901800 0.000000
41.527000 7.831570 -0.044442
30.544701 22.750000 2.923780
27.189699 21.436600 0.000000
25.933100 14.939100 -0.044442
52.938599 1.418080 2.879340
26.497801 18.148100 2.879340
50.197102 29.702600 0.000000
29.031900 13.697900 -0.044442
38.555302 9.613730 2.052260
56.382599 26.790001 2.923780
38.975201 5.653940 2.509200
44.193401 3.007010 1.907600
45.367401 30.511900 0.258255
36.881302 7.133340 1.615270
50.356400 30.959400 2.128760
59.340302 4.324230 -0.044442
55.693199 28.701799 0.000000
30.864300 21.738800 0.943292
62.439701 3.157090 1.477670
55.814301 1.435940 -0.044442
22.250601 21.930901 2.688050
44.598000 30.345600 2.802170
32.430500 14.144300 0.733425
24.157000 18.332001 2.879340
22.709299 21.803400 0.000000
42.926601 3.527040 0.729144
32.454102 10.525700 0.473873
33.130001 13.058900 2.879340
28.091801 22.236900 0.000000
20.180099 15.948600 0.340221
27.957701 24.121500 0.000000
58.435799 1.401330 0.117037
25.205099 24.939301 0.000000
27.278099 19.658600 2.879340
29.542999 12.147600 2.165200
37.905899 9.993400 0.500354
46.501701 2.340870 -0.044442
35.013199 25.217100 0.000000
33.003201 22.990900 1.458340
39.960201 5.036590 1.839770
30.032900 25.079901 0.000000
31.052799 21.858400 2.193460
39.051701 9.323570 2.872360
36.493801 8.870750 2.879340
30.035801 11.896100 1.754380
50.313801 27.973200 2.923780
31.406700 11.146200 2.765610
61.304199 4.520100 1.766690
27.232100 22.167900 0.000000
54.290100 4.520900 2.447220
26.324600 13.597300 1.851360
28.374800 16.534700 2.879340
41.546200 5.539400 -0.044442
46.248100 27.031300 0.622555
24.165501 25.003799 0.630365
24.974501 20.969900 2.879340
20.482300 22.083200 0.000000
51.400902 28.091000 0.000000
38.323898 28.286900 1.848900
29.370199 25.463800 2.765880
39.736698 8.927910 1.568430
35.828800 11.368800 1.699100
20.904100 23.502501 0.000000
55.843201 28.679600 2.923780
45.270901 2.620380 0.667473
21.322001 15.040500 2.546430
33.875801 10.962300 2.879340
64.375702 25.055500 2.734450
24.935699 14.509200 2.879340
49.940201 27.253300 1.364440
34.585300 24.244499 0.000000
34.676601 9.019010 2.653840
52.533401 2.337280 2.879340
60.148602 25.959400 1.074940
61.531601 2.002650 0.929296
30.972000 23.569901 0.000000
27.260000 16.565599 0.403403
46.265701 27.419100 0.000000
39.422199 28.269100 0.000000
30.294399 13.095500 2.879340
19.403200 22.237900 0.000000
40.129601 4.930410 2.502750
27.999100 21.375200 0.000000
39.884201 28.940100 2.737580
46.283798 2.302180 0.735078
18.558901 23.472799 0.000000
25.936600 15.128300 2.879340
43.094501 7.327160 1.356860
38.614601 8.732770 2.879340
33.338100 23.167601 0.086152
34.821201 26.777901 0.370856
29.555799 17.336500 0.961663
32.614300 11.855900 -0.044442
43.844101 26.692400 1.068730
42.656200 5.522470 -0.044442
32.311901 13.861100 -0.044442
62.117199 2.381570 0.441557
34.751999 8.951450 0.590455
45.747398 2.470680 0.157120
35.396301 11.364500 -0.044442
37.186501 24.885099 2.399430
45.212101 2.638840 2.667850
50.660000 30.948000 0.327814
58.602600 3.238640 2.879340
38.714100 28.468300 0.988021
60.873100 4.322860 2.879340
38.595798 9.590060 0.397083
60.211300 29.203699 2.261550
61.870201 4.312410 2.234550
41.948101 26.302000 2.273900
40.215801 26.839199 2.923780
47.342800 1.999320 1.500870
55.409801 27.778601 0.000000
29.153900 16.931499 -0.044442
43.726601 30.157200 2.282480
59.331299 2.822570 2.879340
46.177200 5.748660 -0.044442
36.240898 27.255301 0.811195
35.781898 26.575701 0.000000
33.058998 13.573900 2.249040
43.341599 28.473400 0.000000
28.767799 25.367399 0.761658
46.338200 28.773500 0.000000
30.396400 15.448200 2.879340
36.615002 7.374270 2.879340
29.215500 12.311200 1.136100
28.694599 17.583000 -0.044442
28.302799 21.502899 2.923780
57.079300 1.235760 -0.014444
55.701302 1.150970 2.649130
54.076599 27.278700 2.923780
23.472200 22.319599 0.000000
31.972300 25.896400 2.923780
54.798500 27.130100 2.923780
21.336599 24.233601 0.000000
57.418098 2.779700 2.879340
31.883600 14.664200 1.778960
24.291401 20.629400 0.000000
43.068100 3.468980 1.854730
43.479698 26.772600 0.000000
36.026199 7.810660 2.807170
29.066000 22.075800 2.923780
56.664501 30.234600 2.781210
23.048401 23.342100 2.879340
35.472698 10.032100 -0.044442
21.855400 20.202999 2.879340
65.015800 26.299500 2.419490
41.231998 26.134100 0.251588
63.920799 26.146099 2.923780
54.598400 30.626499 1.873320
55.714901 30.439899 0.593902
26.708401 20.445700 0.000000
62.391602 2.879820 2.726160
43.393398 3.430140 -0.044442
40.750999 26.002501 2.741330
25.996901 17.320900 2.879340
61.006100 28.883200 0.979171
25.660000 13.849900 2.210890
63.669201 25.429501 0.000000
52.599300 29.105801 2.923780
22.646099 16.144800 2.879340
30.342800 16.080900 -0.044442
54.537800 30.581100 0.000000
59.188400 1.501700 2.721200
39.741600 25.726101 1.217240
58.995499 28.776800 0.000000
54.787800 28.104799 0.000000
62.145599 25.364401 0.443012
53.785099 27.901800 0.000000
48.100800 3.500060 2.879340
21.909800 23.003000 2.879340
54.646500 1.112670 0.942358
54.357800 2.440380 2.879340
31.185900 11.847300 2.879340
32.707500 22.829399 0.322680
43.244499 28.963900 2.923780
62.196400 28.402800 1.906220
59.411400 28.367201 2.923780
53.624901 1.358750 2.879340
32.203701 24.276199 2.923780
53.579399 30.757401 1.005060
56.890701 4.368000 0.084054
30.481400 21.492800 2.702580
38.259102 6.102760 1.787060
42.010899 3.947290 2.793980
54.718300 4.480640 1.068540
32.556801 13.914000 2.879340
36.000900 24.942200 2.923780
23.582100 16.468201 2.879340
42.891800 3.964470 2.879340
63.391102 27.289900 2.923780
34.974201 8.883680 -0.044442
30.931700 25.759399 1.763210
51.017799 27.246901 2.821930
43.609699 26.652399 2.509070
58.088600 29.202101 0.000000
23.248100 16.763100 0.242316
61.449100 2.832240 2.879340
29.780800 12.026500 0.067033
24.884100 17.452801 0.563865
58.028198 26.463600 2.276850
54.881699 30.590099 0.701227
37.164001 10.474900 1.877430
37.990501 6.298710 0.415907
23.195700 14.620500 1.732640
29.530800 20.708099 0.577882
41.433102 26.189199 2.699170
20.415600 24.566799 0.000000
44.356998 4.723900 2.879340
18.739599 22.397600 0.000000
22.777500 20.637199 2.879340
33.911701 9.589780 1.508510
46.079102 3.324010 -0.044442
27.568300 14.401700 2.879340
27.956900 25.251301 1.503480
53.761398 27.096701 2.120700
57.082100 30.144400 0.848573
41.534500 6.376760 2.879340
33.349400 23.173599 2.720240
44.012699 3.081190 0.056855
26.592199 19.223200 2.879340
32.572201 10.502500 2.879340
24.959400 16.067699 2.879340
25.440100 13.929300 0.830997
60.811501 4.071390 -0.044442
48.328300 2.254200 -0.044442
54.228901 1.098450 0.256833
27.028700 24.765499 2.923780
43.708000 4.142460 -0.044442
50.981201 30.934299 1.011220
62.338299 25.966900 0.000000
54.949100 4.468180 1.718280
43.615601 5.011560 -0.044442
47.095501 28.084400 2.923780
26.639200 23.833599 2.781040
27.188400 25.157801 0.114922
29.969601 14.158800 -0.044442
38.293701 25.297899 2.923780
46.723202 5.425720 2.879340
33.419399 12.642000 -0.044442
23.420799 19.953199 0.000000
58.691200 2.757180 -0.044442
48.729500 1.690360 1.433590
19.519400 17.306601 -0.260701
25.581499 15.161300 0.662571
32.651001 23.222401 2.923780
57.177200 29.278000 0.000000
65.012100 26.057600 0.000000
44.529900 3.852540 2.879340
58.811401 2.183690 2.879340
56.577801 29.742901 0.000000
50.908100 3.765560 2.879340
64.406403 26.554800 0.000000
46.880901 28.969400 2.923780
25.594400 21.884001 0.000000
53.257198 28.950100 0.000000
49.500301 1.528470 2.879340
31.038200 15.516400 1.287630
33.710602 25.009300 2.923780
55.527199 1.144650 0.885999
20.073500 25.239700 0.739635
51.513100 27.232201 2.161590
51.131100 28.870501 0.000000
37.790501 10.060900 1.500560
50.240299 3.873880 2.879340
20.552299 18.444799 -0.431409
30.537300 11.629000 2.271160
40.492699 25.931700 0.996414
29.565201 24.484301 0.000000
57.272701 26.661200 2.923780
36.919899 10.637700 0.363203
38.376099 6.029480 1.028720
28.683901 25.354401 2.100660
50.762001 2.625870 2.879340
55.238701 3.113840 2.879340
31.952700 14.597600 0.135933
34.994499 11.985000 0.162743
44.374298 29.080900 0.000000
36.162998 7.688180 0.946982
23.114799 21.557899 2.879340
49.157700 3.830980 -0.044442
57.845299 4.373170 1.908160
59.466301 1.559940 0.802599
34.250099 23.627300 1.453040
24.654499 23.741600 0.000000
31.794001 25.950001 1.589870
35.600601 25.684500 0.000000
61.860500 2.274760 2.879340
30.319201 16.288700 2.833800
58.569801 27.458000 2.923780
36.284500 25.718901 0.000000
18.754400 19.201599 -0.260701
45.721298 27.941799 0.000000
57.428299 29.281200 2.923780
59.498299 29.449600 2.714440
18.438200 21.348700 0.000000
48.754398 30.248501 0.000000
39.439098 27.261000 2.923780
55.805901 2.699410 2.879340
47.837101 1.941580 2.879340
21.575001 21.908600 0.000000
29.417500 16.584000 2.879340
27.518200 25.196301 0.902171
23.045401 20.705000 0.000000
44.691799 28.458300 0.000000
60.131500 1.699370 0.341285
41.255600 29.451000 1.361680
43.167400 30.036301 1.256550
49.991299 2.321310 2.879340
47.707600 1.918050 0.383219
38.660702 25.714100 0.000000
40.207100 8.689160 0.237428
47.651901 5.736240 1.227000
27.793301 19.159800 2.879340
45.386902 27.133801 0.000000
28.849800 20.066900 0.927129
55.147701 4.457450 0.327579
27.395901 17.397400 2.879340
46.730400 2.161890 2.421790
49.795101 30.395000 0.000000
25.715700 25.042601 0.656636
48.411499 5.348010 2.879340
62.112099 26.625299 2.923780
42.630699 3.721330 -0.044442
31.402800 12.937100 -0.044442
62.419899 3.473100 0.296277
60.087898 3.035870 2.879340
27.933300 12.916100 2.042580
22.286600 25.076700 1.047480
25.725000 20.363701 2.879340
29.279400 15.299200 -0.044442
62.821201 25.135500 0.386030
28.363501 12.718400 0.325573
27.128901 13.267000 1.229580
44.218498 27.178900 0.000000
26.761299 16.938000 2.879340
40.675499 29.259199 0.315191
42.844398 26.490999 0.282817
42.753899 27.514900 0.000000
57.785301 29.904900 0.000000
44.765099 30.381701 1.998800
40.705101 4.618400 0.172519
61.005299 2.007410 2.879340
49.414600 28.714399 0.000000
36.081200 9.552950 -0.044442
39.548599 5.294530 2.349250
29.579100 15.818400 2.879340
53.036098 30.329700 0.000000
47.645500 27.156099 0.838532
55.284801 26.933800 0.117315
34.491100 11.045700 -0.044442
27.990499 22.743500 2.923780
51.198101 2.219910 -0.044442
43.036201 26.531500 1.047740
43.486801 4.684630 2.879340
45.177101 26.891800 2.048410
59.564400 29.429199 1.987200
27.117201 15.230300 -0.044442
33.150200 26.289900 1.753400
29.349800 24.773500 2.923780
60.382099 4.466130 1.786250
27.145500 13.299700 -0.044442
31.099800 25.546499 0.000000
37.553501 8.743660 -0.044442
34.113499 9.451940 2.240770
50.666599 3.217810 -0.044442
59.680000 4.420570 2.557350
50.777100 5.016340 1.955890
44.580799 6.739820 0.704240
22.237600 25.080700 0.062271
57.000999 3.648880 -0.044442
53.976398 3.851480 -0.044442
29.924801 21.091200 0.101040
49.577801 29.437300 2.923780
30.029200 21.192801 1.033650
20.117100 21.457800 0.000000
29.445801 17.521000 1.641510
46.456001 2.621660 2.879340
59.556301 26.155899 0.000000
36.565899 25.484301 2.923780
30.084499 23.418900 0.000000
43.434399 5.579530 2.879340
47.076801 30.572001 2.923780
25.300600 18.664301 0.000000
58.892601 4.378830 0.548347
34.773102 9.700890 2.879340
50.654598 29.335600 2.923780
43.375000 26.602900 1.709930
56.667801 30.233900 2.079720
60.916801 27.245199 2.923780
50.187199 27.260700 2.431440
33.463200 12.162600 2.879340
48.397301 29.753599 2.923780
33.542400 13.154400 1.323830
52.631199 1.176600 1.582030
54.346001 27.044500 0.213821
42.484699 6.446630 -0.044442
53.207802 3.675730 -0.044442
61.367500 25.625799 2.105570
32.700001 13.292100 -0.044442
19.604799 23.033001 0.000000
61.589699 4.454420 0.071912
30.055000 13.312100 -0.044442
31.147800 15.402000 0.559694
27.328300 25.174101 1.970820
53.854099 30.272200 0.000000
28.509600 17.431299 2.879340
64.471298 27.228300 2.321680
38.930099 5.682190 0.197714
28.018101 13.189000 -0.044442
42.093700 3.904760 1.977970
32.701599 26.171400 2.553720
23.865000 21.321800 0.000000
44.402199 5.273010 -0.044442
17.449301 23.148500 0.064511
28.383699 16.654600 -0.044442
45.521500 30.545300 1.540740
30.557699 16.028601 0.939541
28.736000 18.596901 2.068220
33.626801 13.082300 2.350370
58.302200 29.816999 0.712013
34.422001 11.605500 2.879340
37.949200 9.968050 2.378080
59.566299 1.814040 -0.044442
31.709400 11.037100 -0.044442
19.920799 18.081400 -0.572870
42.773399 26.476101 2.190120
26.754999 15.966400 0.231132
31.265200 22.200300 2.923780
21.370701 25.055500 0.000000
23.693501 15.670900 2.879340
39.447899 26.364500 2.923780
20.609400 25.250099 0.155233
47.934299 2.793490 2.879340
44.757301 4.632790 -0.044442
24.493700 22.802500 2.705450
26.334700 21.026800 2.879340
42.601700 29.642599 0.000000
19.643499 24.237700 0.000000
34.599300 23.794201 0.563037
40.591499 29.225300 1.430670
63.144501 26.821199 0.000000
49.316799 4.575100 -0.044442
46.176800 30.541000 2.923780
32.934101 26.231400 0.110340
40.822899 4.557830 2.433420
53.270401 27.140600 0.817999
56.636299 1.184910 1.139630
42.527699 5.209960 2.879340
30.352600 21.407400 1.931070
32.546799 14.036500 1.839150
21.164700 20.027300 0.000000
32.118099 22.792500 2.923780
51.377300 1.450260 -0.044442
25.116301 25.017799 0.987475
34.069199 26.548599 1.023960
30.260799 12.596100 -0.044442
54.290001 30.326401 2.923780
60.866901 1.853530 -0.016984
27.786200 15.134900 -0.044442
60.038101 25.989700 2.809860
53.896999 30.716600 1.785490
53.568199 2.945440 -0.044442
29.158300 25.428200 1.555200
25.018801 18.815800 2.879340
62.541199 25.408600 2.923780
31.381599 11.950700 -0.044442
41.235401 6.770920 -0.044442
61.270199 26.494301 2.923780
48.764000 4.364720 2.879340
56.181000 29.441000 2.923780
59.667702 4.419770 1.241660
30.226101 25.618299 2.392250
39.348301 8.479820 -0.044442
58.530899 26.357599 0.824806
63.763901 26.216600 0.000000
35.544701 8.241780 0.520127
53.446800 4.616900 0.163335
48.686298 1.700000 0.254056
57.801201 1.713970 -0.044442
36.857700 24.758900 0.689526
41.143600 27.801800 2.923780
45.385700 2.584310 1.421910
25.031601 20.830299 0.000000
31.240499 22.881701 2.923780
52.354698 3.119600 -0.044442
59.916302 28.499500 0.000000
22.649700 16.869801 2.879340
61.827801 28.552000 0.636404
46.484901 4.889340 -0.044442
59.001598 29.602100 0.073968
30.220900 11.992200 2.879340
31.194799 11.266200 1.987670
39.476700 27.305901 0.000000
35.007198 23.982401 2.282990
38.035702 6.264670 2.548350
29.028200 14.479900 -0.044442
21.842100 19.322599 0.000000
39.506001 8.642590 2.879340
31.091101 13.766600 2.879340
57.044800 26.754801 0.000000
34.081699 24.367399 2.923780
60.081200 1.688830 1.540580
41.245098 28.603001 0.000000
60.911499 3.243020 2.879340
33.073601 10.138400 0.554809
45.704899 4.082470 -0.044442
31.750099 24.778799 2.923780
24.335899 18.990499 2.879340
59.212502 26.213900 1.700260
38.584801 8.917730 -0.044442
52.998501 1.164960 -0.044442
37.143101 6.936330 0.673239
28.040800 12.868200 1.374950
22.869200 23.824699 2.238130
27.845600 16.012300 -0.044442
30.972700 14.458700 -0.044442
22.475201 15.362600 2.879340
53.500500 29.690599 0.000000
39.706100 25.716400 0.002875
63.694500 24.890400 0.911045
61.404202 26.477501 0.000000
50.030102 30.945499 1.348620
58.034302 2.431710 2.879340
31.472601 25.875500 2.337650
28.905300 24.763500 0.000000
31.907700 11.608900 2.879340
41.837898 28.450600 2.923780
40.386600 8.598060 2.835130
43.095600 27.864901 2.923780
52.300301 27.208799 0.583993
21.775700 24.670300 1.330200
56.312401 27.851601 2.923780
40.994099 8.289760 2.076400
60.180698 4.397520 -0.044442
59.337898 26.181400 2.783920
56.541000 27.296400 0.000000
31.804701 14.740300 1.072490
53.689800 4.589240 1.926080
55.380901 30.512199 1.422260
63.741798 24.888201 1.984530
50.216400 5.007940 -0.044442
31.369301 24.690800 -0.000000
50.785500 30.495701 2.923780
21.755301 15.513700 2.879340
51.696602 27.226801 0.016065
27.387400 23.868999 2.923780
30.619600 24.194300 0.000000
20.931999 16.820299 -0.198185
57.666199 30.012400 1.822250
45.222198 6.505060 2.610530
39.705299 28.868000 0.330950
25.694300 19.488400 0.000000
23.402700 18.036400 2.879340
22.735300 19.141500 0.000000
60.404499 26.703899 2.923780
35.435299 24.174400 1.792380
28.404499 14.829500 2.879340
23.556400 14.522300 2.497800
26.320101 19.849501 2.879340
28.851299 22.342600 0.000000
41.050301 26.851400 2.923780
45.071999 29.125799 0.000000
27.274900 22.799101 2.772670
62.980301 25.703300 0.000000
41.889599 4.009640 1.287320
34.150902 26.572399 1.761370
47.270802 2.450430 2.879340
52.644199 29.579700 0.000000
32.342602 25.884001 0.000000
34.071301 25.409901 0.000000
22.346399 16.584999 0.000000
53.483700 3.555010 2.879340
28.729300 18.465500 1.121090
46.090199 27.017200 1.419770
64.156998 27.040199 2.923780
55.668701 4.429300 1.836170
50.978199 27.248100 0.226987
36.614799 7.333820 0.040984
25.893101 18.880199 2.879340
51.332199 3.116170 2.879340
40.233799 29.081100 0.860239
35.677399 27.057699 1.518190
35.837700 27.113800 2.370950
49.811600 2.631320 -0.044442
46.679501 6.028020 2.245330
46.152599 30.626699 2.101320
25.493500 21.989700 2.879340
29.511200 17.411400 0.278610
54.391899 30.653000 1.207240
38.845200 7.940480 -0.044442
22.721201 19.211000 2.879340
23.129101 15.299200 1.549140
30.102200 16.534201 1.364090
34.417400 12.316400 -0.044442
56.537399 4.333570 2.879340
52.859501 27.201700 0.000000
59.585300 29.422800 1.089620
47.049801 2.064600 0.307543
54.903301 3.885240 2.879340
27.733000 24.782499 2.923780
28.895201 20.104300 2.216510
26.428600 21.545900 0.000000
29.237499 23.548800 0.000000
46.634399 3.319110 2.879340
63.986000 27.497299 1.741610
30.043600 11.892000 0.755977
54.986801 1.125030 2.428000
59.423500 27.567699 2.923780
56.777302 2.768060 -0.044442
40.128101 6.130370 -0.044442
56.511002 26.750401 1.970670
39.645699 7.465810 -0.044442
30.389700 24.369200 2.923780
37.702000 9.422960 -0.044442
49.895599 30.773600 2.923780
31.943199 23.038000 0.000000
35.159401 10.982200 2.879340
64.680000 25.305201 1.869390
35.823700 10.631300 -0.044442
35.406700 26.968201 0.695406
24.606001 22.040501 0.000000
49.901501 4.755970 2.879340
44.515301 6.763770 2.778610
50.866699 5.000710 2.642480
33.560699 25.889400 0.000000
58.965401 1.465970 1.614390
44.023602 3.076730 0.830946
44.176102 6.887920 1.414080
31.195200 15.352500 2.483940
45.038200 26.871000 1.295430
62.392899 27.957701 0.000000
57.156300 2.144910 2.879340
39.960899 5.036100 0.461409
55.172501 4.456110 2.368700
30.984301 25.770599 2.819030
42.245998 3.826500 0.650904
48.771999 5.451300 1.016600
36.604500 24.661800 2.683490
57.762001 1.319090 0.719918
35.718399 24.441000 0.000000
39.501301 28.785700 1.294540
55.251801 26.938700 0.988804
58.448002 27.415701 0.000000
38.319901 26.851700 2.923780
27.125401 18.793501 2.879340
51.634300 29.039101 2.923780
57.861099 29.952499 2.699500
42.309700 29.124001 2.923780
52.286701 3.059560 2.879340
20.913601 16.092899 0.480668
61.272701 4.523920 0.880733
50.406399 1.678080 2.879340
49.297600 27.234200 2.655500
24.141399 17.101700 0.321974
32.819901 11.865100 2.879340
29.003300 22.970900 2.923780
51.206699 1.835410 2.879340
61.730000 28.591400 1.386910
29.960800 14.981300 -0.044442
28.635201 12.592200 2.368380
54.853298 1.568750 -0.044442
55.020401 29.110901 0.000000
52.315899 1.915080 -0.044442
62.445301 3.341930 2.232800
49.896301 3.268470 2.879340
57.174999 4.369540 1.716600
41.333801 29.475000 0.464871
22.509100 14.789900 2.166430
24.594900 19.767200 2.879340
35.586601 9.301700 2.879340
56.083500 4.406900 0.244363
53.405899 4.621560 0.916721
48.760601 5.453980 1.725140
42.382900 7.238260 2.879340
49.266399 5.274760 2.879340
43.949001 30.205299 0.839970
31.975500 14.575600 2.522390
42.946602 7.391460 2.513420
29.968800 23.408800 2.923780
32.388699 12.871000 2.879340
22.476999 24.001301 2.879340
59.700699 29.387400 0.386126
28.875500 13.019100 2.879340
30.706100 24.920799 0.000000
18.633699 24.668100 0.000000
22.919800 14.790900 2.879340
39.187500 28.632500 2.923780
45.894798 5.383620 2.879340
23.566401 17.835800 0.000000
32.153599 24.816401 0.000000
61.715599 2.073100 2.072930
19.324600 21.382900 0.000000
39.637402 5.722970 2.879340
33.889198 9.910710 -0.044442
28.105000 15.443400 2.879340
56.028999 3.806870 2.879340
29.848101 22.314501 2.923780
24.004700 15.224300 1.549140
47.155602 5.885150 0.505498
61.907101 25.445200 2.671600
26.114300 22.831200 0.000000
57.677502 28.393999 0.000000
37.089699 26.700600 2.923780
41.348900 4.287510 0.552724
37.628799 26.250299 2.923780
38.146400 26.513201 0.000000
45.280102 6.483850 1.502310
20.161301 23.644899 0.000000
23.431601 23.125200 0.000000
58.513302 4.209240 -0.044442
26.671301 19.016600 0.000000
58.175999 4.374960 0.721713
26.038799 25.060400 1.581470
53.653500 2.380440 2.879340
41.417301 27.840700 0.000000
62.723999 27.019100 2.923780
48.545700 30.882200 2.879890
53.455002 28.941900 2.923780
19.509701 20.448601 0.000000
57.311901 1.482570 2.879340
27.551001 20.293800 0.000000
63.214600 27.756901 0.000000
45.484798 3.368220 2.879340
64.510803 27.199600 1.299700
55.721699 27.100300 2.923780
43.585800 27.710400 0.000000
27.235901 18.125299 2.879340
46.839901 27.918400 0.000000
31.445499 12.578700 2.879340
23.073099 24.901600 1.330200
46.701500 27.071800 1.858040
34.013199 26.412901 0.000000
40.647999 28.753500 2.923780
49.481800 5.283530 1.538070
38.086102 28.031601 0.000000
46.141701 28.683201 2.923780
24.358999 22.923700 0.000000
39.747002 28.154100 2.923780
33.546600 11.622500 -0.044442
34.252998 23.631001 0.000000
59.365299 2.665020 -0.044442
45.763302 26.979500 2.615000
51.519001 2.996060 -0.044442
22.268801 17.984501 0.000000
45.494999 4.739240 -0.044442
61.806000 28.422300 2.923780
40.247299 28.215401 0.000000
37.657200 9.491400 2.879340
47.588600 28.432699 0.000000
39.603001 5.326790 -0.044442
30.413401 25.654499 0.624406
34.094200 12.694400 1.738480
25.412300 23.505301 0.000000
49.589001 30.926701 1.913130
46.876400 5.968920 1.292660
34.907501 8.812240 2.009370
31.825199 22.327801 2.019570
64.836197 26.839100 2.838790
34.439499 10.472100 2.879340
21.903500 23.212500 0.000000
25.156700 16.861500 2.879340
41.788101 7.895310 2.368300
35.160599 24.235500 2.923780
27.677900 13.450300 2.879340
60.344398 29.150000 0.191579
51.509201 4.658090 2.879340
53.322899 30.790300 2.172960
55.181801 26.949200 2.349310
26.367100 18.253401 0.169704
30.740700 13.646900 -0.044442
41.019100 5.892250 2.879340
29.472900 14.096900 2.879340
21.203300 18.562099 -0.260701
29.978001 16.674700 0.549017
42.453800 7.605780 1.048610
57.811798 4.372990 2.779650
48.074501 27.194401 2.640460
27.587400 23.278099 0.000000
57.908001 3.768280 -0.044442
36.802898 26.869400 0.000000
37.391399 27.815100 2.359130
44.687500 29.754801 0.000000
27.132000 19.657600 0.000000
43.535500 3.277070 2.419820
26.542000 25.096901 2.196920
56.178200 1.168280 0.611808
22.670401 22.581200 2.879340
47.693699 30.374701 0.000000
29.097401 12.368700 0.130975
33.366501 23.182699 2.034200
40.804298 8.299010 -0.044442
26.184700 24.191799 2.390430
44.461601 26.784800 2.624310
55.186501 29.726400 2.923780
43.017200 29.992201 1.928690
54.459999 27.034300 2.330930
41.908501 7.842950 0.524814
43.059898 26.875601 2.923780
23.714399 24.113800 0.000000
52.418598 28.826000 0.000000
58.434399 28.378799 2.923780
42.154499 26.345600 1.318940
60.081200 27.012501 0.000000
28.063000 18.088900 2.879340
45.918400 29.380501 0.000000
40.744598 29.287001 2.131490
39.110298 25.538300 2.841650
52.713902 29.829700 2.923780
46.078899 30.056900 0.000000
33.617199 23.312401 1.157610
56.817402 4.367600 1.129490
47.188801 27.115299 2.580040
19.264500 17.945700 -0.466645
49.234901 29.511000 0.000000
48.417900 30.876801 2.160290
34.249500 23.662399 2.923780
22.075399 18.677900 0.000000
41.856201 29.635500 2.289540
50.089199 5.139960 2.207810
42.375999 27.244900 2.923780
52.335602 4.744420 2.120980
59.015099 4.379500 1.471050
22.614700 18.124901 2.879340
48.233299 3.686090 -0.044442
23.994801 14.397600 1.995240
35.511600 8.271420 2.682340
47.642502 30.818100 0.734451
57.791100 2.400710 -0.044442
39.325901 25.611300 2.002340
58.767399 29.183201 2.923780
28.548901 15.758400 -0.044442
50.326801 28.679199 0.000000
33.049999 24.835300 2.923780
54.246399 2.737670 -0.044442
28.327700 23.622101 2.923780
50.419399 1.404080 1.657930
49.043999 2.457600 -0.044442
39.164600 5.535260 0.915122
48.160500 29.388500 0.000000
39.158199 26.335199 0.000000
18.673901 18.458000 -0.341398
37.252201 24.908899 1.316230
46.061100 6.213550 1.908730
45.356400 6.285400 -0.044442
48.572300 27.212700 1.809980
64.965599 25.803801 1.452550
34.987400 26.829599 1.776230
26.302999 25.079599 0.154720
29.987101 22.671600 0.000000
44.551498 6.289570 -0.044442
26.000900 18.812401 0.000000
18.002701 22.476500 0.000000
58.249500 26.416901 1.527970
43.450298 5.934820 -0.044442
44.014999 27.841700 2.923780
43.945000 6.972520 0.150212
45.527100 26.944099 0.750336
61.362900 2.369550 -0.044442
61.510399 3.640100 -0.044442
35.926998 24.385900 0.847855
29.919100 25.559700 1.085040
47.486099 5.785990 2.105810
52.578602 28.148800 0.000000
50.442299 5.074750 0.888673
42.472000 29.824699 2.545160
29.366199 17.495399 2.879340
43.216702 30.047001 0.567146
44.536201 3.070630 2.879340
40.401798 4.774230 1.047060
44.925400 3.898400 -0.044442
51.557201 30.849001 2.923780
60.153900 1.704070 2.326000
47.246300 2.994860 -0.044442
58.636501 4.377450 2.088160
52.172798 27.212601 2.332550
21.191099 22.761101 0.000000
61.131401 28.820299 2.923780
61.618599 3.833300 2.879340
25.051001 14.064300 1.968230
51.898899 3.639480 -0.044442
59.511101 26.134001 0.901454
21.874800 24.318800 2.760170
40.369400 27.497499 0.000000
63.401901 27.792801 1.440250
31.628300 22.425200 -0.000000
28.701300 20.590000 2.865390
19.568800 18.899300 -0.407031
48.745998 28.892200 2.923780
58.918499 29.627701 0.967840
43.766899 29.662600 2.923780
55.842201 26.850401 2.082790
32.632198 26.153999 1.150600
50.292801 27.263800 0.670413
62.360401 27.887199 2.923780
21.466499 16.352699 0.000000
37.455700 10.280200 2.803080
44.750599 26.827999 0.307923
35.589199 8.201890 1.989780
38.653099 28.400999 0.000000
61.161800 25.682100 0.661711
39.750500 7.325230 2.879340
22.594999 17.248400 0.000000
41.447498 29.509899 2.845150
26.111401 13.790700 -0.044442
64.423500 27.262899 0.454757
24.395399 24.824699 0.000000
58.178699 1.369950 1.642890
23.134399 24.706301 0.000000
33.301701 26.330900 0.722754
62.602901 28.197100 1.077080
64.871696 25.580999 0.497031
56.342701 2.000820 -0.044442
23.842199 23.041599 2.879340
18.323299 20.062099 0.000000
53.093201 27.156401 1.806250
50.546101 27.260900 1.820660
30.704700 11.539000 0.738085
37.312801 27.579399 0.000000
33.369701 26.349300 2.420740
49.071999 30.904600 2.435290
36.108601 27.186300 0.000000
48.488899 28.603100 0.000000
52.658901 27.876900 2.923780
51.870701 30.896400 1.366330
63.020599 25.068001 1.407770
33.573101 23.813299 0.000000
40.444302 7.880810 2.879340
28.385401 14.786700 -0.044442
58.862000 29.645000 2.062360
24.398800 18.686800 0.000000
61.168800 28.817600 1.697710
27.305300 15.298200 2.879340
48.074501 5.616160 1.758000
35.990101 25.103800 0.000000
34.051201 12.729700 0.391819
53.422798 29.788099 2.923780
34.551899 10.337000 -0.044442
31.724400 14.014600 2.879340
47.354500 29.685801 2.923780
48.443001 27.712799 2.923780
53.408199 1.729450 -0.044442
21.787201 14.948500 1.767730
23.835300 21.403200 2.879340
33.066700 11.099500 -0.044442
48.577702 1.724190 2.857730
38.572102 27.258101 0.000000
37.219398 27.728100 1.406660
20.467501 20.375500 0.000000
40.416199 25.910801 1.855560
36.936100 27.584700 2.842200
22.386000 20.976101 0.000000
27.823999 22.086500 2.923780
41.264702 8.152410 0.701024
41.917301 6.985840 -0.044442
37.787300 25.587799 0.000000
54.001099 1.109590 1.438700
21.082800 21.421900 0.000000
50.315701 1.418060 -0.021229
39.112701 6.425410 -0.044442
32.024399 26.003401 0.890723
26.988800 20.686300 2.830120
56.417400 1.747170 2.879340
37.526299 8.001280 2.879340
57.664200 3.548370 2.879340
26.862400 14.540700 2.879340
29.537300 20.714500 2.447850
52.229401 30.759399 2.923780
40.704201 7.459360 -0.044442
40.012199 25.800200 2.549450
60.248699 28.171400 2.923780
41.310200 26.155500 1.856650
43.877899 6.978320 2.879340
28.665899 24.627800 2.923780
33.332901 10.318800 -0.044442
63.354698 24.987400 2.923780
29.032900 18.181101 0.545619
60.489799 27.811001 0.000000
32.552601 23.409700 0.000000
51.542702 27.231300 1.151130
29.648600 12.511400 2.879340
56.260700 30.322001 1.250070
29.209900 16.052500 -0.044442
38.907200 7.089300 -0.044442
35.836601 11.363100 2.843210
44.384300 28.622299 2.923780
35.158298 26.886000 2.819010
62.408100 2.938480 0.781928
42.232601 7.702010 1.838750
62.240700 27.052000 0.000000
41.277199 27.019501 0.000000
38.136101 28.191900 2.593710
25.528601 17.768801 0.335558
21.660900 17.694700 2.879340
64.940201 26.638201 1.194560
25.609699 20.312201 0.000000
42.131599 29.720100 1.473120
40.392799 27.929501 2.923780
56.272900 26.785999 0.945237
45.441799 30.528000 2.803080
49.918800 3.823380 -0.044442
44.556301 5.860040 2.879340
32.497398 22.713100 2.355430
37.474201 25.464500 2.923780
62.181801 2.452290 1.272450
37.770000 6.464630 1.341690
41.299500 26.152599 0.931123
24.344900 19.565100 0.000000
58.853500 28.033001 0.000000
60.645500 1.807120 1.165110
24.425100 20.530800 2.879340
35.785801 10.296100 2.879340
48.788399 27.405001 0.000000
48.440498 27.208799 0.964775
40.354500 26.111799 0.000000
19.753201 25.047800 0.000000
38.550201 25.348499 2.011320
40.679100 5.364770 -0.044442
56.566700 28.704800 0.000000
58.334499 1.388970 2.394970
30.847799 15.715300 1.990520
27.221399 24.361099 0.000000
55.712002 1.797920 2.879340
37.495998 10.253400 -0.044283
61.553501 25.692499 0.000000
34.414398 12.436200 2.580520
36.610699 24.664200 1.480680
22.308001 24.014000 0.000000
44.916698 27.715599 0.000000
48.976101 2.378460 2.879340
33.555599 24.569500 0.000000
53.918301 27.082701 1.279190
49.161800 27.230200 0.820361
34.499298 9.177710 1.189340
60.611500 26.255501 0.000000
40.367298 8.607880 1.114990
34.968800 12.004500 1.932580
42.491699 7.589300 0.201670
31.191299 21.945499 1.507930
37.851101 6.800870 -0.044442
29.402399 13.067000 -0.044442
48.776199 5.079180 -0.044442
42.437000 28.457800 0.000000
52.108601 3.722770 2.879340
41.390301 4.266260 2.667980
31.839500 13.278000 2.879340
28.905500 21.448200 0.000000
31.494600 14.006100 -0.044442
23.394899 25.019199 0.610023
45.280602 28.964500 2.923780
58.693298 4.290610 2.879340
57.253700 30.107300 2.427600
38.350700 25.281000 1.123480
63.809502 27.586599 2.413340
46.216000 27.573700 2.923780
38.367199 9.723710 1.082600
63.071701 25.050699 2.218280
29.684200 20.857300 1.721750
50.630199 4.005130 -0.044442
31.810200 22.319201 1.050050
46.957802 30.730101 0.153162
59.857399 3.777600 2.879340
57.575100 4.371700 -0.021717
36.529701 27.379101 1.739510
60.193001 28.899700 2.923780
43.478699 7.160040 2.012510
46.076199 6.209010 2.793670
20.594700 19.371599 -0.289298
41.027000 8.273040 2.805810
47.945400 30.289900 2.923780
24.836399 20.041599 0.000000
53.319901 27.196100 2.923780
38.990501 25.497700 0.549537
41.971001 26.306900 0.549721
28.581400 23.031799 0.000000
53.217701 1.147910 1.195730
47.710800 1.917330 2.196710
22.690100 22.889999 0.000000
17.858000 24.063101 0.860016
23.730700 20.662800 2.879340
54.304901 3.492450 2.879340
60.631199 25.827299 1.695680
57.866299 26.497700 0.774350
29.316601 23.797899 2.923780
38.443100 7.695650 2.879340
63.012699 26.117800 2.923780
57.722900 3.104020 -0.044442
55.309502 30.527599 0.052116
52.250900 30.152800 0.000000
24.718599 14.367800 0.705638
27.438101 13.135000 0.640422
49.250000 3.868730 2.879340
46.911499 3.844910 -0.044442
25.635300 18.119400 2.879340
44.145401 30.247700 1.640170
49.728802 28.412399 2.923780
25.540001 25.030500 2.158490
34.769699 9.657460 -0.044442
56.986099 27.758801 2.923780
56.496399 2.443010 2.879340
49.497398 5.279840 0.012820
22.205000 18.725599 2.879340
40.832001 6.219080 -0.044442
25.096901 22.868200 0.000000
19.982599 19.689699 -0.263394
60.836601 25.771099 2.501700
24.818199 18.070700 0.000000
40.364899 6.865120 -0.044442
51.126400 1.308730 2.119410
35.036301 8.696940 1.304450
28.856899 18.427601 2.783260
51.897598 29.320999 0.000000
58.412498 29.783100 1.388210
57.031399 28.045700 0.000000
34.653000 12.248100 1.276600
41.433601 7.421010 2.879340
49.216499 1.581880 2.053270
50.435902 2.320880 -0.044442
45.171501 5.406080 -0.044442
26.115000 20.791300 0.000000
24.678900 15.211200 2.879340
51.808800 2.334500 2.879340
30.339800 16.265400 2.085980
35.554901 8.232600 1.231890
43.422501 7.184470 0.683491
33.070499 13.563800 1.053870
37.331699 7.871550 -0.044442
24.316799 16.546200 2.879340
56.995201 26.677999 0.935489
45.813000 29.488899 2.923780
52.532001 3.940160 -0.044442
60.543301 2.885270 -0.044442
24.312599 14.418600 1.348100
54.544498 27.026800 0.980592
43.225399 6.648040 2.879340
54.915501 30.585699 2.757670
54.429298 4.505050 0.024884
61.512901 28.181601 0.000000
47.181099 4.584470 -0.044442
33.799198 10.933400 -0.044442
60.186798 29.213600 1.436130
52.630501 30.864000 2.029480
54.686798 29.841999 0.000000
29.813400 21.590200 2.923780
17.449301 22.397100 0.802189
36.680901 9.573940 2.879340
49.878601 27.905701 0.000000
42.087101 4.268490 -0.044442
54.135399 1.897060 -0.044442
33.273399 25.722700 2.923780
45.526901 6.393520 0.693476
54.126701 4.539510 0.640567
25.830000 24.056299 0.000000
62.520802 25.237301 1.839990
26.768299 23.333700 0.000000
32.158001 12.610600 -0.044442
57.796902 27.749100 2.923780
52.915600 2.253650 -0.044442
56.145802 27.996500 0.000000
54.234299 1.098180 2.105620
60.955898 28.066900 2.923780
31.432199 11.131400 0.637028
26.311199 24.666800 2.923780
36.439602 10.276700 -0.044442
57.755100 26.521200 0.058730
37.307701 6.812490 2.141700
37.159199 6.924190 2.865220
61.716801 27.218399 2.923780
36.952301 27.592899 0.749345
49.093700 28.058100 0.000000
30.917500 22.880899 0.000000
38.924099 27.868799 2.923780
34.988899 23.974100 1.217550
57.580700 26.558001 1.454290
56.030701 30.268499 0.000000
30.679800 11.552900 1.609320
47.863400 5.078940 -0.044442
30.493500 14.661500 2.879340
34.927700 26.029699 2.923780
59.594299 27.773100 0.000000
54.624001 27.019699 1.670520
32.224499 10.664700 1.308490
20.334000 17.429600 -0.440599
56.939201 3.331410 2.879340
43.765499 3.945080 2.879340
42.159500 26.802999 0.000000
51.487701 28.341900 2.923780
32.934200 24.257601 0.000000
42.026100 4.698740 2.879340
36.676701 10.800000 2.397620
41.970901 5.680180 2.879340
39.764599 8.913750 0.837815
24.272200 15.996800 1.549140
37.343700 25.009199 0.000000
36.006199 7.828550 0.131485
51.335800 30.031300 2.923780
36.478100 26.295799 2.923780
52.646400 27.196301 2.830170
47.918800 4.292660 -0.044442
42.483002 29.828100 0.717569
47.824100 27.172001 1.667400
51.120300 1.309560 0.579114
27.862101 14.212600 -0.044442
37.034500 9.757400 -0.044442
29.338200 15.166900 2.879340
56.724300 1.192440 2.294450
35.835999 8.609720 -0.044442
38.430302 9.686800 2.796450
47.189098 29.000200 0.000000
35.139900 11.875000 2.833820
37.163200 8.767330 2.879340
26.785000 25.119301 1.042720
61.484699 28.690300 2.296990
54.846100 27.911400 2.923780
54.860401 29.037100 2.923780
27.472700 16.141399 2.879340
45.219501 4.506600 2.879340
21.668501 19.414700 2.879340
56.649502 28.537701 2.923780
34.598000 26.066900 0.000000
40.199501 6.347170 2.879340
44.706600 2.797660 1.036740
57.991402 28.906099 2.923780
33.280701 10.006200 1.995930
64.517700 25.158800 1.134800
45.528099 27.709900 2.923780
49.154800 30.908199 0.597499
50.173901 30.040300 2.923780
28.171000 19.870100 0.000000
25.738100 15.932100 2.879340
51.248699 4.934050 1.317230
64.839302 25.514700 2.912300
39.874001 28.936001 1.937230
21.643299 17.592600 0.000000
36.294399 27.274099 2.921710
29.147100 18.021200 1.998940
32.473400 10.514000 1.969870
45.147099 26.990101 2.923780
59.241699 3.395900 -0.044442
56.142300 4.403720 2.317760
48.320099 1.781570 0.836664
48.441799 30.877800 0.330808
32.467999 25.258900 2.923780
36.860401 8.149170 2.879340
63.118301 27.936300 0.659337
33.184502 10.900400 2.879340
23.470501 22.294500 2.879340
23.502001 18.834400 2.879340
22.663200 19.890100 0.000000
52.242699 4.564330 2.879340
36.511600 10.910200 1.600480
47.493198 4.288400 2.879340
51.010899 4.811240 -0.044442
62.144501 4.059870 -0.019795
19.182100 25.023500 0.564456
44.846199 27.689899 2.923780
47.095501 5.407870 -0.044442
24.775600 17.490801 2.879340
21.938499 20.070801 0.000000
33.631802 9.775560 0.907346
46.128601 3.840320 2.879340
55.859402 4.419000 0.980104
51.016602 30.932800 1.820880
50.202801 1.433290 0.729698
52.605301 1.177870 0.701709
61.151001 27.161200 0.000000
47.392601 3.593620 2.879340
59.497700 26.881300 2.923780
30.615499 11.674500 -0.044442
35.226299 25.288099 2.923780
39.022598 28.592699 1.829180
58.696800 26.725100 0.000000
62.276699 2.605250 1.943020
18.787901 20.590099 0.000000
54.345200 1.101740 2.779360
28.919300 20.124201 0.127414
28.705601 13.853300 2.879340
24.281500 24.783899 1.330200
44.646801 30.356199 0.570708
51.720600 4.851720 0.831772
44.838902 2.756070 2.080750
64.462898 25.157600 0.000000
59.906200 3.586870 -0.044442
60.776299 28.544201 0.000000
43.132301 29.924500 2.923780
36.698399 9.055830 -0.044442
21.325800 25.164000 0.765216
37.762402 25.081699 1.767090
20.991301 17.659100 -0.351403
25.869600 14.042200 2.879340
31.171301 14.636700 2.879340
57.443001 27.506300 0.000000
41.762901 26.742500 2.923780
28.113899 12.834200 2.733320
42.630901 28.382601 2.923780
29.884501 16.785200 2.099490
52.945499 2.878960 2.879340
62.862400 28.065800 1.749330
53.124500 4.653600 2.322770
52.575500 4.716090 0.700099
52.366100 30.875299 0.853487
23.513700 23.439600 2.169470
36.308998 7.563910 1.644660
47.816399 29.110800 2.923780
30.017900 25.082899 2.923780
63.154499 27.917999 2.455050
29.175800 20.363001 1.621570
48.571800 3.003840 -0.044442
28.848801 15.667500 2.879340
60.871300 1.854450 1.885270
42.540401 6.428520 2.879340
49.547600 5.267960 0.815419
48.202702 5.585860 0.418074
51.982700 27.849800 2.923780
52.779099 4.692910 -0.024947
39.171600 9.253460 1.762360
37.776299 7.317790 2.879340
51.603199 4.463790 -0.044442
55.889599 2.514880 -0.044442
55.848701 29.495501 0.000000
61.613701 25.544600 1.397370
54.235600 29.334101 2.923780
52.192699 1.198060 2.632170
46.781399 30.707500 1.267180
60.324299 4.462370 0.643303
41.905499 29.573999 0.000000
57.183399 26.641800 2.231030
46.639801 29.787901 2.923780
25.346100 14.547200 0.099347
34.213501 25.645399 2.923780
59.653801 4.418870 0.550442
35.279999 24.106199 0.607236
35.874802 24.363400 2.394550
39.814800 26.552799 0.000000
42.797199 4.725480 -0.044442
55.990398 30.380400 2.169190
37.847099 25.110399 0.540063
47.854198 28.095501 2.923780
45.078499 2.791600 -0.044442
49.598301 1.514810 0.193483
35.413101 11.670600 0.910751
46.767601 29.907400 0.000000
63.893501 27.544100 0.939724
51.792599 1.218890 0.967781
51.900600 1.212350 1.801720
47.403000 27.134399 0.125569
53.272202 28.191401 2.923780
52.166801 4.773880 1.369870
44.853600 30.400900 1.276830
57.498100 1.286880 1.751960
39.185101 6.457270 2.879340
31.273300 23.744101 2.923780
22.882799 23.575399 0.000000
23.299000 18.616400 0.000000
25.266899 19.668699 2.879340
54.901299 1.708460 2.879340
55.683800 30.446699 2.857830
33.080002 25.228001 0.000000
45.919800 4.518540 2.879340
53.386002 1.139680 2.271950
28.163300 25.279600 0.404529
31.393101 15.150900 -0.037277
52.834599 3.926740 2.879340
50.016499 1.458410 2.309000
54.345001 28.407600 2.923780
56.164799 3.221970 -0.044442
59.260201 27.175200 0.000000
44.774601 6.668860 2.103020
29.456600 22.039801 0.000000
58.726601 26.316299 2.356200
47.071602 27.104799 1.261800
46.156799 6.184850 0.520704
46.818501 4.583150 2.879340
47.258801 5.854210 2.766230
53.590698 4.492680 2.879340
20.382299 22.928699 0.000000
55.976200 26.830400 0.146451
52.955399 4.672850 1.465530
47.812199 4.972850 2.879340
47.164700 30.756701 1.830960
27.532200 19.063900 0.000000
61.808998 3.015870 -0.044442
37.838501 28.041300 1.330680
49.220299 3.139360 2.879340
43.726299 27.198799 2.923780
47.595600 30.812000 2.463800
30.166901 13.925500 2.879340
26.682800 14.363300 -0.044442
40.556000 4.694980 1.705830
50.660900 27.979700 0.000000
44.033901 30.223600 0.106887
40.819599 6.663190 2.879340
54.363800 28.778999 0.000000
55.255501 30.539301 2.160180
32.396599 22.657301 1.067110
51.294498 1.286060 1.431900
28.490200 25.324400 2.847530
41.794899 6.297890 -0.044442
45.275002 5.684020 2.879340
59.763901 26.064800 2.156640
62.331699 3.756920 2.786100
55.918598 1.158860 1.845500
34.145599 9.430000 0.391172
28.249001 20.625500 0.000000
33.188301 10.066000 2.724830
41.466900 8.049840 1.533720
33.492298 13.197300 0.517115
30.731100 15.351600 -0.044442
41.082401 4.424460 1.167190
62.280300 3.870790 1.841810
38.525299 26.087799 2.923780
26.582001 24.073299 0.000000
58.730801 26.699400 2.923780
33.017101 10.174000 1.280300
43.907700 6.172100 2.879340
30.741899 25.079700 2.923780
55.175201 2.360840 2.879340
46.187500 30.631201 0.826464
49.900600 30.939899 0.479548
51.919399 30.894300 2.335710
58.077702 26.890200 2.923780
43.120300 7.156370 -0.044442
36.670200 8.344700 -0.044442
37.803902 27.669100 2.923780
34.445999 24.937901 2.923780
48.653702 4.355960 -0.044442
49.076801 30.142401 2.923780
63.759800 27.216499 0.000000
29.069000 21.257700 2.923780
26.811399 13.400500 0.619989
58.695099 1.432980 0.971777
37.620800 27.931200 0.673003
32.046200 10.772700 2.482360
52.033699 29.973499 2.923780
48.206001 30.867701 1.466860
53.531200 27.117300 0.053544
34.051899 23.530899 2.210410
41.138901 5.169790 2.879340
46.569599 2.212400 1.501930
33.425499 24.184099 2.923780
48.993698 30.901300 1.436700
24.122801 22.098900 2.879340
39.200802 8.010630 2.879340
53.502602 1.133980 0.456952
37.050098 26.221600 0.000000
39.379002 9.132220 0.201191
26.147600 15.477500 0.344190
39.092999 9.299430 0.974013
60.000702 2.178320 2.879340
21.695601 20.732401 0.000000
50.406399 28.683399 2.923780
31.124599 25.800400 1.107510
24.671400 21.631800 2.879340
25.656401 21.084700 2.879340
41.153500 4.387930 1.853960
52.558300 30.867100 0.014193
44.528400 26.794800 1.855950
51.698799 4.855530 1.922270
27.708599 16.775101 2.879340
27.123501 13.269300 1.995710
62.333500 3.753040 0.961505
48.511299 1.738970 2.174600
36.649399 24.832500 0.000000
22.733400 19.921301 2.879340
27.894501 25.242800 2.454560
24.021500 14.881000 2.879340
26.398399 19.699200 0.000000
62.366901 25.289400 1.129350
31.092699 24.454500 2.923780
23.046200 17.433500 2.879340
19.302900 19.625799 -0.154262
41.498100 4.732250 -0.044442
23.774500 19.103201 0.000000
40.386600 8.598080 1.824430
45.205002 29.811100 2.923780
53.984798 4.555650 1.315130
57.785301 29.975800 1.122590
28.866400 12.481100 1.719530
29.674801 13.435700 2.879340
49.271000 27.233500 1.815020
37.475399 26.756500 0.000000
22.477301 15.084900 1.549140
38.244400 8.267570 -0.044442
34.731998 26.750200 1.129260
55.521801 27.801001 2.923780
