ply
format ascii 1.0
element vertex 800
property float x
property float y
property float z
end_header
243.307007 30243.199219 664.414001
12070.400391 31129.000000 201.438004
3240.780029 26520.500000 703.116028
8948.259766 17667.300781 958.812012
10275.900391 24743.000000 580.125000
11168.599609 26851.000000 580.125000
1082.270020 25834.199219 840.426025
12493.500000 20631.900391 240.380005
-189.070007 29148.099609 958.812012
7441.609863 14940.599609 958.812012
9800.540039 26084.500000 201.436996
3733.239990 25604.300781 886.232971
3990.060059 25802.400391 580.125000
3918.919922 22840.900391 958.812012
11821.500000 27425.699219 580.125000
2293.800049 27112.800781 958.812012
12208.200195 22456.599609 580.125000
4680.149902 23632.800781 958.812012
6975.000000 18842.300781 580.125000
11055.200195 25992.400391 580.125000
12493.500000 16345.099609 277.122986
5487.120117 20361.500000 580.125000
5057.080078 19742.599609 580.125000
3821.550049 25346.400391 580.125000
4806.209961 22773.400391 958.812012
5623.950195 17839.599609 580.125000
2901.540039 22934.699219 958.812012
4235.490234 19683.800781 627.968994
2504.800049 23544.500000 580.125000
11421.700195 33026.000000 201.438004
11799.400391 33463.699219 580.125000
3856.800049 20500.099609 958.812012
12493.500000 32388.199219 518.536011
2761.159912 27197.900391 580.125000
4902.500000 21743.900391 958.812012
11607.500000 21733.400391 580.125000
7476.240234 19570.199219 580.125000
10195.000000 19718.500000 580.125000
8547.919922 20996.800781 201.438004
580.830017 26812.199219 930.564026
1164.910034 29162.699219 580.125000
154.925995 28002.599609 580.125000
12450.799805 31191.900391 580.125000
4191.799805 21107.900391 580.125000
6718.180176 18088.199219 580.125000
3590.070068 26182.699219 580.125000
7056.060059 14773.099609 580.125000
-288.460999 30451.000000 927.179993
11562.799805 27978.000000 580.125000
9906.500000 19823.199219 201.438004
8673.639648 21656.300781 201.438004
4152.500000 21750.000000 958.812012
8343.059570 19823.199219 285.584991
11400.599609 31678.400391 201.438004
-742.851013 29847.699219 580.125000
5401.700195 24171.699219 586.853027
3612.820068 23655.800781 580.125000
8120.500000 18236.699219 958.812012
198.929001 29201.800781 580.125000
-3.547060 27991.099609 958.812012
9295.179688 15049.799805 958.812012
7762.410156 18563.599609 580.125000
10718.700195 21481.199219 201.438004
4031.469971 20923.099609 958.812012
10637.700195 24203.000000 580.125000
12493.500000 26461.699219 547.249023
9131.019531 19308.400391 201.438004
12460.500000 19798.400391 580.125000
12493.500000 17272.900391 291.990997
407.566010 29840.500000 784.106995
4441.859863 21916.300781 580.125000
6915.279785 18042.400391 958.812012
4387.390137 20526.900391 958.812012
6843.629883 19293.400391 580.125000
3719.129883 25158.599609 958.812012
6048.419922 16261.200195 580.125000
2928.770020 26035.199219 580.125000
9881.589844 20704.099609 580.125000
12223.599609 30381.199219 201.438004
6479.089844 20429.000000 580.125000
7036.959961 20723.099609 580.125000
9724.700195 17452.099609 958.812012
4129.250000 22191.099609 580.125000
9588.309570 17060.400391 958.812988
10594.700195 25689.300781 201.438004
8870.059570 19442.900391 833.056030
10334.900391 27770.699219 478.053009
6009.500000 20101.300781 580.125000
6220.799805 15831.900391 580.125000
4511.620117 24839.099609 775.934998
6824.089844 13341.900391 682.695007
2986.719971 22119.500000 702.604004
-719.780029 31251.000000 764.629028
10680.200195 22802.300781 201.438004
1737.599976 28371.400391 691.539978
7463.200195 18388.300781 958.812012
6272.000000 17217.699219 580.125000
2011.250000 26548.599609 958.812012
7188.040039 20753.699219 958.812012
12493.500000 18707.400391 289.683990
12493.500000 22871.199219 572.283020
7067.709961 21556.300781 870.263000
11277.799805 17981.500000 201.438004
8352.759766 15727.299805 958.812012
2136.409912 25467.199219 958.812012
4854.379883 21185.599609 580.125000
11995.099609 21539.900391 580.125000
2756.739990 24358.800781 580.125000
5855.390137 21926.400391 580.125000
4244.250000 25147.900391 786.526001
10771.400391 15918.599609 958.812012
2588.219971 25326.400391 580.125000
-910.231995 30884.599609 958.812012
12379.299805 15575.599609 356.881012
3346.820068 22697.099609 958.812012
12035.200195 29729.699219 201.436996
10197.400391 17332.900391 768.260986
10960.799805 17216.099609 201.438004
4112.470215 20331.099609 580.125000
5331.970215 22813.000000 958.812012
11198.400391 26137.400391 201.438004
6143.419922 23246.300781 600.421021
6545.500000 18603.800781 580.125000
11840.200195 32897.398438 201.438004
10217.200195 21770.900391 201.438004
11599.400391 26104.800781 580.125000
4332.839844 24497.599609 580.125000
2782.570068 22517.699219 667.612976
722.844971 29217.699219 925.598022
5077.720215 20237.800781 580.125000
5690.319824 19653.599609 958.812012
4371.250000 24145.699219 958.812012
9138.349609 23607.099609 201.438004
9737.490234 17109.199219 201.438004
12052.400391 32453.699219 580.125000
9747.379883 15649.700195 958.812012
5377.680176 18431.400391 580.125000
7582.080078 21061.199219 803.838013
2717.770020 25568.900391 958.812012
9223.450195 17117.800781 201.438004
7721.779785 14444.900391 958.812012
5491.609863 20982.500000 580.125000
5403.069824 17907.000000 958.812012
1501.380005 25733.199219 958.812012
12390.099609 19276.699219 580.125000
10898.799805 25015.199219 201.438004
-343.053009 29991.300781 958.812012
770.182983 27517.900391 958.812012
11596.700195 23840.599609 201.436996
7406.770020 15648.299805 958.812988
11524.099609 23675.900391 580.125000
8336.040039 18444.099609 201.438004
1787.910034 26976.199219 580.125000
3108.139893 25476.599609 580.125000
3861.080078 24729.699219 580.125000
677.112976 28251.900391 580.125000
12493.500000 29221.099609 295.019012
10142.599609 21598.500000 580.125000
4177.120117 23672.400391 958.812012
10181.799805 22846.400391 201.438004
7222.589844 17811.400391 580.125000
600.072021 27660.099609 580.125000
3727.969971 23195.500000 580.125000
7977.680176 20833.000000 687.223999
2240.129883 23975.400391 958.812012
7630.439941 18787.000000 958.812012
8490.379883 18853.199219 958.812012
6029.580078 18021.199219 580.125000
2497.729980 24778.000000 580.125000
3568.560059 24354.800781 580.125000
2766.219971 23949.000000 958.812012
5944.520020 16458.000000 958.812012
10451.000000 16586.900391 958.812988
-1235.180054 30583.900391 638.161011
12493.500000 33024.500000 371.010986
5218.310059 23589.099609 958.812012
10667.000000 27256.699219 201.436996
3531.080078 21248.000000 958.812988
5072.759766 24046.099609 839.409973
7445.790039 21592.400391 636.622009
4544.279785 23185.199219 958.812012
6686.000000 16669.099609 958.812012
7073.259766 16079.900391 958.812988
-1068.040039 30184.400391 958.812012
9279.030273 18911.500000 851.218994
6243.359863 22043.599609 958.812012
1763.599976 27267.699219 958.812012
-668.982971 30861.500000 580.125000
11648.299805 34189.800781 201.438004
11508.700195 33801.800781 363.864014
3555.629883 22303.199219 958.812012
2971.820068 23979.699219 580.125000
-87.530098 30715.599609 580.125000
1366.609985 27653.500000 958.812012
11563.799805 31066.199219 201.438004
12182.900391 32657.599609 201.438004
5149.890137 22329.800781 580.125000
12493.500000 16928.500000 537.825989
6030.279785 18771.699219 958.812012
11417.200195 22786.000000 580.125000
2202.830078 27552.900391 580.125000
11153.700195 27878.099609 201.438004
11071.700195 30910.699219 534.143982
7511.620117 15952.599609 580.125000
3155.909912 23465.199219 958.812012
1767.310059 27792.699219 958.812012
11727.200195 30281.400391 201.438004
9630.169922 19197.199219 201.438004
12493.500000 20116.199219 220.320007
11931.000000 22745.099609 201.438004
8764.860352 15555.700195 958.812012
12493.500000 21641.599609 229.514008
9308.709961 17937.699219 958.812988
12112.400391 20669.199219 580.125000
10353.900391 17437.900391 201.438004
-254.408005 28441.300781 812.932983
5386.859863 17438.099609 774.283997
2172.850098 25312.800781 580.125000
10389.599609 15258.799805 958.812012
11140.000000 20916.099609 201.438004
7533.220215 19139.199219 580.125000
1001.320007 26703.900391 958.812012
5899.319824 20651.199219 580.125000
10573.099609 16876.800781 201.438004
11214.500000 32524.800781 346.200012
12493.500000 28734.800781 450.953003
6470.759766 22108.199219 580.125000
11831.200195 29877.099609 580.125000
6892.680176 22103.900391 702.666016
-497.579987 28915.599609 710.661987
1088.239990 26295.300781 958.812012
7849.839844 17642.900391 580.125000
6448.290039 18365.500000 958.812012
2688.040039 25158.500000 958.812012
10979.599609 16616.099609 201.438004
7309.459961 16379.000000 580.125000
9976.570312 22121.000000 201.436996
5381.390137 23680.500000 580.125000
12493.500000 31574.599609 340.842010
12006.500000 15671.400391 201.438004
1868.719971 25948.599609 958.812012
2026.130005 28084.400391 656.450012
8667.099609 20157.300781 201.438004
4884.779785 24462.900391 736.315002
1443.489990 27461.699219 580.125000
2463.729980 25914.599609 958.812012
12493.500000 24737.500000 485.135010
11986.400391 32014.099609 580.125000
12493.500000 29714.900391 204.011002
9082.110352 16156.599609 958.812012
7478.779785 16230.200195 958.812012
4525.240234 23518.099609 580.125000
6361.490234 16766.500000 580.125000
9795.790039 23157.300781 580.125000
4824.939941 20714.599609 958.812012
3801.729980 21905.000000 580.125000
6274.040039 21438.900391 958.812012
5795.399902 19192.099609 958.812012
2300.219971 24314.000000 580.125000
3658.489990 21733.900391 958.812988
10629.400391 30492.500000 227.636002
360.359009 28633.400391 958.812012
4780.160156 18621.500000 608.447021
4437.750000 20067.400391 580.125000
10208.700195 25588.599609 580.125000
4424.189941 19893.900391 958.812012
1818.819946 26501.199219 580.125000
6391.819824 20684.400391 958.812012
952.091980 28694.500000 580.125000
12131.799805 31722.099609 201.438004
10779.500000 19184.099609 201.438004
11091.099609 15097.400391 958.812012
5043.479980 19051.800781 958.812012
5358.839844 21481.400391 958.812012
9298.000000 20573.199219 201.438004
5723.799805 17243.900391 580.125000
5944.990234 20248.000000 958.812012
2446.800049 26716.900391 958.812012
5477.290039 19916.099609 580.125000
6826.500000 17085.400391 580.125000
9074.820312 21710.099609 518.901001
1032.839966 28431.300781 958.812012
2442.520020 23181.000000 869.614014
344.777008 29455.099609 958.812012
11692.299805 31236.699219 580.125000
4919.569824 22362.800781 958.812012
11435.599609 25152.199219 580.125000
11632.500000 24112.099609 580.125000
10506.299805 18610.400391 201.438004
5880.979980 19557.400391 580.125000
12493.500000 27155.500000 331.623993
12006.000000 33780.500000 201.438004
3608.540039 23398.099609 958.812012
192.395996 27569.800781 748.331970
1500.109985 26129.599609 580.125000
4564.790039 19041.500000 745.489014
12493.500000 31992.199219 257.821014
1801.459961 25675.599609 580.125000
2596.889893 25770.500000 580.125000
9686.929688 24846.900391 461.057007
8282.240234 17820.500000 958.812012
10971.000000 20582.599609 580.125000
9853.299805 24561.300781 201.438004
2855.840088 26628.400391 915.059998
5864.750000 17584.500000 958.812012
4199.399902 23109.599609 580.125000
7472.330078 20107.199219 958.812012
9453.019531 18190.900391 201.438004
12091.200195 29206.400391 201.438004
11621.000000 32477.599609 201.438004
8168.879883 20153.500000 904.109985
12209.099609 34027.601562 580.125000
6631.549805 21763.099609 958.812012
3742.689941 22775.500000 580.125000
12093.900391 27027.000000 580.125000
4868.669922 19721.699219 958.812012
11542.000000 18217.800781 580.125000
12473.700195 27481.500000 580.125000
4497.689941 22823.099609 580.125000
11296.799805 30008.099609 580.125000
5594.500000 23287.099609 580.125000
8671.000000 17081.500000 958.812012
4023.159912 24084.199219 580.125000
12493.000000 33427.398438 554.880005
1384.239990 25519.099609 580.125000
11404.900391 17156.300781 201.438004
2130.129883 25969.800781 580.125000
9887.339844 17903.000000 902.182007
11551.200195 16767.800781 201.438004
9473.910156 23819.800781 468.498993
12063.500000 17371.400391 580.125000
5856.620117 22849.699219 580.125000
8971.790039 18572.400391 958.812012
7507.259766 13852.500000 883.875000
1003.010010 27543.599609 580.125000
4584.390137 24166.699219 580.125000
6290.350098 21204.199219 580.125000
6800.419922 15570.099609 958.812012
11035.700195 27612.099609 580.125000
5289.000000 21010.000000 958.812012
11637.900391 25733.300781 201.438004
6549.490234 15185.900391 580.125000
12140.599609 24594.599609 201.436996
7364.959961 16781.199219 958.812988
5894.279785 18217.400391 958.812012
11145.400391 20467.199219 201.438004
3741.899902 20646.599609 588.776001
10658.599609 19519.199219 580.125000
11575.700195 16205.000000 580.125000
9149.870117 17069.400391 958.812012
7183.490234 19717.099609 958.812012
9397.610352 24246.400391 332.373993
4195.509766 21575.000000 580.125000
10003.000000 18984.300781 201.438004
6655.069824 15017.900391 958.812012
7669.750000 19234.400391 958.812012
12223.099609 15918.500000 580.125000
398.661011 27167.500000 591.036987
11192.099609 17680.900391 580.125000
8283.360352 15310.700195 958.812012
6388.799805 19576.800781 580.125000
1046.319946 26500.300781 580.125000
11689.000000 29366.800781 580.125000
7574.979980 16882.000000 580.125000
12493.500000 24296.099609 489.419006
5298.720215 19023.599609 580.125000
1211.420044 28023.800781 580.125000
11315.700195 21269.500000 580.125000
11228.700195 27341.500000 201.438004
1469.109985 25079.599609 583.848999
271.260986 29039.900391 958.812988
8584.679688 19993.400391 733.419983
10352.000000 22453.099609 580.125000
12008.000000 20418.500000 201.438004
6178.220215 18863.699219 580.125000
7043.370117 19781.400391 580.125000
5731.979980 23101.300781 922.106995
2620.500000 26646.500000 580.125000
12493.500000 30787.000000 403.877991
6343.770020 17852.599609 958.812012
7314.620117 17248.699219 958.812012
11187.700195 19818.800781 580.125000
8000.689941 19732.599609 958.812012
8784.370117 22085.199219 245.001007
3667.129883 21128.300781 580.125000
9922.620117 21415.099609 201.438004
3152.469971 26188.000000 958.812012
12454.000000 26753.699219 201.438004
8857.830078 20662.599609 526.742981
12493.500000 21089.500000 388.319000
10102.099609 27515.699219 201.438004
6970.229980 15927.400391 580.125000
10265.200195 24020.300781 580.125000
11419.500000 19131.900391 201.438004
10105.900391 28107.099609 201.438004
12493.500000 18161.500000 445.256989
-644.135986 29297.900391 958.812012
6572.700195 17701.400391 580.125000
6446.169922 17390.099609 958.812012
10090.200195 18642.099609 580.125000
9408.980469 16328.700195 201.438004
10991.900391 31853.400391 274.983002
6418.209961 15782.900391 958.812012
8836.030273 14828.500000 958.812012
8859.440430 19052.500000 958.812012
11108.099609 16399.199219 580.125000
9630.089844 16543.400391 958.812012
8110.339844 18651.900391 958.812012
5821.569824 18509.900391 580.125000
3718.310059 22337.699219 580.125000
1138.000000 27059.900391 580.125000
10782.400391 16343.799805 852.546997
10032.799805 16387.000000 958.812012
7808.620117 19839.199219 580.125000
11093.400391 23181.599609 201.438004
3198.530029 25616.000000 958.812012
-767.254028 30477.000000 958.812012
6936.060059 17422.300781 958.812012
11341.500000 29473.500000 201.438004
11706.700195 15137.299805 201.438004
6229.689941 21644.500000 580.125000
12056.799805 28409.099609 580.125000
7111.509766 20245.500000 580.125000
1630.739990 26364.699219 958.812012
6674.839844 19880.199219 958.812012
3226.929932 21651.000000 876.080994
9170.780273 21148.300781 201.438004
7816.200195 15321.299805 958.812012
6998.830078 19018.199219 958.812012
10138.299805 20903.699219 201.438004
0.894226 29827.599609 580.125000
12109.500000 20106.300781 580.125000
9676.129883 22417.199219 201.438004
10439.000000 25142.800781 201.436996
10957.299805 29088.099609 580.125000
10342.799805 15934.700195 958.812012
11585.000000 19752.400391 201.438004
4765.910156 20192.199219 958.812012
10983.299805 31314.300781 373.145996
7779.649902 16375.200195 580.125000
12076.000000 25677.800781 580.125000
3754.340088 24355.400391 958.812012
8159.720215 14773.799805 958.812012
5154.970215 17913.000000 580.125000
12493.500000 25391.599609 321.794006
-346.286987 29570.900391 580.125000
12493.500000 22457.500000 242.819000
11425.500000 20301.900391 580.125000
10517.500000 29559.599609 295.755005
7837.049805 15818.200195 958.812012
7112.870117 13609.299805 272.847992
6858.810059 16608.800781 580.125000
11992.200195 18940.400391 580.125000
4766.759766 20563.199219 580.125000
10747.400391 19944.599609 580.125000
993.059998 28004.699219 958.812012
7259.189941 18390.300781 580.125000
5466.399902 19469.500000 580.125000
6844.850098 21252.000000 580.125000
3308.389893 23155.400391 580.125000
9808.419922 25550.500000 201.436996
11342.500000 22331.699219 201.438004
11933.099609 18716.099609 201.438004
10693.000000 17714.800781 201.438004
9389.980469 19759.400391 580.125000
8546.269531 16539.800781 958.812012
12146.599609 33278.500000 201.438004
11326.799805 18666.599609 201.436996
6215.160156 19167.500000 958.812012
827.916992 29436.599609 580.125000
6581.990234 18955.300781 958.812012
9957.360352 20291.500000 580.125000
9601.469727 22905.300781 201.438004
6332.529785 22779.599609 702.293030
5799.580078 16633.099609 618.841980
8144.169922 16091.200195 958.812012
12493.500000 23700.400391 379.007996
8614.209961 18060.400391 958.812012
4961.689941 21947.400391 580.125000
10805.200195 20955.599609 580.125000
6003.399902 22602.599609 958.812012
9415.049805 18482.300781 958.812012
4701.549805 21322.099609 958.812988
169.591003 28433.500000 580.125000
5784.759766 21078.599609 958.812012
10431.799805 17794.900391 580.125000
9073.379883 19834.500000 201.438004
8660.860352 18015.000000 201.436996
12493.500000 26036.900391 429.665009
2249.090088 26964.099609 580.125000
3450.989990 25789.199219 580.125000
10594.599609 25285.699219 580.125000
11041.000000 30084.800781 201.438004
7838.859863 16957.199219 958.812012
5403.149902 22288.300781 958.812012
4019.760010 24678.500000 958.812012
5832.819824 16988.500000 958.812012
11063.700195 30352.099609 580.125000
10442.599609 29163.300781 201.438004
2015.229980 24014.400391 614.668030
12285.200195 29776.800781 580.125000
11579.000000 17609.500000 201.438004
11715.000000 20855.199219 201.438004
8616.799805 16617.000000 201.438004
1397.219971 26891.000000 958.812012
11890.299805 23310.300781 201.438004
3923.409912 21374.400391 958.812988
7120.520020 15469.099609 580.125000
9855.049805 17885.699219 201.438004
5104.569824 18274.699219 958.812012
6731.350098 19424.400391 958.812012
11751.000000 24822.599609 201.438004
10544.500000 28293.500000 201.438004
10970.000000 29566.500000 580.125000
12493.500000 30132.400391 426.528992
12104.000000 24121.500000 580.125000
11332.299805 15506.500000 929.323975
11247.299805 28925.400391 201.438004
-30.941999 29648.000000 958.812012
1838.719971 24465.900391 580.125000
5790.379883 23656.500000 580.125000
6632.430176 15694.400391 580.125000
5680.910156 21978.500000 958.812012
3520.409912 24692.699219 958.812012
-1145.719971 31050.400391 647.867981
12449.200195 33718.101562 252.509995
9227.809570 21918.800781 201.438004
7179.149902 14237.000000 922.786011
10445.500000 24430.199219 201.438004
10833.700195 23539.699219 201.438004
12493.500000 19560.199219 220.559006
12115.599609 22199.599609 201.438004
11502.900391 15665.700195 201.438004
12252.000000 18494.099609 580.125000
9078.919922 22426.300781 395.437012
7660.049805 18080.400391 580.125000
11145.299805 22093.300781 580.125000
10863.599609 28158.699219 580.125000
2502.110107 24482.599609 958.812012
12493.500000 28137.500000 377.704987
6428.319824 16288.500000 958.812012
-518.278015 30443.199219 580.125000
5588.169922 21528.599609 580.125000
2001.290039 24373.000000 958.812012
8974.620117 18527.300781 201.438004
12020.400391 23702.300781 201.438004
7430.290039 20516.699219 580.125000
12202.200195 16755.900391 201.438004
10989.099609 23686.900391 580.125000
9417.820312 21504.300781 201.438004
2976.360107 24623.400391 958.812012
1620.130005 24815.400391 958.812012
10309.000000 20716.199219 580.125000
1720.680054 25353.000000 958.812012
5573.169922 22459.699219 580.125000
8294.349609 16336.000000 201.438004
12493.500000 23284.000000 406.681000
9690.280273 21072.500000 580.125000
2754.659912 23166.699219 580.125000
8773.290039 17427.800781 201.438004
12120.799805 28095.099609 201.438004
6802.779785 21667.699219 580.125000
11027.700195 15687.200195 201.438004
5452.990234 18616.000000 958.812012
2946.530029 24842.000000 580.125000
12066.500000 21340.699219 201.438004
5307.330078 20342.000000 958.812012
2252.209961 26420.900391 580.125000
10008.099609 25135.599609 201.438004
1526.339966 28143.900391 958.812012
5133.080078 21541.099609 580.125000
3274.300049 25150.599609 958.812012
10863.200195 21730.300781 580.125000
8992.509766 20160.699219 580.125000
10923.700195 15502.099609 958.812988
5283.080078 19865.000000 958.812012
10721.900391 30940.599609 222.889999
10912.700195 26505.500000 201.436996
1554.989990 28803.599609 587.856995
3604.929932 23810.599609 958.812012
11600.400391 27001.099609 201.438004
9730.360352 14989.400391 958.812012
6911.310059 21071.900391 958.812012
8446.389648 19373.000000 958.812012
10328.900391 26864.599609 580.125000
11482.000000 24560.599609 580.125000
12088.599609 18101.699219 201.438004
9522.299805 20937.099609 201.438004
10983.500000 22509.699219 580.125000
10505.799805 28664.500000 458.351013
10919.200195 18312.800781 580.125000
5294.680176 19415.099609 958.812012
9490.339844 25184.199219 255.468994
4448.310059 22483.300781 958.812012
3183.419922 22593.599609 580.125000
9413.740234 22575.400391 580.125000
954.572998 27123.800781 958.812012
9378.360352 20152.000000 201.438004
12493.500000 21972.800781 468.575012
3171.360107 24055.800781 958.812012
11844.799805 28826.500000 580.125000
11247.000000 24655.500000 201.438004
4473.450195 20935.199219 958.812012
10493.500000 19101.800781 580.125000
12487.000000 17591.800781 580.125000
5243.600098 23078.000000 580.125000
9210.290039 15452.599609 958.812012
12493.500000 27703.199219 207.220001
11696.500000 22234.900391 580.125000
7670.600098 17778.599609 958.812012
10013.000000 17000.400391 958.812012
11277.400391 31564.099609 580.125000
12020.099609 16500.599609 580.125000
6239.660156 19701.500000 958.812012
12013.900391 25426.699219 201.438004
11478.900391 25576.500000 580.125000
3429.219971 24874.300781 580.125000
9837.969727 24024.199219 580.125000
12086.099609 26425.000000 580.125000
9739.690430 26575.800781 201.438004
8278.730469 17860.500000 338.967987
11663.299805 17060.000000 580.125000
11101.400391 16971.500000 580.125000
8183.299805 17220.199219 958.812012
9511.250000 16070.000000 958.812012
3543.100098 21574.300781 580.125000
7781.100098 20426.800781 958.812012
2211.979980 24983.300781 958.812012
9402.169922 23294.300781 506.368988
550.268005 28147.099609 958.812012
7520.560059 17387.000000 580.125000
11239.400391 33400.800781 203.220993
9015.080078 16568.699219 958.812012
7097.870117 18587.099609 958.812012
10545.400391 19925.599609 201.438004
2741.189941 23518.000000 958.812012
10283.099609 23604.400391 580.125000
11879.900391 25071.400391 580.125000
10046.099609 26934.500000 201.438004
478.048004 28813.199219 580.125000
10477.400391 26061.400391 580.125000
11597.599609 28626.000000 201.438004
4931.750000 23366.199219 580.125000
12068.000000 23082.300781 580.125000
6744.939941 22468.199219 580.125000
6023.439941 22343.500000 580.125000
10788.700195 18813.400391 580.125000
10062.200195 16817.800781 201.438004
9143.070312 22932.099609 201.438004
9923.570312 22753.199219 580.125000
11301.599609 28434.300781 580.125000
9336.759766 24745.099609 219.087006
4055.800049 22363.300781 958.812012
5850.720215 21577.599609 958.812012
10366.799805 27331.699219 580.125000
10827.400391 28737.400391 201.438004
10506.200195 30097.300781 204.671005
6414.870117 20025.500000 580.125000
11722.599609 19965.699219 580.125000
11935.599609 26530.500000 201.438004
9880.469727 18378.699219 201.438004
4554.939941 22367.900391 580.125000
1993.349976 24904.800781 580.125000
8609.599609 16076.900391 958.812012
10985.799805 16128.400391 201.438004
4794.660156 19387.199219 580.125000
12043.099609 17859.900391 580.125000
6778.479980 20447.599609 958.812012
11914.599609 21056.400391 580.125000
12041.900391 30343.400391 580.125000
11545.599609 26600.800781 580.125000
10746.000000 17480.500000 580.125000
10438.200195 22253.900391 201.438004
10664.700195 27755.099609 201.438004
11859.799805 24265.699219 201.438004
9588.500000 23507.500000 201.438004
11099.000000 21846.500000 201.438004
9544.019531 20170.199219 580.125000
11412.000000 26493.300781 201.438004
11215.400391 24241.199219 201.438004
12079.200195 30836.900391 580.125000
9432.639648 17489.199219 201.438004
10412.500000 18205.900391 201.438004
10607.900391 20984.199219 201.438004
7962.020020 16506.699219 958.812012
12045.500000 34286.101562 282.647003
12064.799805 28582.900391 201.438004
9600.269531 22211.500000 580.125000
10108.099609 26428.699219 535.085999
10047.200195 25971.900391 569.557983
10929.700195 29416.900391 201.438004
11895.400391 17186.000000 201.438004
11046.400391 30545.000000 201.438004
12493.500000 20345.000000 569.197021
9453.349609 20696.199219 580.125000
6428.189941 20230.400391 958.812012
12115.299805 19739.400391 201.438004
10651.099609 22134.099609 580.125000
10002.000000 24402.599609 580.125000
12048.500000 33072.199219 580.125000
11402.400391 29021.300781 580.125000
11657.599609 18383.699219 201.438004
10947.099609 19757.000000 201.438004
11993.299805 27219.900391 201.438004
11748.000000 15757.099609 580.125000
10096.299805 24000.900391 201.438004
12219.200195 15196.000000 201.438004
11518.400391 22970.699219 201.438004
11418.000000 16142.900391 201.438004
10157.900391 20248.900391 201.438004
11159.799805 26407.599609 580.125000
12105.700195 31544.699219 580.125000
11504.700195 32743.099609 569.744995
11983.500000 27969.199219 580.125000
11487.000000 30664.300781 580.125000
10594.700195 20382.199219 580.125000
8619.209961 18824.599609 201.438004
10070.500000 16139.900391 201.438004
4987.080078 22731.500000 580.125000
11003.000000 19224.699219 580.125000
12055.700195 26067.900391 201.438004
11368.700195 27284.000000 580.125000
10901.099609 22269.800781 201.438004
11631.500000 29105.199219 201.438004
10645.299805 23335.400391 580.125000
11410.299805 18853.800781 580.125000
11414.500000 31985.199219 580.125000
4604.330078 19407.400391 958.812012
10400.799805 16979.400391 762.836975
12200.000000 17606.500000 201.438004
11992.299805 32217.099609 201.438004
10238.000000 26124.099609 201.438004
9950.080078 19144.000000 580.125000
10573.799805 16023.299805 201.438004
11457.500000 29891.000000 201.438004
11312.599609 23192.400391 580.125000
6957.189941 14593.700195 958.812012
11649.099609 33408.199219 201.438004
10999.599609 25475.300781 201.436996
12155.900391 25044.099609 201.438004
8305.280273 19125.599609 201.438004
11546.599609 25268.800781 201.438004
10234.000000 19432.599609 201.438004
11871.299805 30709.900391 201.438004
11130.099609 24830.099609 580.125000
9757.950195 21753.300781 580.125000
10433.500000 22885.400391 580.125000
12027.099609 16207.200195 201.438004
10952.099609 18503.000000 201.438004
6343.209961 16954.099609 958.812012
11431.099609 19295.199219 580.125000
11400.000000 21449.900391 201.438004
8725.250000 19580.500000 201.438004
11596.599609 32041.900391 201.438004
11682.500000 20619.000000 580.125000
10442.900391 26636.800781 201.438004
9704.330078 20426.300781 201.438004
11757.500000 21646.000000 201.438004
757.151978 28737.900391 958.812012
8395.849609 20593.000000 208.296997
9134.799805 17815.800781 201.436996
12213.900391 29038.199219 580.125000
10217.299805 23338.000000 201.438004
10634.500000 26568.400391 580.125000
10388.500000 21203.000000 580.125000
10784.299805 20277.500000 201.438004
4539.060059 22048.500000 958.812012
11097.400391 28409.599609 201.438004
11731.599609 27726.599609 201.438004
5433.370117 21982.099609 580.125000
11872.200195 19555.800781 580.125000
12040.299805 19160.300781 201.438004
10548.500000 16464.000000 201.438004
9300.900391 21333.599609 580.125000
10689.500000 24764.900391 580.125000
11487.400391 28159.300781 201.438004
5059.870117 23180.500000 958.812012
10743.900391 26967.800781 580.125000
8317.200195 17222.199219 201.438004
10445.200195 23728.500000 201.438004
10923.299805 23941.199219 201.438004
-916.463013 29804.500000 958.812012
8854.690430 21307.300781 412.201996
9533.900391 18601.199219 201.438004
4019.550049 20105.000000 935.168030
9894.919922 25289.300781 564.624023
11062.700195 24183.400391 580.125000
11742.299805 31455.000000 201.436996
9009.580078 16747.300781 201.438004
12065.400391 16948.400391 580.125000
11585.200195 20294.400391 201.438004
11882.799805 24480.000000 580.125000
10515.400391 18406.199219 580.125000
11140.500000 22765.900391 201.438004
9825.780273 16484.599609 201.438004
11451.400391 23387.300781 201.438004
10102.500000 22022.400391 580.125000
11710.700195 31683.800781 580.125000
10985.599609 26925.800781 201.436996
2026.130005 28084.400391 656.450012
