ply
format ascii 1.0
element vertex 1717
property float x
property float y
property float z
end_header
-0.002821 0.000152 0.004593
-0.001019 0.000285 0.003607
-0.000291 0.000745 0.004681
-0.002073 0.003270 0.004669
-0.003973 0.002523 0.003565
-0.002683 0.003492 0.004654
-0.003438 0.000272 0.003541
-0.000015 0.002352 0.003669
-0.001952 0.003649 0.004679
-0.003417 0.001524 0.004598
-0.003790 -0.000287 0.003522
-0.001221 0.000558 0.004649
-0.003722 -0.000445 0.004555
-0.001131 0.003505 0.003658
0.000067 0.002871 0.003680
-0.001058 0.001637 0.004673
-0.004323 0.003117 0.004597
-0.004058 0.000474 0.003528
-0.002056 0.002270 0.004653
-0.001971 -0.000622 0.003565
-0.004447 0.000685 0.003521
-0.002300 0.000771 0.004620
-0.000181 0.000414 0.004679
-0.000817 0.002176 0.004689
-0.003332 0.002791 0.003587
-0.002749 0.004039 0.003624
-0.002332 0.003620 0.004667
-0.003431 -0.000196 0.004568
-0.000213 0.003854 0.004736
-0.003655 0.002185 0.004602
-0.004020 0.003633 0.003583
-0.002410 -0.000051 0.003563
-0.000898 0.000814 0.003619
-0.000479 0.001155 0.004682
-0.003243 0.003333 0.004634
-0.003227 0.001071 0.003560
-0.001794 0.002939 0.004672
-0.003941 -0.000144 0.004554
0.001444 0.001817 0.003699
0.003988 0.000050 0.003738
0.003153 0.001982 0.003748
0.000516 0.002680 0.003689
0.003162 0.001362 0.003738
0.003885 0.002630 0.003779
0.004277 0.000441 0.004799
0.003835 0.003522 0.004840
0.004891 0.001337 0.003784
0.004276 -0.000049 0.004791
0.003495 0.003713 0.004834
0.000417 -0.000789 0.003627
0.001170 0.000148 0.003663
0.005127 0.000449 0.004817
0.005285 0.003688 0.004872
0.003269 0.000914 0.004780
0.003281 0.001804 0.004796
0.004837 -0.000492 0.003751
0.002685 0.003285 0.004805
0.002529 0.004014 0.003766
0.005159 0.001338 0.004832
0.004607 -0.000242 0.003749
0.001391 0.001520 0.004740
0.001588 0.000659 0.004731
0.002789 0.000114 0.003706
0.002234 0.001915 0.003722
0.001781 0.000626 0.003688
0.003966 0.003862 0.004849
0.005264 0.002226 0.003800
0.003687 0.000203 0.004779
0.004102 0.002511 0.004830
0.000677 0.003109 0.003700
0.002711 0.001806 0.004780
0.001276 0.002628 0.003708
0.001748 -0.000273 0.003672
0.003598 0.000743 0.004786
0.001462 0.002059 0.004751
0.005182 0.001626 0.003791
0.000682 0.001220 0.003668
0.003396 -0.000206 0.004765
0.004417 0.003518 0.003808
0.000883 0.001619 0.003681
0.002243 0.001525 0.003716
0.005086 0.003096 0.003816
0.002096 0.002725 0.003732
0.001408 -0.000552 0.003658
0.004495 -0.000419 0.004791
0.000770 0.000250 0.003654
0.001073 0.002320 0.004745
0.004047 -0.000550 0.003729
0.003911 0.001320 0.003757
0.000772 0.001891 0.004730
0.001155 0.002218 0.003698
0.005171 0.001086 0.003781
0.002069 0.000056 0.003686
0.005064 -0.000651 0.004798
0.003917 0.003360 0.003792
0.001825 0.002496 0.003721
0.000442 0.001982 0.004722
0.003700 0.001423 0.004800
0.003099 0.000353 0.003719
0.002701 0.001084 0.003721
0.001886 0.003808 0.004792
0.001008 -0.000331 0.003651
0.001157 -0.000812 0.003647
0.004040 0.001532 0.004812
0.004682 0.002440 0.004844
0.002118 -0.000384 0.003680
0.005128 0.000959 0.004825
0.001445 -0.000600 0.004705
0.002088 0.000668 0.004744
0.002682 0.002276 0.004788
0.003117 0.003302 0.003769
0.001725 0.003308 0.004779
0.000798 -0.000650 0.003640
0.004324 0.003241 0.004848
0.003138 -0.000067 0.003713
0.003624 0.002171 0.003764
0.001127 0.003308 0.003716
0.001989 0.003955 0.003750
0.001964 0.002186 0.003719
0.000921 0.000689 0.003666
0.000649 -0.000130 0.003644
0.001787 -0.000683 0.003666
0.002695 -0.000404 0.004742
0.001087 -0.000219 0.004702
0.003738 -0.000189 0.003727
0.004188 -0.000241 0.003738
0.000734 0.002801 0.004744
0.003920 0.000690 0.003747
0.004677 0.000630 0.004814
0.001177 0.002958 0.003711
0.004094 -0.000748 0.004774
0.002041 0.000916 0.003700
0.002436 0.002764 0.003742
0.001627 0.003257 0.003729
0.003397 -0.000368 0.003715
0.001464 0.002709 0.004762
0.004465 0.003620 0.004858
0.002055 0.003207 0.004786
0.001140 0.001260 0.004729
0.004850 0.001769 0.004837
0.002027 0.000058 0.004732
0.003347 0.003651 0.003782
0.003165 0.003324 0.004818
0.002398 0.000457 0.004749
0.000715 0.002169 0.003685
0.004786 0.003889 0.004872
0.002698 0.000706 0.004761
0.002726 0.003083 0.003755
0.003929 0.001052 0.004800
0.001139 0.003718 0.003723
0.002471 0.000814 0.003710
0.001410 0.000538 0.003676
0.004794 0.002277 0.003797
0.003903 0.002922 0.004831
0.001525 0.002297 0.003709
0.003646 0.003061 0.003780
0.000689 0.003899 0.003714
0.003672 0.002223 0.004813
0.003928 0.003820 0.003800
0.003039 0.001205 0.004779
0.003492 0.001501 0.003749
0.001386 0.003489 0.004773
0.003086 0.003844 0.004825
0.002439 0.001027 0.004760
0.003625 -0.000587 0.004764
0.004540 0.000668 0.003763
0.002797 -0.000766 0.003692
0.001195 0.003200 0.004763
0.003649 0.000351 0.003734
0.004440 0.001821 0.004827
0.003124 0.002352 0.003753
0.001829 0.001068 0.004744
0.002423 0.002716 0.004788
0.002211 0.001617 0.004764
0.002358 0.003654 0.003755
0.003184 0.002954 0.004813
0.002280 0.000375 0.003697
0.003975 -0.000288 0.004779
0.004361 0.002211 0.004832
0.005227 -0.000554 0.003753
0.001730 0.001439 0.004748
0.000740 0.001032 0.004714
0.001007 0.004110 0.004774
0.002297 0.004007 0.004807
0.003853 0.001770 0.003763
0.000856 0.003411 0.004758
0.002130 0.001287 0.004756
0.003465 0.002681 0.003768
0.001136 0.003750 0.004771
0.004472 0.001438 0.003774
0.002402 0.002026 0.004776
0.002490 0.001386 0.004767
0.004693 0.002830 0.004851
0.003558 0.003961 0.003792
0.003350 0.001394 0.004791
0.000613 0.002392 0.004734
0.004895 -0.000321 0.004803
0.003488 0.000041 0.003724
0.004309 0.001261 0.004814
0.003604 0.003083 0.004826
0.004653 0.001908 0.003787
0.003096 -0.000015 0.004760
0.004279 0.000339 0.003750
0.000678 0.000442 0.004702
0.004941 0.002219 0.004848
0.004486 -0.000601 0.003740
0.002557 -0.000014 0.004745
0.003978 0.000622 0.004794
0.002885 0.002713 0.003753
0.000707 0.003931 0.004762
0.002456 0.003606 0.004804
0.004481 0.001058 0.003768
0.002253 0.002427 0.004779
0.003357 0.000314 0.004772
0.001618 0.003687 0.003735
0.000661 0.001402 0.004718
0.002552 0.001404 0.003722
0.001785 -0.000501 0.004716
0.002843 0.001843 0.003737
0.004709 0.001290 0.004825
0.000497 0.000062 0.004691
0.004293 0.001829 0.003776
0.002737 0.003443 0.003762
0.001479 0.004027 0.003737
0.001792 0.001306 0.003700
0.004827 0.003627 0.003821
0.002797 0.000336 0.004758
0.005187 0.003606 0.003824
0.005083 0.002839 0.004858
0.000937 0.000091 0.004703
0.002022 0.002068 0.004766
0.001709 0.000097 0.003677
0.001913 0.002438 0.004770
0.001172 0.001870 0.004740
0.001587 -0.000041 0.004719
0.004946 0.000139 0.004812
0.001393 0.001438 0.003691
0.002327 0.003184 0.003746
0.004474 -0.000829 0.004783
0.005055 0.002756 0.003810
0.003131 0.000982 0.003730
0.001297 0.000150 0.004714
0.003054 -0.000875 0.004744
0.003235 -0.000536 0.004755
0.004538 0.004038 0.003820
0.001557 0.003879 0.004785
0.002275 -0.000503 0.004729
0.003691 0.001011 0.003746
0.004081 0.001010 0.003756
0.000906 0.002549 0.003697
0.004814 0.003489 0.004866
0.004860 0.000847 0.003775
0.004758 0.000128 0.003760
0.002584 0.002114 0.003735
0.002399 0.000005 0.003694
0.004516 0.003128 0.003804
0.004989 0.000517 0.003772
0.002726 0.003815 0.004815
0.001109 0.000841 0.004721
0.004045 0.002939 0.003788
0.003703 0.002593 0.004821
0.004003 0.002090 0.003773
0.002930 0.000693 0.003720
0.004011 0.002122 0.004821
0.001893 0.001766 0.003710
0.001218 0.000510 0.004718
0.002655 0.002454 0.003742
0.003087 -0.000517 0.003704
0.001746 0.002876 0.003725
0.001964 0.002848 0.004778
0.001449 0.001049 0.004734
0.003048 0.000575 0.004769
0.003376 -0.000758 0.003707
0.003342 0.002374 0.004807
0.000726 -0.000288 0.004691
0.003666 0.004023 0.004844
0.000828 0.003509 0.003711
0.001322 0.001038 0.003682
0.003631 0.001823 0.004806
0.005232 0.002538 0.004852
0.002507 -0.000516 0.003688
0.005057 -0.000193 0.003760
0.000806 -0.000618 0.004688
0.005018 0.003966 0.003831
0.001701 0.000977 0.003692
0.005108 0.000157 0.003765
0.002758 -0.000256 0.003699
0.004588 0.000970 0.004817
0.004268 0.000801 0.004805
0.004466 0.004060 0.004866
0.002784 0.002905 0.004801
0.000391 0.001623 0.004715
0.000366 -0.000357 0.004680
0.002968 0.003712 0.003772
0.001871 0.001758 0.004757
0.003001 0.002035 0.004792
0.001032 0.001279 0.003679
0.004324 0.002459 0.003788
0.002225 0.002415 0.003730
0.002084 -0.000872 0.004718
0.001094 0.002660 0.004751
0.005104 0.003288 0.004866
0.003266 0.002982 0.003768
0.000400 0.000221 0.003644
0.003003 0.002555 0.004801
0.002027 0.003405 0.003742
0.004645 0.002668 0.003800
0.003330 0.000682 0.003731
0.002960 0.001575 0.004783
0.000523 0.001550 0.003670
0.001369 -0.000132 0.003664
0.005275 -0.000332 0.004803
0.001668 0.000299 0.004727
0.005003 0.002007 0.003797
0.003579 0.001093 0.004792
0.003697 -0.000599 0.003719
0.006738 0.000685 0.004817
0.007556 0.003512 0.004864
0.009560 0.003669 0.004779
0.006789 0.000073 0.003760
0.008010 -0.000080 0.003740
0.006393 0.001883 0.003792
0.007921 0.001342 0.004814
0.008468 -0.000279 0.004762
0.008026 0.002379 0.003782
0.008612 0.001231 0.004781
0.005728 0.000737 0.004821
0.010294 0.004045 0.003707
0.008390 0.000741 0.004782
0.005393 0.002988 0.004860
0.005366 0.000118 0.004811
0.009826 0.001968 0.004738
0.009978 0.002688 0.004744
0.008040 0.000982 0.004803
0.006995 0.002582 0.003803
0.006963 0.001602 0.003786
0.008276 0.003151 0.004829
0.005877 0.003544 0.003822
0.009342 0.003977 0.003749
0.007832 0.001862 0.004827
0.006336 0.003595 0.004868
0.005625 -0.000412 0.004801
0.005420 0.000856 0.003777
0.006262 0.001234 0.003781
0.007245 -0.000736 0.004792
0.006696 0.003002 0.003811
0.007586 0.002750 0.003804
0.005745 0.003647 0.004870
0.008469 -0.000831 0.003706
0.005486 0.002985 0.003813
0.008093 0.002121 0.004819
0.010197 0.001828 0.004719
0.007391 0.001783 0.004835
0.010096 0.000966 0.003663
0.005509 0.001018 0.004826
0.008497 0.003441 0.004824
0.009612 0.000589 0.004725
0.008540 0.003788 0.003782
0.008764 0.001810 0.004783
0.010132 0.003286 0.003701
0.007275 0.003123 0.004858
0.009221 0.003657 0.003749
0.007748 -0.000360 0.003747
0.007397 -0.000197 0.004801
0.006620 0.001525 0.004832
0.010022 0.003968 0.004764
0.009238 0.002277 0.003724
0.006077 0.000206 0.004811
0.008089 -0.000460 0.003730
0.005849 0.000335 0.003767
0.009538 0.001947 0.003705
0.006974 0.002082 0.003794
0.008559 0.004020 0.004831
0.008898 0.002468 0.003743
0.008206 -0.000798 0.004764
0.010022 0.000188 0.004699
0.009484 0.001339 0.004743
0.007138 -0.000428 0.003751
0.007052 0.001924 0.004838
0.006159 0.000144 0.003763
0.007554 0.002040 0.003792
0.008342 0.001611 0.004799
0.007892 0.000890 0.003761
0.005565 0.002645 0.003807
0.009028 -0.000650 0.004730
0.009753 -0.000063 0.003661
0.008024 0.001629 0.003769
0.009631 0.003126 0.003721
0.005592 0.001655 0.003790
0.006801 0.000702 0.003771
0.006162 0.002156 0.004844
0.007617 0.003090 0.003810
0.005875 0.002495 0.003804
0.007868 0.003350 0.003805
0.008919 -0.000872 0.003685
0.007490 0.001343 0.004827
0.007119 0.004001 0.003827
0.007389 -0.000069 0.003757
0.007130 0.000242 0.003763
0.009419 -0.000530 0.004714
0.006494 0.002223 0.003798
0.009206 0.001507 0.003713
0.010034 0.000196 0.003653
0.008275 0.002039 0.003764
0.008397 0.002629 0.003769
0.006310 0.000484 0.003768
0.006903 0.002684 0.004851
0.008687 0.003020 0.004808
0.008794 0.001018 0.003723
0.008840 0.003408 0.003762
0.009826 0.001186 0.003679
0.007589 0.003850 0.003823
0.006578 0.003913 0.003826
0.009653 0.000959 0.004729
0.005798 -0.000025 0.003761
0.007060 0.001144 0.004825
0.008845 0.002290 0.004789
0.005478 0.003855 0.003828
0.007611 0.000600 0.003768
0.010307 0.001296 0.003659
0.009878 0.001996 0.003691
0.007939 0.003749 0.003808
0.005942 0.001444 0.003786
0.006834 0.003044 0.004858
0.005458 0.000046 0.003763
0.009325 0.001739 0.004757
0.006513 0.002615 0.004851
0.006033 0.001894 0.003793
0.006407 -0.000596 0.003750
0.007243 0.002313 0.004844
0.009920 0.002626 0.003700
0.007261 0.000871 0.003773
0.009792 -0.000483 0.003651
0.009110 0.003027 0.003743
0.006078 -0.000306 0.003755
0.009182 0.000048 0.003689
0.008209 0.000422 0.004785
0.007018 0.000444 0.004813
0.010180 0.002336 0.003683
0.008128 0.003841 0.004848
0.010278 0.001646 0.003666
0.007627 -0.000829 0.003743
0.009149 0.003619 0.004797
0.009085 0.002010 0.004772
0.009781 -0.000873 0.003646
0.007966 -0.000518 0.004780
0.010058 0.002348 0.004734
0.007924 0.002462 0.004833
0.009000 0.000000 0.004742
0.009329 0.003299 0.004783
0.007067 0.003041 0.003811
0.009202 0.000870 0.004748
0.007987 0.002889 0.003792
0.006228 0.003903 0.003827
0.008259 0.003329 0.003787
0.005617 -0.000374 0.003755
0.006688 -0.000317 0.003754
0.008970 0.004100 0.004814
0.005976 0.003014 0.003812
0.008780 0.000311 0.004757
0.006265 0.002564 0.003804
0.007189 0.000794 0.004819
0.005661 0.001987 0.004842
0.007589 0.000703 0.004816
0.006876 -0.000485 0.004797
0.009546 0.002189 0.004755
0.006577 0.000345 0.004812
0.006141 0.001766 0.004837
0.005462 0.002278 0.004847
0.005964 0.003266 0.004863
0.010142 -0.000744 0.003632
0.005886 0.004016 0.004876
0.007248 0.003521 0.003818
0.009567 0.002579 0.004760
0.007775 0.003002 0.004849
0.007434 0.002753 0.004851
0.006543 0.001553 0.003786
0.009513 0.000257 0.003677
0.008385 0.001629 0.003752
0.009007 0.001968 0.003730
0.008802 0.000438 0.003712
0.007937 0.003492 0.004850
0.008796 0.002640 0.004796
0.006597 0.003522 0.003820
0.009655 0.000877 0.003682
0.005740 0.000735 0.003774
0.009038 0.003110 0.004794
0.005567 0.003335 0.003819
0.006908 0.003712 0.003822
0.010031 -0.000391 0.004688
0.008371 0.000229 0.003729
0.009145 0.001128 0.003709
0.006905 -0.000835 0.004791
0.010183 0.003726 0.003707
0.006695 0.003374 0.004864
0.008889 -0.000340 0.004741
0.008212 0.000559 0.003741
0.005371 0.001818 0.004840
0.005939 0.001197 0.004828
0.009641 -0.000121 0.004711
0.005651 0.001115 0.003781
0.006247 0.003503 0.003820
0.008353 0.001049 0.003743
0.009795 0.000527 0.003669
0.009002 0.003917 0.003763
0.008073 0.001270 0.003760
0.008557 0.002308 0.003756
0.009723 0.004066 0.003733
0.006083 0.002836 0.004856
0.006319 0.000926 0.004823
0.008225 0.002661 0.004823
0.006024 -0.000753 0.004795
0.010185 0.001288 0.004711
0.008721 0.000099 0.003710
0.007052 0.001222 0.003780
0.006619 0.001115 0.004825
0.006078 0.000636 0.004818
0.009431 0.000219 0.004726
0.009899 -0.000751 0.004688
0.008696 0.001838 0.003742
0.010024 0.000828 0.004710
0.009844 0.001249 0.004725
0.005613 0.002135 0.003798
0.007690 0.001062 0.004820
0.005519 0.000466 0.003770
0.009011 -0.000402 0.003689
0.006516 0.003915 0.004873
0.006896 0.003754 0.004870
0.007732 0.001250 0.003775
0.010081 0.003618 0.004755
0.006967 0.000084 0.004807
0.008775 0.001438 0.003731
0.005624 -0.000852 0.004794
0.009999 0.003158 0.004751
0.010263 0.000478 0.004693
0.005823 0.002537 0.004851
0.005817 -0.000675 0.003750
0.008993 0.001150 0.004762
0.006592 0.001995 0.004840
0.005495 0.003397 0.004867
0.006326 0.002993 0.003811
0.006086 -0.000174 0.004804
0.007598 0.000193 0.004807
0.006616 -0.000225 0.004802
0.008148 -0.000078 0.004779
0.008871 0.000760 0.004761
0.006405 -0.000674 0.004795
0.009488 0.002919 0.004770
0.008504 0.002141 0.004801
0.009234 0.000568 0.003695
0.009631 0.004039 0.004783
0.009875 0.001609 0.004730
0.008739 0.002998 0.003759
0.007645 0.002380 0.003798
0.005746 0.000067 0.004809
0.005723 0.002867 0.004857
0.009381 -0.000502 0.003670
0.008630 -0.000301 0.003708
0.007304 0.001761 0.003788
0.006434 0.002995 0.004858
0.009892 0.003536 0.003717
0.007905 0.001960 0.003779
0.006290 0.001346 0.004830
0.010153 -0.000284 0.003639
0.009697 0.001597 0.003692
0.007817 -0.000158 0.004793
0.006421 0.000873 0.003775
0.006612 0.001163 0.003779
0.009379 0.002737 0.003726
0.009760 0.003388 0.004766
0.009216 0.002519 0.004775
0.007295 0.002281 0.003797
0.007850 0.000350 0.003754
0.005710 0.001577 0.004835
0.008018 -0.000790 0.003727
0.007423 0.001441 0.003782
0.007527 0.003882 0.004870
0.009211 0.000500 0.004741
0.009476 0.001287 0.003697
0.010091 0.002946 0.003697
0.007061 0.001514 0.004831
0.008398 0.002969 0.003775
0.008628 -0.000589 0.004749
0.005971 0.001004 0.003778
0.006812 0.002284 0.004845
0.006887 0.003332 0.003816
0.006635 0.002663 0.003805
0.007643 0.002192 0.004841
0.007626 -0.000537 0.004795
0.009599 0.002437 0.003711
0.010239 0.002918 0.004736
0.009572 0.003657 0.003733
0.007136 0.003503 0.004865
0.010619 0.002197 0.004694
0.010466 0.000706 0.003636
0.014722 0.000373 0.003177
0.010532 0.003757 0.004728
0.011580 0.001517 0.004596
0.013458 0.001383 0.003363
0.013119 0.002243 0.003422
0.011246 0.003624 0.003617
0.011069 0.000815 0.003584
0.010399 0.002568 0.004720
0.010471 0.003387 0.004727
0.014353 0.001473 0.003245
0.014860 0.003362 0.003210
0.010939 0.002087 0.004664
0.011046 -0.000095 0.003570
0.010957 0.001217 0.004647
0.012912 -0.000127 0.003404
0.015353 0.003892 0.003153
0.010988 0.001557 0.004650
0.010761 0.002075 0.003633
0.012186 0.002374 0.003512
0.013684 0.003152 0.003362
0.010455 0.000156 0.003627
0.012225 0.001954 0.003501
0.011486 0.003154 0.003588
0.012419 0.003163 0.003505
0.010745 0.000717 0.004657
0.015177 0.001772 0.003140
0.011347 -0.000275 0.003541
0.011147 0.004034 0.003633
0.014710 -0.000087 0.003170
0.013416 0.000623 0.003354
0.012871 -0.000657 0.003399
0.012787 0.002023 0.003453
0.010600 0.002967 0.004709
0.012073 0.001274 0.003503
0.012383 0.001024 0.003472
0.011101 0.002697 0.004659
0.011394 0.002714 0.003589
0.010893 -0.000363 0.004625
0.014311 0.001013 0.003241
0.014449 0.003932 0.003275
0.011094 0.003827 0.004679
0.014626 0.002322 0.003224
0.011226 -0.000605 0.003545
0.011045 0.003175 0.003627
0.015118 0.002222 0.003157
0.010830 0.001525 0.003618
0.013066 0.001223 0.003410
0.010644 0.000248 0.004658
0.011951 0.000594 0.003502
0.010746 0.000325 0.003604
0.014096 0.003392 0.003311
0.011979 0.003784 0.003554
0.011928 -0.000726 0.003481
0.010494 -0.000484 0.003613
0.013315 0.000163 0.003360
0.012239 -0.000526 0.003457
0.014496 0.002722 0.003248
0.013534 -0.000417 0.003321
0.014744 0.001503 0.003193
0.015069 0.002862 0.003173
0.012248 0.002844 0.003514
0.013001 0.003233 0.003454
0.012943 0.000243 0.003407
0.011503 0.002796 0.004625
0.011385 -0.000283 0.004583
0.014903 0.000723 0.003158
0.010792 0.002425 0.003637
0.011579 0.000334 0.003531
0.011572 0.001324 0.003548
0.013474 0.003533 0.003398
0.010482 0.002955 0.003673
0.011012 0.003037 0.004674
0.012646 0.001663 0.003458
0.013936 -0.000467 0.003267
0.012180 -0.000156 0.003469
0.013897 0.004052 0.003350
0.010400 0.002075 0.003665
0.012289 0.003523 0.003522
0.015212 -0.000497 0.003096
0.010555 0.001008 0.004679
0.013612 0.002483 0.003361
0.014067 0.003762 0.003322
0.011370 0.001957 0.004623
0.015076 0.001392 0.003147
0.011328 0.000867 0.004608
0.013783 0.002783 0.003344
0.013812 0.002043 0.003326
0.010832 0.003367 0.004695
0.012541 0.003793 0.003505
0.010954 0.000057 0.004627
0.011253 0.002195 0.003592
0.013710 0.001713 0.003335
0.011181 0.001575 0.003587
0.014836 0.001912 0.003187
0.014135 0.002642 0.003294
0.014330 0.000553 0.003232
0.010648 0.001085 0.003627
0.012994 0.000603 0.003410
0.010750 0.002637 0.004689
0.012744 0.000873 0.003436
0.011462 0.002377 0.004622
0.014791 0.003942 0.003230
0.011319 0.001307 0.004616
0.013988 0.000333 0.003272
0.011250 0.001195 0.003575
0.012859 0.002503 0.003455
0.011848 0.003384 0.003560
0.011554 0.003336 0.004630
0.013017 0.001683 0.003425
0.010885 -0.000605 0.003576
0.013162 -0.000487 0.003368
0.013624 -0.000757 0.003303
0.013062 0.003762 0.003456
0.010735 0.003665 0.003663
0.011465 0.003666 0.004644
0.014678 0.003012 0.003228
0.011556 -0.000745 0.003514
0.010441 -0.000562 0.004662
0.012769 0.002933 0.003470
0.010562 -0.000242 0.004657
0.013939 0.000833 0.003288
0.013759 0.001183 0.003319
0.014790 -0.000467 0.003153
0.011213 0.003347 0.004661
0.011176 0.000537 0.004616
0.013355 0.004092 0.003423
0.015182 -0.000107 0.003107
0.011804 0.001884 0.003537
0.013961 0.001463 0.003297
0.012282 0.000684 0.003474
0.014774 0.001063 0.003181
0.010688 0.001717 0.004679
0.012853 0.004113 0.003483
0.010933 0.002795 0.003631
0.014868 0.002582 0.003196
0.011696 0.002884 0.003564
0.015163 0.000293 0.003117
0.015252 0.003432 0.003159
0.014163 0.001992 0.003279
0.013575 -0.000057 0.003322
0.011414 -0.000803 0.004572
0.011738 -0.000126 0.003508
0.011208 0.000285 0.003563
0.013585 0.003852 0.003388
0.011910 0.000204 0.003499
0.013397 0.001013 0.003364
0.012603 0.000473 0.003442
0.013250 0.002563 0.003409
0.014458 0.003272 0.003261
0.011618 0.003744 0.003586
0.012431 0.000064 0.003450
0.011708 0.000456 0.004567
0.014126 -0.000857 0.003235
0.011326 0.000137 0.004596
0.011795 0.002554 0.003550
0.010493 0.003375 0.003680
0.014308 -0.000287 0.003220
0.011349 0.000605 0.003556
0.012591 -0.000396 0.003427
0.014329 0.000073 0.003224
0.013627 0.000343 0.003321
0.012384 0.001394 0.003477
0.013322 0.003033 0.003409
0.015225 0.001032 0.003121
0.014377 -0.000627 0.003206
0.011811 0.000954 0.003520
0.013957 -0.000027 0.003271
0.014484 0.001793 0.003232
0.011604 0.002254 0.003561
0.012680 0.003483 0.003488
0.014226 0.002992 0.003289
0.013289 0.001883 0.003393
0.011452 0.001794 0.003567
0.010725 -0.000195 0.003597
0.015516 0.000782 0.003079
0.015528 0.001462 0.003089
0.015450 0.002482 0.003117
0.015441 0.003032 0.003127
0.015529 0.001882 0.003096
-0.065273 0.004920 -0.001265
-0.064817 0.004732 -0.000269
-0.065858 0.008216 -0.000348
-0.065834 0.006746 -0.000370
-0.065219 0.007393 -0.000277
-0.065357 0.006560 -0.001226
-0.065246 0.009008 -0.001150
-0.064643 0.007497 -0.001145
-0.065010 0.006872 -0.000258
-0.064987 0.005352 -0.000281
-0.066066 0.007047 -0.000394
-0.064801 0.006018 -0.001198
-0.066035 0.007857 -0.000378
-0.066153 0.007528 -0.000394
-0.066083 0.008757 -0.000367
-0.064795 0.006648 -0.001180
-0.065338 0.004474 -0.000342
-0.065682 0.005561 -0.001280
-0.064835 0.007178 -0.001168
-0.064774 0.004758 -0.001231
-0.065782 0.004782 -0.001309
-0.064803 0.007381 -0.000222
-0.065742 0.008491 -0.001203
-0.065761 0.007196 -0.000352
-0.065456 0.006230 -0.001243
-0.065312 0.005824 -0.000316
-0.065802 0.006721 -0.001257
-0.064756 0.004252 -0.000269
-0.065537 0.007725 -0.000314
-0.066293 0.005788 -0.000435
-0.064731 0.009008 -0.000601
-0.064701 0.005061 -0.000248
-0.066129 0.007153 -0.001275
-0.065058 0.004559 -0.001259
-0.065653 0.005376 -0.000369
-0.065450 0.005290 -0.001269
-0.065008 0.005289 -0.001234
-0.065819 0.007641 -0.001233
-0.065351 0.005700 -0.001250
-0.064673 0.006821 -0.000214
-0.066281 0.005418 -0.000440
-0.064800 0.008077 -0.001141
-0.065229 0.009003 -0.000252
-0.066149 0.006478 -0.000411
-0.065009 0.007648 -0.001169
-0.065590 0.006325 -0.000344
-0.066414 0.005009 -0.000459
-0.065611 0.007250 -0.001227
-0.064915 0.005862 -0.000263
-0.065162 0.007329 -0.001190
-0.065348 0.008089 -0.001183
-0.065412 0.008699 -0.001171
-0.065147 0.004823 -0.000311
-0.065499 0.005065 -0.000353
-0.065696 0.008815 -0.000317
-0.065497 0.004541 -0.001293
-0.066069 0.004583 -0.001339
-0.064658 0.005377 -0.001204
-0.065118 0.006169 -0.001219
-0.064972 0.009063 -0.000866
-0.066370 0.006889 -0.000424
-0.065485 0.008404 -0.000296
-0.066032 0.004458 -0.000434
-0.065728 0.008061 -0.001214
-0.065067 0.008662 -0.000236
-0.066093 0.005128 -0.000429
-0.065681 0.004346 -0.000390
-0.065481 0.007670 -0.001205
-0.065337 0.007029 -0.001212
-0.065044 0.008358 -0.001152
-0.065170 0.008253 -0.000256
-0.066269 0.004709 -0.000451
-0.065800 0.004352 -0.001322
-0.065219 0.006603 -0.000291
-0.064810 0.008667 -0.001125
-0.066073 0.006383 -0.001289
-0.066119 0.005423 -0.001321
-0.065105 0.007833 -0.000255
-0.065170 0.006213 -0.000291
-0.065904 0.004807 -0.000411
-0.064794 0.006501 -0.000236
-0.065334 0.007044 -0.000298
-0.065796 0.006046 -0.000376
-0.066158 0.006743 -0.001289
-0.065638 0.005911 -0.001266
-0.065982 0.006052 -0.001289
-0.065832 0.008881 -0.001199
-0.065890 0.005677 -0.000395
-0.065885 0.005172 -0.001306
-0.064718 0.008461 -0.000193
-0.064776 0.008081 -0.000207
-0.064655 0.007731 -0.000197
-0.064656 0.005511 -0.000234
-0.065311 0.005444 -0.000322
-0.064999 0.005639 -0.001224
-0.064855 0.008991 -0.000202
-0.060168 0.005798 -0.000722
-0.062047 0.005369 0.000102
-0.060214 0.005178 -0.000738
-0.060476 0.007931 0.000329
-0.060528 0.005420 -0.000770
-0.062131 0.008388 0.000143
-0.062216 0.008029 0.000127
-0.064209 0.004219 -0.000197
-0.061276 0.008361 -0.000715
-0.060142 0.007990 0.000369
-0.063511 0.008772 -0.000468
-0.063669 0.006266 -0.000091
-0.062485 0.006688 -0.000979
-0.063634 0.004556 -0.000115
-0.059883 0.004387 -0.000712
-0.062389 0.004750 0.000051
-0.064074 0.005545 -0.001154
-0.060719 0.004871 -0.000802
-0.060488 0.008197 -0.000036
-0.063893 0.007277 -0.000104
-0.064109 0.008318 -0.000115
-0.064111 0.005935 -0.001146
-0.063467 0.007762 -0.001045
-0.060787 0.006831 -0.000777
-0.059693 0.006448 0.000396
-0.062223 0.005657 -0.000965
-0.063407 0.007062 -0.001060
-0.060161 0.006728 -0.000706
-0.064488 0.006926 -0.001148
-0.060003 0.006629 0.000363
-0.059693 0.005836 -0.000666
-0.060888 0.005913 0.000247
-0.059789 0.005066 -0.000690
-0.060856 0.008268 -0.000030
-0.064354 0.007895 -0.001111
-0.063675 0.008046 -0.000062
-0.061610 0.008006 0.000197
-0.059733 0.007168 0.000403
-0.061981 0.008386 -0.000891
-0.061405 0.004276 0.000159
-0.061227 0.006075 0.000210
-0.059706 0.006078 0.000388
-0.063095 0.008230 -0.001003
-0.060673 0.004490 -0.000803
-0.061031 0.005302 -0.000831
-0.063921 0.005217 -0.000142
-0.064062 0.006198 -0.000144
-0.062276 0.004638 -0.000989
-0.064422 0.005696 -0.001177
-0.062441 0.008565 -0.000210
-0.062160 0.005097 -0.000967
-0.061705 0.007077 0.000171
-0.064399 0.006539 -0.000183
-0.060575 0.004722 0.000264
-0.062471 0.008038 -0.000955
-0.062448 0.005220 0.000052
-0.060814 0.006683 0.000268
-0.064399 0.006426 -0.001155
-0.063893 0.007364 -0.001090
-0.063262 0.005144 -0.000056
-0.063257 0.008254 -0.000003
-0.063967 0.006974 -0.001106
-0.063926 0.006727 -0.000117
-0.062767 0.007879 -0.000987
-0.061582 0.007406 0.000191
-0.061897 0.007708 0.000159
-0.062604 0.007419 -0.000983
-0.063707 0.008426 -0.000060
-0.061546 0.008405 -0.000302
-0.061067 0.004932 -0.000842
-0.062155 0.007159 0.000119
-0.064269 0.008675 -0.001083
-0.063069 0.006801 -0.001041
-0.063202 0.005572 -0.001085
-0.062193 0.007147 -0.000937
-0.060115 0.007947 -0.000680
-0.063046 0.006261 -0.001054
-0.061160 0.005464 0.000207
-0.060038 0.007077 -0.000685
-0.064510 0.005810 -0.000210
-0.064042 0.008872 -0.000334
-0.059667 0.008038 0.000374
-0.060413 0.006451 0.000312
-0.064080 0.005848 -0.000152
-0.063619 0.007036 -0.000071
-0.062677 0.005761 0.000032
-0.061440 0.005054 -0.000884
-0.060793 0.006431 -0.000785
-0.064176 0.007758 -0.000133
-0.062324 0.006090 0.000081
-0.061611 0.004707 0.000142
-0.062563 0.005259 -0.001014
-0.061060 0.007944 0.000261
-0.064450 0.006056 -0.001169
-0.063435 0.006402 -0.001080
-0.060412 0.005761 0.000300
-0.061965 0.006516 -0.000921
-0.061695 0.008442 -0.000698
-0.064418 0.005250 -0.000207
-0.061070 0.004394 0.000200
-0.063166 0.004684 -0.000051
-0.062220 0.006499 0.000101
-0.059707 0.006896 -0.000649
-0.062773 0.004402 -0.000003
-0.061356 0.007725 0.000222
-0.063503 0.006645 -0.000063
-0.061281 0.008347 0.000099
-0.061541 0.007644 -0.000852
-0.060373 0.004679 -0.000765
-0.060513 0.007371 0.000315
-0.063204 0.008621 -0.001001
-0.059892 0.008086 -0.000047
-0.063121 0.007601 -0.001023
-0.062777 0.005860 -0.001032
-0.064503 0.008890 -0.000157
-0.060224 0.006178 -0.000722
-0.060681 0.005272 0.000260
-0.060113 0.006040 0.000340
-0.064024 0.004465 -0.001180
-0.061727 0.008429 0.000056
-0.064355 0.007299 -0.000164
-0.061482 0.007304 -0.000851
-0.064011 0.006325 -0.001127
-0.060958 0.008181 -0.000775
-0.060563 0.006102 0.000288
-0.061189 0.006152 -0.000836
-0.060984 0.008294 -0.000360
-0.063369 0.008735 -0.000052
-0.063031 0.007201 -0.001027
-0.062692 0.007501 0.000059
-0.060592 0.008224 -0.000403
-0.062811 0.005092 0.000003
-0.059969 0.004737 -0.000716
-0.061533 0.005754 -0.000883
-0.063457 0.005993 -0.001093
-0.060717 0.004303 0.000240
-0.064021 0.004945 -0.001167
-0.061576 0.006574 -0.000874
-0.063847 0.007993 -0.001069
-0.061382 0.006933 -0.000845
-0.062737 0.006522 0.000037
-0.061852 0.005366 -0.000927
-0.064630 0.006141 -0.000220
-0.061067 0.007112 -0.000805
-0.062724 0.008559 -0.000965
-0.062819 0.006162 0.000020
-0.063774 0.007646 -0.000082
-0.062332 0.008566 -0.000852
-0.060874 0.004171 -0.000832
-0.063204 0.007224 -0.000013
-0.061399 0.005006 0.000172
-0.061162 0.004483 -0.000861
-0.062233 0.006197 -0.000957
-0.061221 0.006503 -0.000834
-0.061142 0.004735 0.000197
-0.061841 0.005916 -0.000916
-0.060664 0.007660 -0.000749
-0.062784 0.008411 0.000062
-0.062705 0.007069 -0.001002
-0.062247 0.008540 -0.000491
-0.062862 0.004890 -0.001059
-0.061031 0.005074 0.000216
-0.063275 0.005554 -0.000051
-0.063848 0.008803 -0.001046
-0.062239 0.007667 -0.000933
-0.063801 0.005754 -0.001127
-0.061837 0.007255 -0.000893
-0.062720 0.006891 0.000045
-0.060803 0.005641 -0.000799
-0.063510 0.005343 -0.001116
-0.060176 0.008152 -0.000379
-0.063611 0.004926 -0.000106
-0.061801 0.006587 0.000151
-0.063711 0.005616 -0.000107
-0.060050 0.004940 0.000329
-0.064548 0.008984 -0.000981
-0.060324 0.007628 -0.000710
-0.061887 0.008465 -0.000251
-0.063258 0.006034 -0.000040
-0.060403 0.007139 -0.000727
-0.062215 0.005729 0.000088
-0.060747 0.007270 -0.000765
-0.062433 0.004320 0.000039
-0.060155 0.007040 0.000352
-0.063188 0.004264 -0.000061
-0.064410 0.005057 -0.001194
-0.060492 0.006841 0.000309
-0.061408 0.005404 -0.000874
-0.062985 0.008683 -0.000597
-0.061914 0.004386 -0.000950
-0.059754 0.007736 -0.000641
-0.061904 0.007765 -0.000892
-0.060168 0.005330 0.000322
-0.062575 0.004389 -0.001030
-0.063120 0.006533 -0.000014
-0.062072 0.004369 0.000082
-0.062354 0.006830 0.000090
-0.062617 0.008611 -0.000518
-0.063730 0.008808 -0.000174
-0.061052 0.006944 0.000245
-0.060554 0.008049 -0.000730
-0.063827 0.006654 -0.001104
-0.060725 0.007102 0.000286
-0.064326 0.004626 -0.001199
-0.063568 0.004424 -0.001146
-0.061363 0.008003 -0.000825
-0.063560 0.008502 -0.001032
-0.061512 0.005766 0.000171
-0.061595 0.005286 0.000153
-0.063881 0.008373 -0.001061
-0.062277 0.007669 0.000114
-0.061524 0.006224 -0.000874
-0.059985 0.007487 -0.000672
-0.063678 0.004824 -0.001143
-0.061088 0.007504 0.000250
-0.061104 0.006444 0.000230
-0.064341 0.008937 -0.000614
-0.062257 0.004248 -0.000993
-0.060735 0.006041 -0.000784
-0.062591 0.006299 -0.001000
-0.064603 0.004327 -0.001229
-0.061830 0.005638 0.000132
-0.060054 0.004120 0.000315
-0.061794 0.006157 0.000145
-0.063341 0.007554 -0.000026
-0.060778 0.007722 0.000290
-0.061497 0.004714 -0.000896
-0.063037 0.004551 -0.001088
-0.064284 0.004859 -0.000196
-0.061992 0.004788 0.000099
-0.061885 0.004806 -0.000940
-0.063039 0.007843 0.000019
-0.061477 0.006726 0.000191
-0.064016 0.004608 -0.000164
-0.064441 0.004490 -0.000223
-0.063191 0.006884 -0.000017
-0.059868 0.006256 -0.000679
-0.064239 0.007205 -0.001121
-0.063534 0.008162 -0.001039
-0.060301 0.004401 0.000290
-0.063534 0.008789 -0.000847
-0.064135 0.007018 -0.000140
-0.063308 0.005002 -0.001109
-0.062693 0.007921 0.000066
-0.060116 0.007520 0.000364
-0.061153 0.007502 -0.000809
-0.064245 0.008668 -0.000127
-0.060523 0.004130 -0.000792
-0.064277 0.008305 -0.001094
-0.059791 0.007708 0.000406
-0.063038 0.008677 -0.000227
-0.062918 0.004211 -0.001078
-0.059863 0.004559 0.000344
-0.059788 0.005578 0.000370
-0.062990 0.005211 -0.001071
-0.059936 0.005427 -0.000701
-0.063438 0.007422 -0.001052
-0.064411 0.008119 -0.000158
-0.062490 0.004919 -0.001010
-0.063845 0.008846 -0.000650
-0.059709 0.007236 -0.000644
-0.062527 0.007200 0.000076
-0.064218 0.005539 -0.000176
-0.062495 0.008220 0.000097
-0.056963 0.006316 0.000714
-0.057583 0.006528 0.000645
-0.057582 0.004407 -0.000442
-0.054736 0.007252 -0.000001
-0.056543 0.007494 0.000736
-0.055686 0.007058 -0.000175
-0.057486 0.005668 0.000642
-0.056702 0.006512 -0.000304
-0.056369 0.005321 -0.000285
-0.055478 0.005409 0.000873
-0.057179 0.004817 0.000663
-0.056635 0.006944 0.000763
-0.055870 0.004951 0.000819
-0.059076 0.007783 -0.000561
-0.055945 0.005199 -0.000237
-0.056614 0.007522 0.000284
-0.057382 0.006885 -0.000377
-0.057283 0.004765 -0.000401
-0.057710 0.005299 0.000609
-0.059359 0.007014 -0.000607
-0.058308 0.006312 0.000556
-0.056600 0.004954 0.000734
-0.056936 0.005106 0.000697
-0.058232 0.004302 0.000531
-0.057434 0.007645 -0.000370
-0.056736 0.006624 0.000746
-0.058088 0.006961 0.000593
-0.056929 0.006013 -0.000339
-0.059058 0.006793 -0.000575
-0.057735 0.004269 0.000589
-0.057076 0.007590 -0.000117
-0.058549 0.007832 0.000015
-0.057177 0.004205 -0.000398
-0.058544 0.006633 0.000534
-0.058920 0.007874 0.000511
-0.054674 0.005603 -0.000081
-0.055511 0.006399 0.000886
-0.059237 0.006434 -0.000602
-0.057361 0.004527 0.000637
-0.057194 0.007354 -0.000347
-0.055440 0.005517 -0.000172
-0.055274 0.006746 -0.000132
-0.058997 0.004295 0.000442
-0.054644 0.006193 -0.000068
-0.055101 0.005135 -0.000139
-0.058940 0.007344 0.000499
-0.054909 0.004174 -0.000133
-0.054855 0.004316 0.000928
-0.055516 0.006117 -0.000171
-0.056499 0.006203 0.000766
-0.055092 0.005485 -0.000132
-0.057114 0.006726 0.000703
-0.059126 0.005393 -0.000607
-0.056026 0.007437 -0.000064
-0.057619 0.007178 0.000651
-0.055488 0.006029 0.000882
-0.057772 0.006247 -0.000434
-0.057588 0.007206 -0.000396
-0.056287 0.004153 0.000757
-0.057304 0.006337 0.000674
-0.059371 0.007394 -0.000602
-0.056751 0.007032 -0.000301
-0.059346 0.004874 -0.000641
-0.057563 0.005936 -0.000414
-0.057651 0.007664 0.000303
-0.058833 0.005122 -0.000577
-0.057727 0.005477 -0.000441
-0.058218 0.004479 -0.000515
-0.058631 0.004283 0.000484
-0.057887 0.006680 0.000612
-0.059576 0.008044 -0.000557
-0.056957 0.007556 0.000711
-0.056846 0.004133 -0.000360
-0.055001 0.005925 -0.000114
-0.055474 0.007339 0.000895
-0.059432 0.005887 0.000417
-0.058912 0.005792 -0.000575
-0.055073 0.007285 -0.000100
-0.056653 0.005622 -0.000313
-0.057517 0.005056 -0.000424
-0.057034 0.007582 0.000351
-0.057916 0.006598 -0.000445
-0.057032 0.007156 0.000720
-0.057764 0.004767 -0.000457
-0.055385 0.004547 -0.000182
-0.057223 0.005695 -0.000378
-0.058303 0.007729 -0.000471
-0.055038 0.004725 -0.000138
-0.056524 0.005534 0.000752
-0.057429 0.006506 -0.000389
-0.058839 0.004644 0.000466
-0.055811 0.005568 -0.000215
-0.058580 0.006381 -0.000526
-0.059341 0.006636 0.000440
-0.059587 0.006485 -0.000642
-0.059519 0.005525 -0.000650
-0.059429 0.007006 0.000436
-0.058006 0.004178 -0.000496
-0.059570 0.004298 0.000374
-0.055152 0.005627 0.000915
-0.057990 0.007178 -0.000443
-0.055425 0.007352 0.000122
-0.055897 0.006821 0.000847
-0.058704 0.007093 0.000523
-0.056159 0.007448 0.000440
-0.059028 0.006975 0.000483
-0.055025 0.005317 0.000924
-0.057087 0.006534 -0.000348
-0.056045 0.007131 0.000835
-0.055735 0.004580 0.000829
-0.056452 0.007191 -0.000263
-0.056024 0.005791 0.000815
-0.057167 0.005344 -0.000378
-0.058167 0.005339 -0.000495
-0.055948 0.006539 -0.000215
-0.057055 0.005576 0.000691
-0.056340 0.006713 0.000794
-0.058384 0.005810 -0.000513
-0.059327 0.005934 -0.000621
-0.058539 0.007270 -0.000506
-0.057807 0.004719 0.000588
-0.058512 0.005411 -0.000534
-0.055782 0.007392 0.000738
-0.056052 0.005282 0.000803
-0.056189 0.007442 0.000785
-0.058985 0.007916 -0.000158
-0.055694 0.004408 -0.000221
-0.058727 0.006274 0.000506
-0.054838 0.006686 0.000969
-0.055228 0.006848 0.000926
-0.057550 0.004958 0.000622
-0.056740 0.004585 0.000711
-0.058099 0.004799 -0.000496
-0.059409 0.007646 0.000449
-0.058468 0.004812 0.000512
-0.058912 0.005894 0.000478
-0.057102 0.005946 0.000691
-0.056242 0.004812 0.000773
-0.058253 0.006679 -0.000483
-0.057793 0.007701 -0.000043
-0.056153 0.006270 -0.000243
-0.055525 0.006517 -0.000165
-0.056847 0.005033 -0.000345
-0.058191 0.007758 0.000153
-0.057356 0.007628 0.000076
-0.058104 0.005241 0.000562
-0.059620 0.005088 0.000382
-0.058400 0.007432 0.000564
-0.056152 0.005830 -0.000251
-0.059442 0.008005 -0.000064
-0.056049 0.006451 0.000823
-0.058516 0.004301 -0.000553
-0.057903 0.006070 0.000600
-0.054967 0.007136 0.000962
-0.056400 0.005873 0.000772
-0.055684 0.004210 0.000829
-0.057312 0.007487 0.000693
-0.058674 0.005503 0.000500
-0.059078 0.004423 -0.000617
-0.055800 0.005918 -0.000208
-0.059125 0.006215 0.000459
-0.056175 0.004420 -0.000277
-0.058287 0.005871 0.000551
-0.056783 0.007482 -0.000297
-0.054678 0.004633 -0.000098
-0.056159 0.006122 0.000805
-0.059225 0.007960 0.000214
-0.058987 0.007432 -0.000556
-0.055273 0.004116 -0.000176
-0.056639 0.004422 -0.000331
-0.058859 0.005084 0.000471
-0.054930 0.006954 -0.000088
-0.059485 0.004445 -0.000664
-0.055114 0.006245 -0.000122
-0.055078 0.004717 0.000908
-0.057958 0.005660 0.000586
-0.056322 0.006710 -0.000256
-0.054875 0.006584 -0.000088
-0.059480 0.004747 0.000392
-0.057864 0.007497 -0.000423
-0.058430 0.005142 0.000522
-0.055814 0.007399 0.000355
-0.056097 0.004452 0.000784
-0.058283 0.005532 0.000546
-0.055399 0.004619 0.000869
-0.054647 0.004765 0.000959
-0.054985 0.007272 0.000626
-0.056533 0.005962 -0.000293
-0.055292 0.004208 0.000874
-0.058166 0.007691 0.000596
-0.057989 0.007290 0.000610
-0.056453 0.004861 -0.000302
-0.058665 0.006721 -0.000530
-0.055694 0.004778 -0.000214
-0.058625 0.004741 -0.000559
-0.056741 0.005905 0.000733
-0.058417 0.005020 -0.000530
-0.058187 0.006239 -0.000482
-0.057569 0.006108 0.000639
-0.058909 0.006624 0.000491
-0.057864 0.005168 -0.000462
-0.056045 0.007119 -0.000216
-0.055545 0.005097 -0.000192
-0.058740 0.007880 -0.000466
-0.055330 0.005068 0.000884
-0.054741 0.005836 0.000966
-0.058499 0.007813 0.000493
-0.055300 0.007326 0.000451
-0.058864 0.007082 -0.000547
-0.059386 0.005477 0.000416
-0.058957 0.006212 -0.000573
-0.056917 0.004633 -0.000360
-0.054907 0.006166 0.000952
-0.057995 0.005798 -0.000467
-0.055794 0.005540 0.000838
-0.056106 0.004790 -0.000263
-0.059274 0.005106 0.000423
-0.057744 0.007639 0.000644
-0.055543 0.006979 0.000891
-0.058889 0.007890 0.000172
-0.059038 0.005415 0.000455
-0.056403 0.007498 -0.000108
-0.057267 0.005177 0.000659
-0.054999 0.007289 0.000246
-0.051426 0.005831 0.001332
-0.051967 0.005733 0.001276
-0.050818 0.006651 0.001216
-0.051256 0.005510 0.001344
-0.051742 0.006801 0.000824
-0.051389 0.006754 0.000591
-0.051755 0.004612 0.001278
-0.054256 0.005101 -0.000040
-0.053891 0.006280 0.000022
-0.053118 0.006586 0.000118
-0.050860 0.005529 0.001385
-0.049649 0.006491 0.001046
-0.051008 0.004997 0.000311
-0.051870 0.006805 0.001196
-0.050605 0.005046 0.000352
-0.049970 0.005015 0.001467
-0.054413 0.005594 0.001001
-0.052196 0.006762 0.000219
-0.051823 0.006131 0.000246
-0.051037 0.006699 0.000797
-0.051027 0.006277 0.000330
-0.052889 0.005907 0.001184
-0.053998 0.005302 0.001045
-0.050546 0.004657 0.001402
-0.051607 0.006770 0.000279
-0.053147 0.007011 0.000428
-0.050682 0.005406 0.000351
-0.052441 0.006135 0.001234
-0.054606 0.006803 -0.000053
-0.050735 0.005918 0.001404
-0.053638 0.005089 0.000032
-0.053599 0.004289 0.000023
-0.054059 0.004671 -0.000025
-0.050513 0.006621 0.000594
-0.053063 0.006378 0.001172
-0.050337 0.005564 0.000389
-0.051784 0.004571 0.000224
-0.050180 0.005114 0.000397
-0.050813 0.004136 0.000316
-0.053458 0.006638 0.000079
-0.053012 0.005166 0.000107
-0.052408 0.005575 0.001228
-0.050137 0.004596 0.001443
-0.050097 0.005495 0.001462
-0.050837 0.005886 0.000343
-0.050222 0.006572 0.001132
-0.052438 0.006403 0.000188
-0.054373 0.006304 0.001017
-0.051283 0.006260 0.001354
-0.049748 0.006484 0.001515
-0.051706 0.005770 0.000252
-0.053884 0.006890 0.000033
-0.052485 0.004566 0.001203
-0.050345 0.004237 0.001416
-0.053993 0.006202 0.001060
-0.054139 0.004191 -0.000042
-0.049842 0.006112 0.000448
-0.052381 0.005763 0.000183
-0.051248 0.004420 0.001327
-0.050030 0.005723 0.000423
-0.051993 0.004214 0.001247
-0.052936 0.005087 0.001166
-0.049815 0.005824 0.001497
-0.051253 0.004248 0.000273
-0.054163 0.007143 0.001050
-0.050886 0.004289 0.001362
-0.054371 0.007112 -0.000020
-0.049853 0.004632 0.000422
-0.053533 0.005800 0.001108
-0.053489 0.007065 0.000264
-0.052106 0.006334 0.001271
-0.051617 0.005010 0.000249
-0.050384 0.006237 0.001445
-0.054609 0.007223 0.000522
-0.050381 0.005944 0.000390
-0.054417 0.004404 0.000980
-0.054142 0.007156 0.000283
-0.052354 0.006575 0.001250
-0.054054 0.004323 0.001021
-0.054246 0.005043 0.001011
-0.054205 0.007160 0.000633
-0.052369 0.006894 0.000734
-0.053120 0.005806 0.000105
-0.050716 0.005198 0.001394
-0.053484 0.007058 0.000644
-0.050538 0.004545 0.000351
-0.052803 0.006637 0.001205
-0.052028 0.006441 0.000231
-0.052405 0.005333 0.000174
-0.054097 0.004723 0.001023
-0.050508 0.006577 0.001439
-0.052118 0.004584 0.001241
-0.053514 0.005380 0.001103
-0.052848 0.006815 0.000153
-0.052500 0.005226 0.001213
-0.049989 0.006543 0.000441
-0.054053 0.005803 0.001047
-0.049965 0.006165 0.001487
-0.053616 0.004781 0.001081
-0.052893 0.005535 0.000127
-0.050359 0.006354 0.000400
-0.052830 0.006345 0.000147
-0.052609 0.006919 0.001074
-0.053176 0.004597 0.000078
-0.051131 0.006610 0.001376
-0.051391 0.005031 0.001323
-0.052037 0.005672 0.000217
-0.053508 0.005698 0.000057
-0.051768 0.006322 0.001306
-0.052027 0.005251 0.000211
-0.052696 0.006024 0.000156
-0.054441 0.006664 0.001015
-0.053646 0.007071 0.001101
-0.051405 0.006748 0.000947
-0.052132 0.006002 0.000213
-0.052277 0.004513 0.000173
-0.053191 0.004469 0.001125
-0.054271 0.006771 -0.000014
-0.053154 0.004819 0.001136
-0.054592 0.005003 -0.000082
-0.053466 0.006180 0.001122
-0.050965 0.004729 0.001361
-0.049771 0.005314 0.001493
-0.053525 0.006720 0.001124
-0.050388 0.004967 0.001424
-0.050834 0.006596 0.000355
-0.054070 0.006772 0.001061
-0.053231 0.007009 0.001144
-0.049821 0.005412 0.000439
-0.052111 0.005304 0.001253
-0.054281 0.006421 -0.000021
-0.049939 0.006537 0.000784
-0.052216 0.006857 0.001135
-0.053748 0.005409 0.000024
-0.051767 0.005402 0.001290
-0.051349 0.006179 0.000296
-0.054073 0.005830 -0.000007
-0.054377 0.005422 -0.000049
-0.053610 0.004668 0.000028
-0.051531 0.004152 0.001293
-0.051465 0.005409 0.000271
-0.051326 0.004799 0.000275
-0.050886 0.006249 0.001395
-0.052673 0.004894 0.000139
-0.054604 0.005265 0.000973
-0.051488 0.006752 0.001287
-0.052570 0.004304 0.000139
-0.052877 0.004307 0.001159
-0.053740 0.006461 0.001094
-0.049785 0.004244 0.001473
-0.053744 0.005949 0.000034
-0.051995 0.004881 0.000208
-0.050316 0.004254 0.000369
-0.050429 0.005667 0.001431
-0.052539 0.006920 0.000367
-0.051998 0.004291 0.000198
-0.052929 0.006971 0.000976
-0.053181 0.005629 0.001146
-0.054539 0.007095 0.001011
-0.052758 0.006946 0.000658
-0.053020 0.004276 0.000091
-0.051226 0.005668 0.000300
-0.053342 0.005337 0.000071
-0.053462 0.006288 0.000073
-0.051024 0.005347 0.000315
-0.052359 0.004915 0.001222
-0.052885 0.005437 0.001177
-0.053803 0.007102 0.000468
-0.051928 0.005003 0.001267
-0.051928 0.006827 0.000455
-0.053606 0.004411 0.001076
-0.052785 0.004777 0.001176
-0.052336 0.004873 0.000173
-0.048317 0.005556 0.000595
-0.045945 0.005586 0.000837
-0.048400 0.005608 0.001638
-0.046245 0.004927 0.000796
-0.045154 0.006011 0.001568
-0.047655 0.004165 0.001689
-0.047094 0.004821 0.000707
-0.046261 0.004497 0.000787
-0.049460 0.004983 0.001519
-0.049344 0.006190 0.000501
-0.045554 0.005106 0.001920
-0.046159 0.005899 0.001871
-0.049455 0.004761 0.000465
-0.049183 0.005129 0.000499
-0.049432 0.004381 0.000461
-0.048851 0.005410 0.001588
-0.046571 0.005690 0.001826
-0.045895 0.005046 0.000833
-0.047246 0.005003 0.001745
-0.047348 0.006235 0.001686
-0.046045 0.006103 0.001581
-0.047719 0.006283 0.001251
-0.048867 0.006412 0.000912
-0.046035 0.006111 0.001122
-0.044914 0.006001 0.000968
-0.048861 0.004200 0.001567
-0.047072 0.004471 0.000704
-0.048139 0.005865 0.000618
-0.048743 0.005577 0.000552
-0.045601 0.006050 0.001690
-0.049420 0.005383 0.001530
-0.046952 0.005880 0.000739
-0.047870 0.004516 0.001673
-0.049561 0.005121 0.000460
-0.045295 0.006015 0.001943
-0.049561 0.005751 0.000471
-0.044854 0.005985 0.001316
-0.049560 0.006491 0.000484
-0.046169 0.004449 0.001846
-0.048262 0.006352 0.000803
-0.048018 0.004525 0.000608
-0.045425 0.004286 0.001919
-0.045200 0.005565 0.001964
-0.047570 0.004683 0.000656
-0.046457 0.006153 0.001097
-0.048471 0.004866 0.000567
-0.046489 0.005230 0.001826
-0.049511 0.006143 0.001533
-0.048802 0.004660 0.001581
-0.047898 0.004204 0.000615
-0.046283 0.005687 0.000805
-0.049225 0.006452 0.000935
-0.046226 0.004117 0.000784
-0.047076 0.005782 0.001776
-0.046085 0.004848 0.001861
-0.046968 0.005270 0.000728
-0.048606 0.006385 0.000689
-0.045755 0.005847 0.001912
-0.047480 0.004604 0.001715
-0.047711 0.006013 0.000664
-0.046471 0.006144 0.001594
-0.049485 0.005723 0.001529
-0.048430 0.006086 0.000592
-0.047976 0.005236 0.001675
-0.046667 0.004351 0.001793
-0.048524 0.005039 0.001615
-0.048069 0.005727 0.001674
-0.047541 0.005784 0.001728
-0.046629 0.006158 0.000777
-0.046920 0.006200 0.001321
-0.046924 0.004622 0.001772
-0.048281 0.004428 0.001630
-0.047515 0.005152 0.000670
-0.045593 0.005244 0.000868
-0.048833 0.005038 0.000533
-0.048687 0.004248 0.000535
-0.044965 0.005823 0.001992
-0.048230 0.006317 0.001667
-0.049241 0.004672 0.001536
-0.047805 0.006086 0.001706
-0.047440 0.006261 0.000771
-0.046752 0.005529 0.000754
-0.048841 0.005780 0.001596
-0.046421 0.005368 0.000785
-0.049133 0.005611 0.001563
-0.046750 0.004921 0.001795
-0.046889 0.006184 0.001658
-0.047375 0.005374 0.001738
-0.047385 0.005842 0.000695
-0.045153 0.004994 0.001959
-0.046658 0.004599 0.000748
-0.045298 0.006003 0.000910
-0.049048 0.006423 0.001468
-0.048599 0.006079 0.001625
-0.047705 0.005475 0.001706
-0.045383 0.004293 0.000873
-0.045039 0.005282 0.000925
-0.045845 0.005377 0.001895
-0.045000 0.004272 0.000912
-0.044885 0.005601 0.000946
-0.048979 0.005898 0.000533
-0.046839 0.004140 0.000722
-0.045841 0.006015 0.000855
-0.049062 0.004981 0.001559
-0.046686 0.005059 0.000753
-0.048113 0.006325 0.001191
-0.045524 0.004804 0.000867
-0.047381 0.006253 0.001208
-0.046303 0.006027 0.000808
-0.045258 0.005653 0.000909
-0.048459 0.006365 0.001244
-0.044673 0.005062 0.002009
-0.047704 0.005433 0.000655
-0.049226 0.004272 0.001531
-0.049061 0.006439 0.000541
-0.048777 0.004658 0.000533
-0.044810 0.004433 0.001984
-0.049131 0.005981 0.001569
-0.048401 0.004526 0.000569
-0.045747 0.004445 0.000838
-0.049553 0.004533 0.001502
-0.044914 0.004731 0.000928
-0.047368 0.005492 0.000691
-0.045883 0.004168 0.001870
-0.047028 0.005442 0.001775
-0.047103 0.006229 0.000800
-0.045668 0.006067 0.001301
-0.049062 0.004419 0.000500
-0.044934 0.005343 0.001987
-0.045656 0.004607 0.001901
-0.047859 0.004984 0.000632
-0.044663 0.005290 0.000963
-0.047631 0.005055 0.001707
-0.047989 0.004876 0.001667
-0.049374 0.006456 0.001307
-0.046407 0.004720 0.001826
-0.045328 0.004675 0.001936
-0.047458 0.004352 0.000662
-0.048111 0.005225 0.000610
-0.049150 0.005589 0.000510
-0.047821 0.006299 0.000912
-0.048452 0.005216 0.000575
-0.039759 0.005060 0.001407
-0.044270 0.005921 0.001452
-0.039827 0.004803 0.002447
-0.040801 0.005156 0.002368
-0.040837 0.005584 0.001322
-0.043515 0.005077 0.002128
-0.043344 0.004125 0.001078
-0.041406 0.004859 0.002311
-0.042189 0.005502 0.002253
-0.042590 0.005739 0.001902
-0.043724 0.004706 0.001049
-0.042749 0.005759 0.001358
-0.041312 0.005239 0.002325
-0.042094 0.005688 0.001911
-0.040729 0.005577 0.001746
-0.039838 0.004531 0.001392
-0.042195 0.005120 0.001196
-0.042291 0.005717 0.001390
-0.040140 0.004162 0.001359
-0.039672 0.005499 0.002040
-0.040457 0.005333 0.001351
-0.044582 0.005959 0.001027
-0.044248 0.004161 0.002037
-0.041204 0.004578 0.002323
-0.044275 0.005658 0.001009
-0.042063 0.004230 0.001193
-0.040389 0.005558 0.001632
-0.043925 0.005880 0.001450
-0.039816 0.005511 0.001410
-0.042964 0.005135 0.002179
-0.041632 0.005632 0.002164
-0.043953 0.005589 0.002091
-0.043188 0.004846 0.002155
-0.044596 0.005946 0.001797
-0.043156 0.005344 0.001117
-0.040038 0.005535 0.001738
-0.041525 0.005107 0.001255
-0.043842 0.004217 0.001029
-0.043082 0.004356 0.002156
-0.040183 0.005092 0.001371
-0.040821 0.004775 0.001310
-0.043842 0.005097 0.001044
-0.042953 0.004943 0.001127
-0.042187 0.004992 0.002245
