ply
format ascii 1.0
element vertex 1688
property float x
property float y
property float z
end_header
-0.020574 0.000367 -0.001433
-0.017776 -0.001797 -0.001723
-0.018181 0.001188 -0.001720
-0.021335 -0.000158 -0.002208
-0.020792 0.001277 -0.002219
-0.019495 0.000291 -0.002193
-0.017550 0.000492 -0.002166
-0.018810 -0.000993 -0.001408
-0.021595 -0.002729 -0.002009
-0.017594 -0.002298 -0.001391
-0.018495 0.000433 -0.001398
-0.021272 0.000169 -0.001446
-0.018798 0.000967 -0.000782
-0.017762 -0.000978 -0.002174
-0.020470 -0.001146 -0.000818
-0.020554 -0.001719 -0.002224
-0.021346 -0.000938 -0.001451
-0.022043 0.000415 -0.000839
-0.021773 -0.000630 -0.002242
-0.021315 -0.000712 -0.002234
-0.019020 0.001368 -0.002188
-0.018891 -0.001058 -0.002194
-0.019357 -0.001940 -0.000801
-0.020430 0.001488 -0.001427
-0.021971 -0.000820 -0.000842
-0.020353 0.000762 -0.001428
-0.021644 0.000431 -0.002226
-0.021527 0.000437 -0.001780
-0.020109 0.000181 -0.000807
-0.021479 -0.001207 -0.001784
-0.020624 0.000802 -0.002217
-0.021609 0.000188 -0.000833
-0.018712 -0.002089 -0.000791
-0.020668 -0.002720 -0.001776
-0.021672 0.000010 -0.001815
-0.018797 -0.000010 -0.001735
-0.020941 -0.002146 -0.001448
-0.019170 -0.002340 -0.000799
-0.020158 -0.000000 -0.001302
-0.018379 -0.000381 -0.001729
-0.017646 -0.003152 -0.000776
-0.020103 -0.000273 -0.000808
-0.018263 0.000519 -0.000774
-0.018811 0.001609 -0.000780
-0.022279 -0.002974 -0.001474
-0.021010 -0.001200 -0.000827
-0.020299 -0.002052 -0.000818
-0.019899 0.000651 -0.001751
-0.018463 0.000017 -0.002165
-0.019797 -0.000810 -0.002208
-0.019292 0.000271 -0.001742
-0.019902 0.000614 -0.000802
-0.019342 -0.000700 -0.001416
-0.017809 -0.001792 -0.000774
-0.020336 0.000693 -0.000809
-0.018552 -0.000011 -0.000811
-0.020927 0.000005 -0.001703
-0.018441 -0.002564 -0.001737
-0.019195 -0.002194 -0.002203
-0.019988 -0.001645 -0.000811
-0.018662 -0.002901 -0.001412
-0.019502 -0.000471 -0.002202
-0.019349 -0.001481 -0.000800
-0.019086 -0.002663 -0.001418
-0.021970 -0.000335 -0.001460
-0.020365 -0.002135 -0.002223
-0.020481 -0.002635 -0.002226
-0.018884 -0.003251 -0.001747
-0.019653 -0.001385 -0.001424
-0.021925 -0.000892 -0.001791
-0.018271 -0.001268 -0.002184
-0.019369 -0.000387 -0.001746
-0.021747 -0.002476 -0.000844
-0.018949 -0.001714 -0.000793
-0.018289 0.000814 -0.002177
-0.018943 -0.002114 -0.001414
-0.018893 0.001577 -0.001401
-0.021146 -0.002657 -0.002130
-0.017906 0.001361 -0.000765
-0.021711 -0.002095 -0.001461
-0.019357 -0.002497 -0.001752
-0.018361 -0.000925 -0.000781
-0.020916 -0.001430 -0.001445
-0.017927 -0.000972 -0.000774
-0.020055 -0.000281 -0.002201
-0.018927 0.000353 -0.002190
-0.021451 0.001061 -0.002231
-0.021566 -0.002821 -0.001461
-0.021232 -0.000720 -0.000829
-0.018437 0.001622 -0.001723
-0.019849 -0.001906 -0.001429
-0.019367 -0.002652 -0.002207
-0.017856 0.000050 -0.002160
-0.019606 -0.000559 -0.000801
-0.021983 0.001004 -0.001456
-0.020387 -0.001135 -0.001766
-0.020727 -0.001662 -0.000824
-0.018535 -0.002259 -0.002192
-0.017725 0.000530 -0.000765
-0.020052 -0.000815 -0.001428
-0.020969 -0.001756 -0.001778
-0.022026 0.000760 -0.002241
-0.020073 -0.001721 -0.001762
-0.021740 -0.001686 -0.000841
-0.019925 0.000358 -0.001422
-0.018413 0.000765 -0.001725
-0.017701 -0.001678 -0.002175
-0.017984 0.000088 -0.001720
-0.021703 0.001358 -0.001780
-0.022427 -0.001812 -0.000853
-0.018862 -0.002384 -0.001744
-0.022038 -0.002097 -0.000848
-0.021286 -0.001582 -0.000833
-0.019845 -0.002117 -0.000810
-0.018135 -0.002884 -0.002187
-0.019420 -0.001561 -0.001750
-0.019514 -0.002236 -0.001424
-0.022183 -0.000443 -0.002238
-0.018655 -0.000756 -0.001735
-0.021772 0.001629 -0.001450
-0.019856 -0.001196 -0.001757
-0.020105 0.001163 -0.001753
-0.020495 -0.000278 -0.001434
-0.021706 0.000882 -0.001781
-0.020602 -0.002244 -0.001773
-0.019944 0.000000 -0.001681
-0.021850 0.000492 -0.001455
-0.021927 -0.002477 -0.001466
-0.019266 -0.001997 -0.001749
-0.021250 0.000511 -0.000825
-0.017943 -0.000872 -0.001393
-0.022272 -0.001685 -0.002254
-0.019135 0.000536 -0.001408
-0.019302 0.001289 -0.001739
-0.021144 0.001305 -0.001770
-0.018772 0.000840 -0.002185
-0.018076 -0.002966 -0.001402
-0.020794 0.000806 -0.001766
-0.018776 0.000923 -0.001401
-0.021414 -0.002169 -0.001786
-0.018383 -0.001779 -0.000784
-0.022342 -0.001506 -0.001470
-0.017754 0.001299 -0.001712
-0.021501 0.001075 -0.001447
-0.018484 -0.002178 -0.001406
-0.018001 0.000394 -0.001389
-0.022007 -0.001580 -0.001795
-0.021007 -0.002713 -0.001451
-0.020423 0.000067 -0.001762
-0.019640 0.001017 -0.001746
-0.018008 -0.002231 -0.001728
-0.020207 -0.001424 -0.001433
-0.017866 -0.003318 -0.001984
-0.019743 -0.000314 -0.001421
-0.020922 0.001095 -0.001437
-0.019587 -0.002724 -0.001427
-0.017714 0.000448 -0.001715
-0.126330 0.002254 -0.001977
-0.123590 0.002889 -0.002115
-0.125300 0.002628 -0.002366
-0.125330 0.002413 -0.001812
-0.126310 0.002740 -0.002513
-0.124480 0.003547 -0.001668
-0.124410 0.002763 -0.002234
-0.124870 0.002304 -0.002303
-0.124460 0.002070 -0.001668
-0.122920 0.003710 -0.001996
-0.124520 0.002575 -0.001677
-0.125500 0.003599 -0.001889
-0.126710 0.002750 -0.002038
-0.123950 0.002579 -0.002168
-0.122870 0.003436 -0.001423
-0.126000 0.002981 -0.001921
-0.123220 0.003700 -0.001617
-0.124390 0.003651 -0.002212
-0.122980 0.002988 -0.001441
-0.125260 0.003483 -0.002357
-0.124940 0.003624 -0.002099
-0.123110 0.002495 -0.001460
-0.123600 0.003189 -0.001532
-0.122540 0.002356 -0.001376
-0.124900 0.002856 -0.002305
-0.125990 0.002139 -0.002468
-0.122490 0.003726 -0.001967
-0.125730 0.003577 -0.002425
-0.126590 0.002385 -0.002556
-0.123760 0.002023 -0.001577
-0.125150 0.003234 -0.001778
-0.125870 0.002663 -0.002449
-0.124000 0.002145 -0.002176
-0.126750 0.003272 -0.002227
-0.125000 0.002792 -0.001756
-0.124510 0.002039 -0.002126
-0.125700 0.003113 -0.002423
-0.126270 0.003566 -0.001970
-0.124180 0.002975 -0.001620
-0.122770 0.002002 -0.001548
-0.125510 0.002062 -0.002052
-0.125010 0.002051 -0.001762
-0.124040 0.003483 -0.001598
-0.123740 0.003392 -0.002133
-0.123890 0.002440 -0.001577
-0.123250 0.002179 -0.002071
-0.126180 0.003344 -0.002493
-0.122850 0.002897 -0.002018
-0.123240 0.003381 -0.002066
-0.124230 0.003185 -0.002207
-0.125490 0.002880 -0.001836
-0.125850 0.002319 -0.001898
-0.123220 0.002666 -0.002067
-0.122820 0.002294 -0.002016
-0.127120 0.002831 -0.002159
-0.127040 0.002763 -0.002621
-0.123260 0.002008 -0.001561
-0.123560 0.002728 -0.001528
-0.120040 0.003821 -0.001463
-0.119760 0.003831 -0.001052
-0.121570 0.002989 -0.001848
-0.120250 0.002161 -0.001037
-0.119500 0.003067 -0.001577
-0.119190 0.002175 -0.001539
-0.117960 0.001888 -0.000773
-0.120730 0.003415 -0.001104
-0.120570 0.002797 -0.001082
-0.122220 0.003740 -0.001524
-0.119830 0.001930 -0.001188
-0.121790 0.002719 -0.001264
-0.121590 0.003764 -0.001717
-0.122440 0.002566 -0.001963
-0.121020 0.003783 -0.001300
-0.118470 0.002898 -0.001442
-0.121130 0.003069 -0.001791
-0.118990 0.001911 -0.000859
-0.117510 0.002378 -0.001328
-0.119550 0.002412 -0.001586
-0.121300 0.002600 -0.001815
-0.119120 0.002752 -0.001528
-0.121150 0.002873 -0.001168
-0.121730 0.003384 -0.001870
-0.120460 0.001949 -0.001463
-0.117870 0.002807 -0.001369
-0.122460 0.002920 -0.001363
-0.119510 0.002311 -0.000925
-0.120090 0.002053 -0.001657
-0.118730 0.003257 -0.001476
-0.121010 0.003788 -0.001753
-0.118750 0.003055 -0.000809
-0.117980 0.003445 -0.001380
-0.118850 0.003557 -0.000824
-0.120500 0.003801 -0.001396
-0.122470 0.003178 -0.001967
-0.117600 0.002348 -0.000657
-0.121990 0.002120 -0.001295
-0.118990 0.002472 -0.000848
-0.118910 0.001912 -0.001321
-0.117520 0.003912 -0.001044
-0.118080 0.003567 -0.000717
-0.121720 0.003665 -0.001252
-0.119920 0.002955 -0.000984
-0.121360 0.002418 -0.001200
-0.120480 0.002343 -0.001708
-0.120080 0.003367 -0.001652
-0.121860 0.002390 -0.001888
-0.119380 0.001922 -0.001198
-0.120330 0.002783 -0.001688
-0.118120 0.003891 -0.001022
-0.119480 0.003518 -0.001574
-0.119910 0.002686 -0.001632
-0.121480 0.003311 -0.001216
-0.121160 0.001962 -0.001650
-0.119040 0.003743 -0.001516
-0.119330 0.003850 -0.001084
-0.122050 0.003246 -0.001301
-0.118520 0.002392 -0.001450
-0.118550 0.003878 -0.001136
-0.120310 0.003467 -0.001041
-0.120550 0.003388 -0.001715
-0.118280 0.002922 -0.000746
-0.118590 0.002066 -0.000789
-0.122020 0.002828 -0.001909
-0.120720 0.002297 -0.001105
-0.121590 0.001972 -0.001430
-0.121180 0.001961 -0.001202
-0.120920 0.002301 -0.001766
-0.117680 0.002894 -0.000666
-0.122330 0.002119 -0.001951
-0.119460 0.002782 -0.000916
-0.118570 0.002578 -0.000786
-0.118310 0.001897 -0.001163
-0.119660 0.003388 -0.000946
-0.119660 0.001979 -0.001601
-0.121680 0.001990 -0.001866
-0.117510 0.003487 -0.000642
-0.117880 0.001945 -0.001373
-0.118090 0.002343 -0.000721
-0.116590 0.002127 -0.000523
-0.116770 0.002103 -0.001244
-0.114030 0.002585 -0.000181
-0.114810 0.003121 -0.001016
-0.113450 0.002413 -0.000106
-0.112860 0.003457 -0.000026
-0.117060 0.003146 -0.000584
-0.114370 0.002975 -0.000965
-0.112980 0.003572 -0.000803
-0.116150 0.003192 -0.001170
-0.115950 0.003759 -0.000434
-0.115760 0.003971 -0.000768
-0.115280 0.002077 -0.000349
-0.115170 0.003367 -0.001057
-0.113900 0.004030 -0.000725
-0.116530 0.002917 -0.001215
-0.117080 0.002356 -0.000588
-0.116500 0.002674 -0.000510
-0.112990 0.002663 -0.000807
-0.112660 0.001853 -0.000007
-0.113530 0.003722 -0.000866
-0.114140 0.003518 -0.000194
-0.116660 0.003332 -0.000529
-0.116560 0.003944 -0.000677
-0.117150 0.003883 -0.000593
-0.116160 0.001887 -0.000467
-0.115470 0.003980 -0.000388
-0.114360 0.002378 -0.000966
-0.115600 0.003355 -0.001106
-0.112930 0.002353 -0.000039
-0.114730 0.001812 -0.000873
-0.112680 0.003900 -0.000005
-0.115500 0.001924 -0.001098
-0.116340 0.003952 -0.001099
-0.115270 0.001825 -0.000712
-0.117020 0.003930 -0.001072
-0.113430 0.002185 -0.000859
-0.113230 0.003049 -0.000833
-0.116100 0.002010 -0.001167
-0.115210 0.002732 -0.000338
-0.114840 0.002212 -0.001021
-0.115600 0.002642 -0.001108
-0.115410 0.003238 -0.000364
-0.113460 0.003252 -0.000105
-0.116980 0.002556 -0.001267
-0.116620 0.003521 -0.001224
-0.115720 0.001834 -0.000550
-0.113780 0.002684 -0.000897
-0.114780 0.003773 -0.000279
-0.115320 0.003988 -0.000983
-0.113290 0.001776 -0.000254
-0.112550 0.002713 -0.000758
-0.114110 0.001797 -0.000739
-0.117460 0.001875 -0.000640
-0.113290 0.001777 -0.000826
-0.116170 0.003223 -0.000465
-0.114870 0.003310 -0.000292
-0.113630 0.002812 -0.000128
-0.114000 0.003036 -0.000176
-0.113060 0.004054 -0.000168
-0.117390 0.001889 -0.001316
-0.113100 0.002988 -0.000057
-0.117390 0.003088 -0.001313
-0.115910 0.003725 -0.001141
-0.112910 0.002155 -0.000799
-0.112620 0.002778 -0.000001
-0.112670 0.001761 -0.000554
-0.113670 0.003815 -0.000131
-0.115960 0.002295 -0.000439
-0.117280 0.003505 -0.001299
-0.113830 0.001788 -0.000400
-0.115860 0.002827 -0.000424
-0.114330 0.003978 -0.000217
-0.112700 0.003168 -0.000772
-0.113350 0.004047 -0.000532
-0.114820 0.002431 -0.000286
-0.114510 0.001805 -0.000359
-0.116360 0.002413 -0.001196
-0.115110 0.002681 -0.001051
-0.114510 0.003049 -0.000244
-0.113890 0.003316 -0.000909
-0.114740 0.003806 -0.001005
-0.114430 0.004014 -0.000651
-0.114190 0.002166 -0.000204
-0.114400 0.003539 -0.000967
-0.112760 0.004065 -0.000759
-0.116910 0.003124 -0.001258
-0.116390 0.001851 -0.000873
-0.115000 0.003996 -0.000615
-0.117000 0.001865 -0.000692
-0.113960 0.002158 -0.000921
-0.113240 0.003673 -0.000074
-0.109010 0.004165 0.000416
-0.111940 0.004087 0.000067
-0.110050 0.002881 0.000300
-0.111020 0.001719 0.000126
-0.107520 0.003392 0.000598
-0.111700 0.002323 -0.000674
-0.108270 0.002764 0.000508
-0.111400 0.003758 0.000145
-0.112060 0.003767 -0.000706
-0.108860 0.004084 -0.000386
-0.107820 0.004108 0.000565
-0.109390 0.003274 -0.000441
-0.111040 0.004019 0.000188
-0.108430 0.002833 -0.000347
-0.108910 0.003317 -0.000394
-0.112350 0.002360 0.000029
-0.108910 0.003558 0.000436
-0.111560 0.002562 0.000123
-0.109740 0.002807 -0.000478
-0.110240 0.002026 0.000276
-0.110980 0.002552 0.000190
-0.112090 0.003069 0.000063
-0.108140 0.004186 -0.000314
-0.111930 0.002187 0.000078
-0.110790 0.003365 -0.000581
-0.111650 0.001736 -0.000390
-0.110250 0.003478 0.000279
-0.109280 0.002747 -0.000432
-0.107910 0.003766 -0.000292
-0.112160 0.002494 -0.000719
-0.111510 0.001753 0.000127
-0.109530 0.001683 0.000159
-0.112170 0.003498 0.000054
-0.110510 0.002931 0.000247
-0.109640 0.002152 -0.000469
-0.111550 0.003983 -0.000655
-0.112000 0.002970 -0.000703
-0.110260 0.004049 -0.000526
-0.110590 0.004106 0.000241
-0.110960 0.003076 0.000195
-0.108890 0.002487 -0.000393
-0.111420 0.003567 -0.000642
-0.111190 0.002485 -0.000623
-0.111210 0.002927 -0.000624
-0.110320 0.002435 -0.000536
-0.107930 0.003229 -0.000296
-0.109300 0.004155 -0.000430
-0.109890 0.001693 -0.000443
-0.110590 0.001722 0.000234
-0.108570 0.004176 0.000363
-0.109980 0.004141 0.000077
-0.112250 0.004078 -0.000255
-0.110740 0.002761 -0.000577
-0.111080 0.001722 -0.000318
-0.110190 0.003569 -0.000520
-0.109610 0.003862 0.000355
-0.108990 0.002061 -0.000404
-0.107770 0.001755 -0.000284
-0.107670 0.002861 -0.000271
-0.112100 0.001746 0.000040
-0.109330 0.001679 -0.000281
-0.110340 0.002472 0.000265
-0.108720 0.001787 0.000453
-0.110700 0.002033 -0.000575
-0.107890 0.002033 0.000552
-0.109380 0.003479 0.000380
-0.110310 0.002896 -0.000534
-0.109770 0.003257 0.000335
-0.111360 0.004105 -0.000187
-0.108480 0.003456 -0.000350
-0.109520 0.003716 -0.000452
-0.109610 0.002387 0.000351
-0.109050 0.001671 0.000147
-0.109440 0.004155 0.000025
-0.110880 0.003566 0.000206
-0.108390 0.002282 -0.000345
-0.109810 0.004142 -0.000480
-0.108620 0.002276 0.000466
-0.108310 0.003834 0.000507
-0.108080 0.004189 0.000232
-0.112220 0.001751 -0.000609
-0.107760 0.002493 0.000568
-0.110400 0.001706 -0.000348
-0.108000 0.003376 0.000542
-0.111460 0.003204 0.000137
-0.111090 0.004114 -0.000524
-0.109090 0.002602 0.000412
-0.111270 0.001960 -0.000632
-0.108660 0.001662 -0.000135
-0.110640 0.003833 -0.000564
-0.109150 0.002123 0.000404
-0.107780 0.002315 -0.000283
-0.108290 0.001764 -0.000335
-0.108540 0.003113 0.000479
-0.109310 0.003053 0.000387
-0.110640 0.004124 -0.000198
-0.112400 0.003475 -0.000741
-0.109990 0.001693 0.000019
-0.112470 0.002155 -0.000751
-0.110700 0.002208 0.000223
-0.103550 0.003017 0.000085
-0.102730 0.004305 0.000166
-0.106970 0.001816 0.000650
-0.102790 0.003519 0.001079
-0.103470 0.003601 0.001011
-0.104180 0.003549 0.000939
-0.106410 0.001948 -0.000158
-0.105100 0.003350 -0.000044
-0.103320 0.002700 0.001024
-0.105030 0.004257 0.000692
-0.105060 0.003991 -0.000039
-0.104630 0.004266 0.000393
-0.104570 0.001988 0.000895
-0.103240 0.002139 0.000109
-0.107410 0.003310 -0.000244
-0.106940 0.004179 0.000660
-0.105930 0.003337 0.000760
-0.104540 0.003313 0.000902
-0.103410 0.004292 0.000190
-0.106740 0.004220 0.000255
-0.105010 0.003499 0.000854
-0.103550 0.002540 0.000084
-0.105570 0.003688 -0.000083
-0.106530 0.002587 0.000697
-0.107150 0.002408 0.000634
-0.104080 0.003490 0.000042
-0.105890 0.002480 0.000762
-0.105910 0.004219 0.000765
-0.106240 0.004231 0.000410
-0.102550 0.003900 0.000172
-0.103100 0.001725 0.000119
-0.105480 0.002319 -0.000079
-0.105800 0.003263 -0.000104
-0.106770 0.002844 -0.000186
-0.104650 0.002654 0.000888
-0.105360 0.002943 -0.000068
-0.104150 0.003971 0.000037
-0.102920 0.002060 0.001062
-0.103830 0.002085 0.000059
-0.107240 0.002706 -0.000228
-0.102700 0.003087 0.000157
-0.103730 0.004280 0.000986
-0.102750 0.002284 0.000150
-0.103770 0.001692 0.000975
-0.102550 0.004215 0.001105
-0.105520 0.002910 0.000800
-0.103100 0.002845 0.000122
-0.106670 0.003359 0.000685
-0.106460 0.004158 -0.000157
-0.103290 0.004292 0.000901
-0.107140 0.003162 0.000637
-0.107380 0.004208 -0.000145
-0.102640 0.002669 0.001092
-0.105690 0.004244 0.000098
-0.105430 0.002262 0.000808
-0.105570 0.003600 0.000797
-0.104410 0.004269 0.000821
-0.105140 0.001716 -0.000053
-0.104470 0.003111 0.000007
-0.105780 0.002764 -0.000104
-0.106150 0.003707 0.000738
-0.103250 0.001721 0.001028
-0.104420 0.002634 0.000011
-0.103930 0.002592 0.000961
-0.107050 0.003615 0.000647
-0.104740 0.002138 -0.000018
-0.106520 0.001924 0.000696
-0.103600 0.002165 0.000993
-0.105090 0.002641 0.000844
-0.107470 0.002845 0.000603
-0.103030 0.003960 0.000132
-0.106270 0.002482 -0.000146
-0.106920 0.004215 -0.000195
-0.103710 0.004286 0.000513
-0.106640 0.003504 -0.000174
-0.106310 0.003094 -0.000147
-0.106140 0.002126 0.000736
-0.106080 0.002878 0.000744
-0.107310 0.003763 -0.000232
-0.106070 0.003861 -0.000125
-0.103510 0.003856 0.000091
-0.105110 0.001926 0.000840
-0.105930 0.002123 -0.000118
-0.105520 0.004247 0.000518
-0.102970 0.003487 0.000135
-0.104190 0.004276 0.000427
-0.104520 0.003615 0.000005
-0.104540 0.003803 0.000903
-0.103210 0.003243 0.001036
-0.107050 0.002197 -0.000212
-0.104060 0.003131 0.000950
-0.102970 0.003912 0.001062
-0.103850 0.004284 0.000094
-0.107380 0.003924 0.000615
-0.104060 0.002014 0.000946
-0.105020 0.002537 -0.000040
-0.102550 0.001839 0.001099
-0.107400 0.001989 0.000608
-0.106570 0.003926 0.000697
-0.104050 0.002923 0.000043
-0.098811 0.002772 0.001433
-0.098318 0.002644 0.001475
-0.097705 0.002015 0.000515
-0.101760 0.002455 0.001179
-0.099760 0.003284 0.000377
-0.099854 0.002113 0.001342
-0.099113 0.001991 0.001405
-0.100150 0.003961 0.000352
-0.102020 0.004248 0.001159
-0.102280 0.003110 0.001130
-0.098372 0.003540 0.001473
-0.098668 0.004370 0.000482
-0.101380 0.003448 0.001215
-0.100960 0.002209 0.001247
-0.101170 0.004329 0.001032
-0.099314 0.004156 0.000410
-0.099990 0.001658 0.001329
-0.100750 0.004337 0.000590
-0.102130 0.004101 0.000208
-0.102290 0.002314 0.001126
-0.100120 0.003085 0.001322
-0.102040 0.001914 0.001151
-0.101890 0.003704 0.000227
-0.098041 0.002125 0.001498
-0.097816 0.004379 0.001169
-0.098200 0.004373 0.001480
-0.102180 0.002210 0.000198
-0.099002 0.002279 0.000426
-0.100660 0.001707 0.001271
-0.100530 0.004214 0.001289
-0.101190 0.002790 0.000277
-0.098948 0.003736 0.000434
-0.100710 0.003472 0.001272
-0.102200 0.003070 0.000199
-0.101640 0.002277 0.000244
-0.098864 0.004365 0.001061
-0.099235 0.003334 0.000413
-0.101580 0.003388 0.000252
-0.101830 0.002821 0.000230
-0.098321 0.004373 0.000831
-0.102390 0.003479 0.000184
-0.099487 0.003761 0.000397
-0.098019 0.001686 0.001498
-0.098897 0.003542 0.001428
-0.099765 0.004355 0.000546
-0.100140 0.001811 0.000347
-0.099412 0.002959 0.001382
-0.098481 0.003073 0.001463
-0.097827 0.003492 0.001520
-0.098670 0.004287 0.001450
-0.099931 0.002252 0.000362
-0.101330 0.002524 0.001216
-0.101840 0.003621 0.001175
-0.102030 0.004315 0.000605
-0.100860 0.003741 0.000303
-0.101120 0.002282 0.000280
-0.097676 0.002413 0.001530
-0.098096 0.002884 0.000490
-0.102270 0.003809 0.001133
-0.099996 0.003630 0.001334
-0.101140 0.003058 0.001234
-0.102470 0.004307 0.000607
-0.099549 0.003398 0.001372
-0.099477 0.003829 0.001379
-0.098318 0.003697 0.000478
-0.098767 0.003317 0.000446
-0.100850 0.001866 0.000298
-0.099299 0.001946 0.000405
-0.097781 0.003581 0.000514
-0.101640 0.003064 0.001191
-0.100310 0.003184 0.000339
-0.100650 0.002860 0.001276
-0.100130 0.004347 0.000863
-0.101450 0.003952 0.000263
-0.099446 0.002446 0.000396
-0.099305 0.004358 0.001182
-0.101740 0.001838 0.000234
-0.102230 0.001766 0.000193
-0.100410 0.002149 0.000329
-0.098347 0.002153 0.000471
-0.097752 0.004123 0.001528
-0.097656 0.001917 0.001530
-0.101120 0.003895 0.001238
-0.097826 0.002869 0.001518
-0.101260 0.001808 0.001220
-0.098852 0.002740 0.000438
-0.101700 0.004322 0.000293
-0.100120 0.004347 0.001324
-0.099499 0.002487 0.001373
-0.099701 0.004230 0.001361
-0.101240 0.004329 0.000515
-0.098709 0.001894 0.000445
-0.101640 0.004039 0.001194
-0.101010 0.003253 0.000291
-0.100290 0.002092 0.001304
-0.101620 0.004321 0.000868
-0.100540 0.002706 0.000322
-0.097968 0.004236 0.000503
-0.099083 0.004015 0.001414
-0.098662 0.002149 0.001444
-0.099995 0.002622 0.001331
-0.099908 0.002684 0.000365
-0.098169 0.001708 0.000482
-0.099448 0.002948 0.000398
-0.097700 0.002478 0.000516
-0.097641 0.003165 0.000523
-0.099070 0.002420 0.001410
-0.100350 0.004346 0.000385
-0.096554 0.004112 0.000600
-0.093251 0.004428 0.001051
-0.095411 0.003069 0.001713
-0.092494 0.004410 0.000827
-0.094835 0.004391 0.000702
-0.096997 0.003024 0.001590
-0.096414 0.001940 0.000603
-0.095776 0.001776 0.000643
-0.096177 0.003037 0.001659
-0.093659 0.002336 0.000758
-0.094855 0.004413 0.001286
-0.092500 0.002135 0.000820
-0.094979 0.002694 0.000689
-0.097190 0.002202 0.001571
-0.095308 0.002614 0.001719
-0.096729 0.002696 0.000584
-0.095275 0.001966 0.001720
-0.097462 0.004384 0.000921
-0.097365 0.004337 0.001562
-0.093269 0.004427 0.001546
-0.095541 0.004370 0.000664
-0.094063 0.002602 0.001807
-0.092828 0.004087 0.001899
-0.094341 0.004419 0.001079
-0.097035 0.003707 0.000566
-0.096420 0.003613 0.000608
-0.093418 0.002819 0.001853
-0.092910 0.002244 0.001887
-0.095566 0.003248 0.000659
-0.094667 0.002427 0.001764
-0.094362 0.003902 0.000726
-0.095990 0.004375 0.000640
-0.096848 0.001782 0.000573
-0.096136 0.002555 0.001661
-0.096510 0.003318 0.001633
-0.092994 0.001676 0.000792
-0.093215 0.002574 0.000783
-0.093775 0.003918 0.000757
-0.092689 0.002895 0.001905
-0.096815 0.002463 0.001604
-0.095265 0.004408 0.001639
-0.095142 0.003916 0.000684
-0.096492 0.003989 0.001636
-0.094859 0.003210 0.000697
-0.093566 0.004340 0.000770
-0.097337 0.003895 0.001563
-0.094964 0.003192 0.001745
-0.094206 0.002279 0.000729
-0.093555 0.001720 0.000762
-0.093219 0.002110 0.000781
-0.095504 0.002791 0.000661
-0.097112 0.004179 0.000562
-0.093520 0.003118 0.000768
-0.095865 0.003467 0.001683
-0.097170 0.001740 0.001571
-0.093657 0.004424 0.001281
-0.093888 0.002860 0.000748
-0.094575 0.003962 0.001775
-0.092472 0.004410 0.001925
-0.095304 0.001703 0.000668
-0.092724 0.003765 0.000813
-0.092574 0.004434 0.001252
-0.095423 0.002194 0.000664
-0.095818 0.004405 0.001075
-0.094276 0.003114 0.000728
-0.095718 0.004387 0.001696
-0.092505 0.003732 0.001920
-0.097152 0.002947 0.000556
-0.096539 0.002056 0.001627
-0.094817 0.003599 0.001757
-0.095345 0.004410 0.001152
-0.093367 0.003319 0.001858
-0.096738 0.004393 0.001457
-0.093794 0.003248 0.001828
-0.093439 0.003761 0.001855
-0.092959 0.004141 0.000801
-0.094243 0.001819 0.000725
-0.095962 0.003981 0.001677
-0.095919 0.002913 0.000639
-0.094482 0.003179 0.001779
-0.093982 0.003704 0.001816
-0.092746 0.002520 0.000808
-0.095854 0.002124 0.001679
-0.094000 0.002048 0.001810
-0.096158 0.004400 0.001480
-0.092929 0.003486 0.001890
-0.093775 0.004191 0.001832
-0.094728 0.002200 0.000701
-0.094001 0.003483 0.000744
-0.097145 0.002243 0.000554
-0.093271 0.003833 0.000784
-0.094709 0.001906 0.001759
-0.095728 0.002777 0.001690
-0.092946 0.002927 0.000798
-0.094010 0.004423 0.000792
-0.095997 0.003421 0.000636
-0.095507 0.003864 0.001709
-0.096505 0.004397 0.000921
-0.094203 0.004404 0.001803
-0.097051 0.003500 0.001587
-0.096352 0.002428 0.000609
-0.093435 0.001952 0.001849
-0.094704 0.004412 0.001744
-0.097051 0.004389 0.001097
-0.093048 0.003387 0.000794
-0.095824 0.002350 0.000643
-0.095839 0.003856 0.000646
-0.093005 0.001798 0.001879
-0.097412 0.003237 0.001555
-0.096493 0.003157 0.000601
-0.089839 0.004449 0.001228
-0.089412 0.003885 0.002121
-0.089410 0.002528 0.000971
-0.089661 0.004449 0.001682
-0.088760 0.003102 0.000998
-0.091423 0.003977 0.001997
-0.090959 0.001998 0.002024
-0.089314 0.003325 0.000977
-0.091456 0.003496 0.000880
-0.091293 0.002841 0.000886
-0.087558 0.003532 0.001045
-0.087502 0.002538 0.001044
-0.091882 0.001981 0.000852
-0.090629 0.003711 0.000925
-0.088742 0.004452 0.002116
-0.092428 0.003297 0.001924
-0.089155 0.004087 0.000986
-0.091837 0.003528 0.001967
-0.090118 0.002923 0.000945
-0.090899 0.004442 0.001831
-0.089777 0.001857 0.002094
-0.087754 0.004454 0.002038
-0.089349 0.002278 0.002119
-0.092120 0.002487 0.000841
-0.090655 0.003269 0.000922
-0.088359 0.002320 0.002174
-0.088452 0.004037 0.001012
-0.091262 0.002371 0.000886
-0.091239 0.004430 0.000894
-0.091440 0.001706 0.000875
-0.089759 0.003289 0.000960
-0.087846 0.002157 0.002202
-0.092093 0.003931 0.001950
-0.087990 0.004455 0.001649
-0.090513 0.001866 0.002054
-0.090729 0.002451 0.000915
-0.088329 0.003361 0.001015
-0.089494 0.004414 0.002118
-0.088777 0.002292 0.000994
-0.087884 0.002771 0.002202
-0.088020 0.002989 0.001026
-0.091445 0.001980 0.001990
-0.092035 0.004116 0.000851
-0.091737 0.002325 0.001970
-0.092040 0.004438 0.001415
-0.090644 0.002974 0.002049
-0.090452 0.004445 0.001695
-0.091870 0.003630 0.000858
-0.088176 0.003302 0.002187
-0.089855 0.003611 0.002095
-0.092409 0.002945 0.000827
-0.091205 0.003102 0.002010
-0.088656 0.004456 0.001224
-0.092264 0.002811 0.001935
-0.087560 0.004346 0.001047
-0.091148 0.002585 0.002013
-0.091229 0.003867 0.000893
-0.088927 0.004452 0.001702
-0.087635 0.003871 0.002219
-0.091290 0.004441 0.001475
-0.090055 0.002712 0.002081
-0.091925 0.002902 0.000853
-0.087806 0.003942 0.001037
-0.091669 0.004441 0.000993
-0.088378 0.002487 0.001010
-0.089595 0.002640 0.002107
-0.089607 0.003122 0.002108
-0.092390 0.001851 0.001923
-0.089143 0.003009 0.002133
-0.088790 0.002087 0.002149
-0.091886 0.004366 0.001966
-0.091101 0.003645 0.002019
-0.088522 0.002864 0.002167
-0.088310 0.004294 0.002183
-0.088130 0.004457 0.001118
-0.087492 0.003070 0.001046
-0.090612 0.003517 0.002053
-0.091323 0.004440 0.001936
-0.090947 0.001949 0.000902
-0.089185 0.002896 0.000981
-0.089598 0.001749 0.000961
-0.090564 0.004204 0.002058
-0.089167 0.002049 0.000979
-0.092185 0.002374 0.001939
-0.090746 0.004446 0.001025
-0.090063 0.004446 0.002020
-0.088190 0.003821 0.002188
-0.090092 0.003673 0.000949
-0.089471 0.003762 0.000973
-0.088419 0.004454 0.001782
-0.089903 0.002282 0.002089
-0.088913 0.003610 0.000993
-0.090258 0.001728 0.000936
-0.090034 0.003198 0.002084
-0.088963 0.003404 0.002144
-0.091777 0.003008 0.001970
-0.090231 0.003823 0.002075
-0.090461 0.002539 0.002059
-0.087682 0.003254 0.002214
-0.089893 0.002475 0.000952
-0.092312 0.003484 0.000834
-0.090366 0.004141 0.000940
-0.089231 0.004452 0.001360
-0.088935 0.003953 0.002147
-0.087932 0.002291 0.001027
-0.090258 0.002179 0.000938
-0.089851 0.004103 0.000959
-0.086579 0.002808 0.001080
-0.083362 0.004453 0.001975
-0.085808 0.004110 0.001114
-0.084627 0.003206 0.001153
-0.082861 0.002225 0.002445
-0.086950 0.002391 0.001064
-0.084954 0.003595 0.002366
-0.086880 0.002772 0.002257
-0.086614 0.003462 0.001081
-0.085919 0.004458 0.001343
-0.087309 0.002375 0.002232
-0.085688 0.003280 0.001116
-0.086378 0.004104 0.001092
-0.084828 0.004459 0.001225
-0.085669 0.003332 0.002326
-0.085592 0.004390 0.002333
-0.083504 0.002848 0.001178
-0.085218 0.003810 0.001135
-0.082658 0.003638 0.002458
-0.086062 0.002900 0.002303
-0.087444 0.001905 0.001044
-0.083005 0.004007 0.002445
-0.083578 0.004376 0.002423
-0.084210 0.004459 0.001211
-0.083731 0.001718 0.001169
-0.085257 0.004458 0.001571
-0.083181 0.001809 0.002431
-0.083037 0.004454 0.001301
-0.084281 0.002937 0.001160
-0.083545 0.004455 0.001551
-0.085277 0.004277 0.001134
-0.086869 0.002040 0.002255
-0.087389 0.004320 0.002234
-0.085159 0.004457 0.001993
-0.082874 0.004452 0.001770
-0.085847 0.004456 0.001957
-0.082669 0.004114 0.001201
-0.083318 0.002032 0.001180
-0.086827 0.004185 0.001075
-0.083864 0.002205 0.001168
-0.085650 0.002483 0.002324
-0.085743 0.003812 0.002323
-0.083457 0.002834 0.002423
-0.083783 0.001829 0.002407
-0.084394 0.004457 0.001773
-0.083267 0.003597 0.001186
-0.084416 0.002463 0.001156
-0.087378 0.004456 0.001594
-0.083338 0.004124 0.001186
-0.085733 0.002039 0.002318
-0.086834 0.004120 0.002264
-0.084638 0.001943 0.001149
-0.082639 0.002643 0.002455
-0.085169 0.002837 0.001134
-0.084698 0.003691 0.001153
-0.086127 0.003191 0.001098
-0.085053 0.003284 0.001140
-0.085246 0.002328 0.002346
-0.082722 0.002986 0.001196
-0.084062 0.003852 0.001168
-0.084129 0.003417 0.001165
-0.087273 0.002972 0.002236
-0.083972 0.003034 0.002403
-0.084742 0.002764 0.001149
-0.083447 0.002222 0.002422
-0.086308 0.002225 0.002287
-0.083911 0.002241 0.002403
-0.086494 0.004455 0.002276
-0.084475 0.001825 0.002379
-0.085114 0.001860 0.001133
-0.083141 0.004451 0.002436
-0.084563 0.002511 0.002378
-0.083422 0.003753 0.002427
-0.084627 0.004007 0.002380
-0.082757 0.002469 0.001194
-0.085251 0.002281 0.001129
-0.084730 0.003027 0.002373
-0.082734 0.004449 0.002248
-0.087211 0.003588 0.002241
-0.082618 0.001778 0.002453
-0.082972 0.003266 0.002444
-0.085635 0.002592 0.001115
-0.086298 0.002424 0.001090
-0.085672 0.001781 0.001111
-0.086694 0.004457 0.001465
-0.083606 0.003359 0.002419
-0.082699 0.001828 0.001193
-0.087115 0.003316 0.001061
-0.086221 0.003437 0.002295
-0.083621 0.003305 0.001177
-0.086350 0.004456 0.001735
-0.087329 0.003925 0.001055
-0.086183 0.003687 0.001098
-0.086544 0.001689 0.002272
-0.084039 0.004455 0.002084
-0.084419 0.004455 0.002376
-0.085354 0.002850 0.002342
-0.085828 0.002193 0.001107
-0.087235 0.001678 0.002234
-0.086676 0.003270 0.002270
-0.086452 0.003900 0.002284
-0.086960 0.004455 0.001815
-0.082795 0.003626 0.001197
-0.085134 0.004172 0.002358
-0.083305 0.002464 0.001181
-0.086400 0.001800 0.001084
-0.084270 0.003582 0.002393
-0.085383 0.001780 0.002337
-0.084824 0.002155 0.002366
-0.084173 0.004025 0.002398
-0.086439 0.002673 0.002281
-0.082515 0.004073 0.002465
-0.086838 0.001957 0.001067
-0.087052 0.002888 0.001062
-0.082078 0.004101 0.002482
-0.077752 0.004709 0.002618
-0.081264 0.004446 0.001830
-0.078672 0.003194 0.002606
-0.078879 0.002318 0.002599
-0.079351 0.005209 0.001301
-0.080707 0.002346 0.001241
-0.077899 0.002306 0.001274
-0.081971 0.001983 0.001210
-0.078274 0.002453 0.002609
-0.078727 0.006124 0.002614
-0.077715 0.002796 0.001272
-0.078952 0.004544 0.002604
-0.079671 0.003610 0.001268
-0.078293 0.003056 0.001281
-0.078201 0.004787 0.002617
-0.082372 0.004451 0.001520
-0.077521 0.005319 0.001276
-0.082393 0.002182 0.001201
-0.079150 0.005083 0.002601
-0.078883 0.005858 0.001290
-0.080958 0.003552 0.002525
-0.080566 0.004471 0.002143
-0.078421 0.005618 0.001291
-0.079210 0.003659 0.001279
-0.081865 0.003492 0.002489
-0.079402 0.002890 0.001272
-0.081680 0.002915 0.001220
-0.078919 0.004055 0.002604
-0.079091 0.005709 0.001821
-0.078835 0.005680 0.002611
-0.079486 0.002145 0.001268
-0.080515 0.004478 0.001525
-0.078349 0.004293 0.001286
-0.078318 0.006538 0.002622
-0.080136 0.004429 0.001261
-0.081975 0.004451 0.001228
-0.080052 0.004620 0.001834
-0.079697 0.004177 0.002578
-0.079329 0.001684 0.002584
-0.079322 0.004437 0.001279
-0.078954 0.006295 0.002197
-0.081859 0.002416 0.002486
-0.078197 0.003311 0.002612
-0.078574 0.003667 0.002609
-0.081207 0.002041 0.001228
-0.078825 0.004543 0.001287
-0.081696 0.003058 0.002494
-0.077831 0.002739 0.002611
-0.080438 0.002212 0.002542
-0.081617 0.004049 0.002501
-0.082104 0.003960 0.001214
-0.078753 0.002301 0.001279
-0.077779 0.003808 0.002615
-0.081278 0.004448 0.001384
-0.080159 0.004575 0.002441
-0.080902 0.001659 0.002521
-0.079034 0.002904 0.002597
-0.078243 0.005932 0.002621
-0.079448 0.004761 0.002589
-0.082397 0.002220 0.002464
-0.079694 0.004848 0.001506
-0.080074 0.003872 0.001260
-0.078342 0.003808 0.001284
-0.077773 0.003172 0.002613
-0.079271 0.005344 0.002170
-0.080796 0.003121 0.002530
-0.078032 0.005982 0.001289
-0.082247 0.002996 0.002472
-0.081611 0.004021 0.001225
-0.078778 0.001715 0.001277
-0.077808 0.001726 0.001270
-0.077883 0.005178 0.002620
-0.079597 0.002637 0.002577
-0.082292 0.004449 0.002202
-0.079012 0.003260 0.001280
-0.078382 0.001992 0.001278
-0.079869 0.002645 0.001261
-0.079897 0.001916 0.002563
-0.078368 0.006631 0.001294
-0.078324 0.005367 0.002618
-0.078365 0.004281 0.002614
-0.079970 0.002405 0.002561
-0.079796 0.003216 0.002571
-0.078440 0.002045 0.002606
-0.080858 0.004304 0.001244
-0.079658 0.004883 0.002090
-0.080306 0.001712 0.001248
-0.077905 0.003670 0.001278
-0.077669 0.006651 0.001285
-0.080216 0.003075 0.001254
-0.080895 0.002326 0.002524
-0.080291 0.003720 0.002552
-0.082044 0.003296 0.001213
-0.078353 0.002514 0.001280
-0.079372 0.003820 0.002589
-0.079669 0.004173 0.001270
-0.078786 0.006403 0.001293
-0.078901 0.002828 0.001280
-0.079081 0.003434 0.002597
-0.082133 0.001851 0.002473
-0.081309 0.002624 0.002508
-0.081594 0.002276 0.001220
-0.077888 0.004205 0.001280
-0.080821 0.003643 0.001242
-0.078184 0.004885 0.001287
-0.077808 0.006084 0.002623
-0.080793 0.004310 0.002534
-0.081852 0.004448 0.002213
-0.081700 0.003591 0.001222
-0.078721 0.004997 0.002611
-0.078766 0.005356 0.001290
-0.077548 0.004203 0.002615
-0.081626 0.001898 0.002493
-0.081219 0.002518 0.001229
-0.077848 0.001960 0.002609
-0.080624 0.002674 0.002536
-0.080747 0.002798 0.001241
-0.077742 0.005625 0.002621
-0.081729 0.004448 0.001701
-0.081215 0.004444 0.002335
-0.079971 0.002170 0.001257
-0.077806 0.006605 0.002625
-0.080285 0.004153 0.002554
-0.080310 0.003146 0.002550
-0.078847 0.004044 0.001285
-0.079406 0.002246 0.002583
-0.081062 0.003272 0.001235
-0.078952 0.006254 0.001739
-0.082189 0.002830 0.001208
-0.081407 0.003466 0.002507
-0.079178 0.002498 0.001276
-0.079341 0.005233 0.001752
-0.079220 0.001774 0.001273
-0.080408 0.003492 0.001251
-0.077611 0.006125 0.001281
-0.079834 0.003696 0.002571
-0.077726 0.004744 0.001279
-0.080300 0.002534 0.001250
-0.077946 0.005546 0.001286
-0.075966 0.003323 0.001194
-0.073986 0.002242 0.001019
-0.073402 0.002073 0.002392
-0.077327 0.003285 0.002610
-0.072868 0.006375 0.002365
-0.073518 0.004424 0.000982
-0.075888 0.004307 0.001193
-0.076741 0.003794 0.002601
-0.073553 0.002543 0.002405
-0.075413 0.002352 0.002541
-0.076797 0.003263 0.001243
-0.074951 0.005423 0.002528
-0.074718 0.002132 0.002496
-0.072848 0.005528 0.002360
-0.072901 0.001948 0.000911
-0.074352 0.003444 0.001059
-0.073615 0.006185 0.002424
-0.074934 0.003192 0.001114
-0.075611 0.002982 0.001171
-0.075586 0.003918 0.001173
-0.072621 0.003116 0.000886
-0.076170 0.002248 0.001203
-0.073252 0.002636 0.000949
-0.074512 0.006594 0.002497
-0.073103 0.002947 0.002371
-0.077148 0.004070 0.001260
-0.073449 0.004273 0.002404
-0.075693 0.002545 0.001174
-0.075157 0.006318 0.002544
-0.077136 0.002246 0.001253
-0.076876 0.005694 0.002611
-0.072622 0.004899 0.000893
-0.075471 0.005846 0.002556
-0.076194 0.003663 0.002581
-0.075247 0.004462 0.001149
-0.077374 0.005760 0.001274
-0.074960 0.004130 0.001120
-0.074471 0.002208 0.001066
-0.073650 0.005405 0.000998
-0.075653 0.006414 0.001186
-0.075086 0.002601 0.001126
-0.076677 0.005598 0.001246
-0.075891 0.002872 0.002564
-0.073521 0.002223 0.000973
-0.074179 0.005113 0.002466
-0.075885 0.005079 0.002572
-0.076376 0.001819 0.001214
-0.075415 0.002105 0.001155
-0.074950 0.005488 0.001125
-0.075462 0.005655 0.001171
-0.077240 0.005400 0.002617
-0.075654 0.003978 0.002558
-0.074511 0.002944 0.001073
-0.076634 0.004856 0.001241
-0.072610 0.004918 0.002339
-0.072779 0.002583 0.002344
-0.074197 0.003404 0.002460
-0.072933 0.004107 0.002362
-0.073125 0.003495 0.002375
-0.075500 0.001676 0.001159
-0.072507 0.003360 0.002323
-0.072505 0.001892 0.002317
-0.076161 0.003776 0.001208
-0.073943 0.003818 0.001021
-0.073113 0.003788 0.000940
-0.074719 0.001722 0.001088
-0.072676 0.005509 0.000901
-0.077192 0.002927 0.001257
-0.074163 0.005679 0.001049
-0.073213 0.003161 0.000947
-0.077239 0.006473 0.002620
-0.077197 0.004839 0.001264
-0.074105 0.006247 0.002464
-0.074004 0.002148 0.002440
-0.074846 0.003018 0.002509
-0.074565 0.004563 0.002493
-0.075854 0.001933 0.001182
-0.076665 0.006564 0.001249
-0.075388 0.005391 0.002551
-0.072556 0.002374 0.000876
-0.076705 0.004081 0.001242
-0.076960 0.004464 0.001255
-0.076509 0.005307 0.002600
-0.072935 0.001802 0.002353
-0.073076 0.004487 0.000939
-0.077179 0.003916 0.002610
-0.074553 0.003894 0.001080
-0.077451 0.003279 0.001267
-0.077298 0.001684 0.001257
-0.077161 0.006253 0.001268
-0.073574 0.003575 0.000984
-0.075765 0.003383 0.002560
-0.074786 0.006091 0.001112
-0.073878 0.002978 0.001011
-0.077121 0.004521 0.002611
-0.076707 0.002215 0.002594
-0.075230 0.004061 0.002539
-0.075106 0.001878 0.002525
-0.073959 0.004897 0.001026
-0.073336 0.004879 0.000966
-0.076255 0.005123 0.001219
-0.073218 0.005655 0.000957
-0.074645 0.005933 0.002505
-0.076547 0.002842 0.001229
-0.074531 0.005230 0.001084
-0.075142 0.004836 0.002538
-0.073888 0.001710 0.001007
-0.072820 0.006034 0.000918
-0.073641 0.005956 0.001000
-0.077162 0.002370 0.002605
-0.075284 0.002994 0.002537
-0.076441 0.002873 0.002589
-0.073032 0.005216 0.000937
-0.074326 0.002910 0.002469
-0.075277 0.004946 0.001154
-0.074882 0.002549 0.002510
-0.075872 0.005524 0.001196
-0.073396 0.005180 0.002403
-0.073333 0.005648 0.002400
-0.072522 0.006575 0.000889
-0.073827 0.005654 0.002439
-0.074300 0.004550 0.001058
-0.075962 0.006360 0.002580
-0.075363 0.006086 0.001167
-0.076260 0.005904 0.001222
-0.073559 0.003728 0.002411
-0.074259 0.006379 0.001062
-0.076342 0.004869 0.002592
-0.073060 0.004636 0.002374
-0.076462 0.006568 0.002603
-0.075768 0.005050 0.001188
-0.074632 0.005047 0.002500
-0.077035 0.003624 0.001254
-0.073743 0.001780 0.002418
-0.076876 0.005055 0.002608
-0.075980 0.001979 0.002565
-0.076315 0.004516 0.001220
-0.075613 0.004448 0.002557
-0.077294 0.005845 0.002619
-0.074176 0.002655 0.001039
-0.076414 0.004184 0.002593
-0.075924 0.005636 0.002576
-0.077466 0.004390 0.001271
-0.076706 0.002218 0.001235
-0.074342 0.003921 0.002474
-0.073596 0.006577 0.000998
-0.073875 0.004087 0.002437
-0.073903 0.002812 0.002435
-0.077318 0.001934 0.002605
-0.075534 0.003476 0.001168
-0.074361 0.005584 0.002482
-0.076426 0.005988 0.002600
-0.076216 0.002476 0.002577
-0.076873 0.003253 0.002602
-0.073781 0.004848 0.002433
-0.076920 0.001751 0.002598
-0.074769 0.003640 0.002505
-0.073661 0.003293 0.002417
-0.077106 0.002869 0.002605
-0.077082 0.005296 0.001262
-0.074383 0.002482 0.002472
-0.074745 0.004855 0.001103
-0.075209 0.003511 0.002536
-0.073082 0.006594 0.000947
-0.075014 0.003672 0.001123
-0.075171 0.006491 0.001149
-0.072576 0.004387 0.000886
-0.076104 0.002714 0.001200
-0.074745 0.004138 0.002505
-0.076668 0.004561 0.002601
-0.073035 0.005973 0.002377
-0.076820 0.006245 0.002612
-0.070024 0.003709 0.000599
-0.071321 0.006105 0.000761
-0.072034 0.005241 0.000833
-0.071306 0.005670 0.000758
-0.071640 0.004597 0.002237
-0.069016 0.004209 0.000470
-0.071201 0.002930 0.002184
-0.072292 0.003746 0.000854
-0.068967 0.003630 0.000461
-0.067873 0.006629 0.001793
-0.071790 0.002840 0.002246
-0.069468 0.003045 0.001986
-0.071812 0.004191 0.002253
-0.072456 0.001771 0.000863
-0.069212 0.002416 0.001950
-0.070039 0.006002 0.000610
-0.070503 0.005313 0.000668
-0.068542 0.006004 0.001878
-0.067941 0.004176 0.000319
-0.068803 0.004629 0.000444
-0.067975 0.003289 0.001793
-0.067587 0.006148 0.000272
-0.070512 0.003331 0.002114
-0.070601 0.002212 0.000668
-0.069094 0.003845 0.001940
-0.071616 0.005091 0.002236
-0.071450 0.005183 0.000771
-0.069798 0.002508 0.002027
-0.069991 0.005217 0.000601
-0.070377 0.004890 0.000650
-0.069931 0.003084 0.002046
-0.071577 0.003148 0.000777
-0.069032 0.004441 0.001935
-0.069066 0.005460 0.001944
-0.068345 0.003938 0.000381
-0.070322 0.001792 0.002088
-0.068315 0.006410 0.001850
-0.071089 0.001707 0.000720
-0.072304 0.003858 0.002304
-0.071230 0.006570 0.002202
-0.070788 0.004081 0.000698
-0.070313 0.004097 0.000638
-0.072292 0.004625 0.002305
-0.069640 0.004818 0.000554
-0.067589 0.004557 0.001744
-0.067700 0.002509 0.000274
-0.070455 0.003830 0.002110
-0.069185 0.002603 0.000486
-0.068590 0.002946 0.000410
-0.071538 0.002005 0.002216
-0.068872 0.002144 0.000443
-0.068483 0.003505 0.000398
-0.069266 0.003080 0.000498
-0.068267 0.002840 0.001829
-0.070961 0.006123 0.002172
-0.067866 0.005124 0.000311
-0.069654 0.001948 0.002006
-0.068404 0.002126 0.000382
-0.067796 0.005550 0.000302
-0.071949 0.003388 0.002265
-0.068785 0.005610 0.000446
-0.068815 0.002586 0.001899
-0.068053 0.003331 0.000333
-0.069961 0.006220 0.002063
-0.069412 0.005912 0.000529
-0.068095 0.006256 0.000352
-0.070764 0.001945 0.002135
-0.068441 0.004463 0.001858
-0.068361 0.004882 0.000387
-0.069326 0.004520 0.000512
-0.069811 0.003235 0.000570
-0.067955 0.005849 0.001801
-0.067503 0.003680 0.001727
-0.067794 0.005435 0.001778
-0.072325 0.005364 0.002312
-0.071890 0.006557 0.002271
-0.069142 0.005214 0.000491
-0.068010 0.002823 0.000324
-0.070933 0.005189 0.000717
-0.069523 0.005455 0.000541
-0.071157 0.004465 0.000738
-0.067554 0.006178 0.001746
-0.071037 0.006444 0.000733
-0.070334 0.006389 0.000650
-0.071265 0.002683 0.000742
-0.068416 0.003276 0.001850
-0.067899 0.002382 0.001779
-0.068829 0.006187 0.000454
-0.068080 0.005116 0.001814
-0.068050 0.004684 0.001808
-0.069750 0.001885 0.000556
-0.072333 0.005931 0.002315
-0.068872 0.003173 0.001909
-0.071815 0.002374 0.002246
-0.069256 0.004966 0.001966
-0.070802 0.002753 0.002142
-0.071493 0.005550 0.002225
-0.071063 0.005098 0.002178
-0.070790 0.004515 0.002147
-0.071901 0.006310 0.000823
-0.069791 0.006392 0.000580
-0.067594 0.001849 0.000255
-0.069308 0.006505 0.000518
-0.071704 0.003766 0.002240
-0.071209 0.003379 0.000739
-0.070804 0.005652 0.002154
-0.070214 0.005766 0.002092
-0.068379 0.003835 0.001848
-0.071903 0.004640 0.000817
-0.068028 0.001886 0.000323
-0.071225 0.002211 0.000736
-0.068498 0.005379 0.001870
-0.069314 0.001752 0.000499
-0.071135 0.004233 0.002183
-0.069779 0.006623 0.002041
-0.070604 0.003309 0.000673
-0.070244 0.004535 0.002090
-0.071599 0.003613 0.000781
-0.067825 0.004684 0.000303
-0.069622 0.005320 0.002015
-0.071675 0.001784 0.000782
-0.068280 0.005497 0.000377
-0.071930 0.005736 0.002272
-0.070450 0.002348 0.002103
-0.071924 0.002571 0.000811
-0.070489 0.005003 0.002118
-0.070761 0.004669 0.000697
-0.067805 0.003735 0.000296
-0.068339 0.004385 0.000382
-0.069451 0.003589 0.000524
-0.069769 0.004228 0.000568
-0.071890 0.001719 0.002252
-0.070644 0.006582 0.002140
-0.067549 0.003208 0.001732
-0.072190 0.002128 0.000837
-0.070025 0.004950 0.002066
-0.068303 0.002187 0.001831
-0.072086 0.005891 0.000841
-0.070431 0.006183 0.002116
-0.069751 0.003711 0.002025
-0.072019 0.003262 0.000823
-0.070525 0.002655 0.000660
-0.067958 0.003983 0.001794
-0.068871 0.001676 0.000441
-0.069052 0.006325 0.001945
-0.069668 0.002477 0.000548
-0.069457 0.005753 0.001995
-0.069780 0.004586 0.002033
-0.071476 0.006523 0.000779
-0.071485 0.005983 0.002226
-0.068740 0.003590 0.001893
-0.070873 0.002933 0.000702
-0.067889 0.001859 0.001776
-0.070189 0.002061 0.000614
-0.068897 0.002087 0.001908
-0.069978 0.004154 0.002057
-0.071284 0.003671 0.002196
-0.068685 0.004895 0.001892
-0.067490 0.004397 0.000250
-0.071006 0.003320 0.002166
-0.069471 0.004243 0.001991
-0.072184 0.002602 0.002286
-0.070070 0.002796 0.000601
-0.070510 0.005829 0.000671
-0.071345 0.004004 0.000756
-0.071931 0.004158 0.000818
-0.070335 0.002815 0.002093
-0.071299 0.002391 0.002193
-0.068475 0.005946 0.000407
-0.069388 0.003481 0.001977
-0.063421 0.002044 -0.000476
-0.066030 0.003619 0.000017
-0.064153 0.001719 -0.000333
-0.067100 0.005887 0.000195
-0.065100 0.002948 0.001343
-0.062828 0.004827 -0.000588
-0.065094 0.003853 -0.000152
-0.063239 0.006096 0.001018
-0.062731 0.002993 0.000905
-0.066983 0.005426 0.000175
-0.064188 0.005027 -0.000312
-0.065535 0.003386 -0.000074
-0.065260 0.002760 -0.000127
-0.062679 0.005819 0.000906
-0.066945 0.001763 0.001632
-0.064925 0.003396 0.001313
-0.062842 0.005309 0.000938
-0.066354 0.005690 0.000078
-0.065137 0.001961 -0.000152
-0.066315 0.004771 0.001547
-0.063534 0.004607 0.001065
-0.063688 0.005527 0.001097
-0.065977 0.003361 0.001488
-0.062536 0.003297 -0.000656
-0.062688 0.004167 -0.000620
-0.062878 0.002214 0.000932
-0.066361 0.006398 0.001561
-0.067004 0.004722 0.000175
-0.062761 0.002032 -0.000614
-0.063005 0.004417 0.000968
-0.066422 0.004343 0.001562
-0.065425 0.003780 0.001404
-0.064312 0.004243 0.001205
-0.066635 0.006016 0.001602
-0.066474 0.002056 0.000082
-0.063478 0.006526 0.001063
-0.063863 0.005067 0.001127
-0.065243 0.006404 -0.000114
-0.065312 0.006258 0.001396
-0.066020 0.001826 0.000008
-0.064840 0.003939 0.001300
-0.062790 0.005277 -0.000594
-0.067261 0.002352 0.000205
-0.063561 0.006362 -0.000428
-0.067438 0.003084 0.000236
-0.063515 0.005889 -0.000439
-0.066261 0.003801 0.001534
-0.064209 0.002216 -0.000320
-0.064834 0.004981 0.001304
-0.064319 0.004040 -0.000292
-0.066436 0.002092 0.001554
-0.062526 0.006471 0.000877
-0.065091 0.005140 -0.000147
-0.067032 0.006299 0.001665
-0.062778 0.005890 -0.000593
-0.066754 0.006584 0.000144
-0.063601 0.002477 0.001068
-0.065700 0.004630 0.001450
-0.066441 0.002668 0.001557
-0.066827 0.003684 0.000143
-0.064202 0.002669 0.001178
-0.064992 0.005994 -0.000161
-0.063228 0.003797 -0.000509
-0.064637 0.006648 -0.000223
-0.065420 0.004307 -0.000091
-0.062880 0.002864 -0.000586
-0.064264 0.003593 0.001194
-0.067412 0.002440 0.001707
-0.064656 0.004339 -0.000230
-0.064465 0.006218 -0.000256
-0.066040 0.002893 0.000016
-0.063344 0.002771 -0.000489
-0.064532 0.003245 -0.000257
-0.065968 0.004340 0.000009
-0.065247 0.001767 0.001365
-0.065367 0.002219 0.001388
-0.066043 0.004855 0.000025
-0.063786 0.003350 0.001106
-0.063277 0.005410 0.001022
-0.064510 0.005665 0.001247
-0.064157 0.002015 0.001167
-0.065405 0.004826 -0.000091
-0.063675 0.004014 -0.000415
-0.063127 0.006253 -0.000519
-0.064913 0.005862 0.001322
-0.063079 0.002385 -0.000546
-0.064255 0.005561 -0.000297
-0.067003 0.004278 0.000173
-0.063739 0.002896 0.001095
-0.065894 0.002879 0.001473
-0.063167 0.004308 -0.000519
-0.063171 0.002867 0.000992
-0.064636 0.002120 -0.000243
-0.064717 0.001972 0.001269
-0.066238 0.001686 0.001522
-0.066610 0.002986 0.000107
-0.063568 0.003469 -0.000439
-0.063219 0.005494 -0.000503
-0.066797 0.002985 0.001614
-0.064983 0.002526 0.001320
-0.065445 0.006007 -0.000079
-0.066001 0.005290 0.001500
-0.064932 0.004702 -0.000178
-0.062622 0.003726 -0.000636
-0.066024 0.005878 0.001506
-0.064997 0.005413 0.001335
-0.067082 0.004439 0.001665
-0.065381 0.005186 0.001403
-0.065562 0.002405 -0.000073
-0.064381 0.002839 -0.000286
-0.067456 0.005283 0.000248
-0.064421 0.003051 0.001220
-0.065494 0.003271 0.001413
-0.064797 0.002569 -0.000212
-0.063052 0.001677 0.000965
-0.067296 0.006466 0.000228
-0.064569 0.002387 0.001244
-0.065479 0.002658 0.001408
-0.062958 0.003911 0.000956
-0.063890 0.006285 0.001137
-0.063596 0.005159 -0.000426
-0.064877 0.004506 0.001309
-0.065671 0.003924 -0.000047
-0.067427 0.005098 0.001721
-0.064336 0.004866 0.001213
-0.067362 0.003538 0.000226
-0.062916 0.003391 0.000945
-0.063158 0.004881 0.000998
-0.066829 0.005014 0.001628
-0.065810 0.006385 0.001475
-0.067347 0.005799 0.001712
-0.064050 0.003623 -0.000343
-0.064101 0.005821 0.001174
-0.063882 0.004155 0.001127
-0.062576 0.002555 -0.000651
-0.062485 0.003543 0.000856
-0.066985 0.003219 0.000166
-0.064560 0.005257 -0.000243
-0.063339 0.004110 0.001028
-0.065063 0.003421 -0.000160
-0.067365 0.001859 0.001698
-0.066466 0.005074 0.000093
-0.065605 0.005407 -0.000052
-0.065862 0.002299 0.001466
-0.065476 0.005701 0.001420
-0.066457 0.004206 0.000088
-0.065373 0.004318 0.001398
-0.063915 0.002735 -0.000372
-0.062710 0.004900 0.000909
-0.063840 0.004502 -0.000378
-0.063348 0.003603 0.001027
-0.066005 0.002461 0.000008
-0.064051 0.006026 -0.000333
-0.065996 0.006226 0.000022
-0.064868 0.006426 0.001316
-0.067131 0.003451 0.001668
-0.064076 0.003179 -0.000340
-0.066757 0.005540 0.001619
-0.064327 0.004616 -0.000288
-0.066846 0.002558 0.000142
-0.065881 0.005762 -0.000000
-0.066528 0.006123 0.000107
-0.065675 0.001881 0.001435
-0.062990 0.006491 0.000974
-0.064400 0.006463 0.001231
-0.065838 0.003970 0.001469
-0.066882 0.003868 0.001631
-0.063584 0.001986 0.001063
-0.066405 0.003229 0.001554
-0.064921 0.005547 -0.000176
-0.067432 0.004112 0.001718
-0.065579 0.001951 -0.000072
-0.066990 0.002195 0.001641
-0.067399 0.003971 0.000234
-0.063131 0.003319 -0.000531
-0.063257 0.004751 -0.000498
-0.060700 0.004006 -0.001062
-0.058745 0.002998 -0.001551
-0.059456 0.002336 0.000182
-0.057640 0.004409 -0.001838
