ply
format ascii 1.0
element vertex 1733
property float x
property float y
property float z
end_header
0.017641 0.002780 -0.003222
0.020991 0.001309 -0.003173
0.020039 0.002474 0.002281
0.021771 0.000252 0.002311
0.018522 0.001024 -0.003218
0.017850 0.000157 -0.001215
0.018858 0.000157 -0.002810
0.019553 0.002604 0.002273
0.017921 0.000152 -0.003234
0.019719 0.000146 -0.000834
0.018070 0.000151 0.000366
0.021091 0.000128 0.001974
0.020702 0.002654 0.002293
0.022005 0.000027 -0.003164
0.018723 0.002480 -0.003205
0.021851 0.003236 0.002312
0.021464 0.002271 0.002305
0.020099 0.002044 0.002281
0.020115 0.003656 -0.003174
0.022513 0.003870 0.002307
0.022215 0.000136 -0.002032
0.021724 0.000130 0.000740
0.019691 0.001692 0.002275
0.020657 0.000142 -0.001357
0.018388 0.002524 0.002253
0.022286 0.003528 -0.003137
0.019916 0.003142 -0.003180
0.019849 0.000490 0.002278
0.022070 0.000131 -0.000204
0.020488 0.000142 -0.000932
0.021640 0.000133 -0.000168
0.017898 0.001827 -0.003222
0.018238 0.000564 -0.003226
0.022257 0.000906 -0.003154
0.021287 0.000142 -0.002241
0.019093 0.000151 -0.001402
0.020658 0.001508 0.002291
0.021499 0.001266 -0.003165
0.021937 0.001809 0.002313
0.021011 0.001832 0.002297
0.019164 0.000347 -0.003211
0.018357 0.000471 0.002253
0.020430 0.000138 0.000309
0.021666 0.000137 -0.001554
0.019247 0.000139 0.002183
0.020505 0.001196 -0.003182
0.020657 0.000020 0.002291
0.021514 -0.000153 0.002305
0.019438 0.003404 0.002271
0.019513 0.003962 0.002234
0.022375 0.003418 0.002321
0.022389 0.002002 0.002321
0.018860 0.001942 -0.003205
0.017867 0.000153 -0.000050
0.021139 0.002647 0.002300
0.017952 0.004106 0.002176
0.018728 0.000227 0.002259
0.019854 0.000143 -0.000371
0.022035 0.000126 0.001315
0.021663 0.001094 0.002309
0.019054 0.001296 -0.003206
0.021162 0.003887 -0.003135
0.020801 0.000702 0.002294
0.019009 0.000928 0.002263
0.021797 0.004228 0.002231
0.020927 0.000142 -0.001708
0.019257 0.002517 -0.003196
0.020044 0.000621 -0.003194
0.022175 0.000133 -0.000889
0.022180 0.001401 -0.003152
0.018131 0.002875 0.002249
0.018759 0.001610 0.002259
0.021229 0.000144 -0.002811
0.017921 0.001626 0.002244
0.018244 0.003747 0.002241
0.018226 0.001981 0.002249
0.020340 0.003731 0.002282
0.018672 0.001512 -0.003211
0.022204 0.003968 -0.003108
0.018456 0.003809 -0.003186
0.020852 0.000146 -0.002458
0.021240 0.002719 -0.003160
0.018244 0.004556 0.002065
0.022526 0.000121 0.001966
0.021663 0.000527 -0.003167
0.022323 0.004344 0.002216
0.020194 0.001812 -0.003183
0.017958 0.002452 0.002246
0.021045 0.004557 0.002131
0.017787 0.003262 -0.003216
0.021837 0.004413 -0.003018
0.020551 0.001060 0.002290
0.021828 0.002110 -0.003153
0.020776 0.004338 -0.003051
0.019297 0.000144 0.000224
0.020593 0.001635 -0.003178
0.020545 -0.000371 -0.003189
0.017723 0.000594 -0.003234
0.021393 0.000130 0.001044
0.021486 0.001676 0.002305
0.019821 0.003066 0.002278
0.017685 0.002843 0.002241
0.022064 0.002288 0.002315
0.019538 0.002898 -0.003188
0.019678 0.000137 0.002103
0.019206 0.002921 0.002267
0.019167 0.002334 0.002266
0.018016 0.000964 -0.003227
0.026043 0.000115 -0.001764
0.023437 0.000796 -0.003135
0.025410 0.003882 -0.003070
0.024536 0.000121 -0.001135
0.023380 0.000195 -0.003140
0.024526 0.001508 0.002357
0.026368 0.002454 -0.003073
0.022912 0.000136 -0.002927
0.024347 0.000120 -0.000649
0.023807 0.002394 -0.003117
0.024287 0.000114 0.001382
0.023314 0.003772 0.002333
0.024529 0.000012 0.002357
0.026396 0.001843 0.002389
0.025101 0.000113 0.000269
0.026816 0.002501 -0.003065
0.027185 0.000104 -0.000323
0.026425 0.000099 0.002320
0.027215 0.002151 -0.003061
0.027060 0.003435 -0.003055
0.026832 0.000111 -0.002017
0.022897 0.002523 -0.003132
0.023542 0.000404 0.002341
0.022880 -0.000079 0.002329
0.024034 0.004183 0.002286
0.022729 0.003076 0.002327
0.025840 0.002309 0.002379
0.027368 0.000108 -0.001839
0.023152 0.001823 -0.003132
0.025137 -0.000423 0.002365
0.023914 0.000235 -0.003131
0.027115 0.000674 -0.003073
0.023743 0.000120 0.000233
0.026074 0.000113 -0.001162
0.027421 0.000275 0.002408
0.026233 0.000106 0.000690
0.023425 0.000118 0.001408
0.023610 0.000130 -0.002492
0.023742 0.001401 -0.003125
0.026277 0.000103 0.001562
0.025194 0.000122 -0.002513
0.026978 -0.000252 -0.003079
0.023414 0.003774 -0.003114
0.027170 0.000097 0.001686
0.023619 0.001949 0.002342
0.023725 -0.000426 -0.003135
0.024875 0.003086 -0.003095
0.025311 0.000110 0.000992
0.025472 0.003273 -0.003084
0.024568 0.000117 -0.000149
0.023809 0.002377 0.002345
0.024408 0.003234 -0.003102
0.024844 0.000125 -0.002822
0.025721 0.000111 -0.000054
0.027096 0.000111 -0.002364
0.026143 0.001370 0.002385
0.022561 0.000122 0.001492
0.022613 0.000132 -0.001419
0.025942 0.001816 -0.003085
0.026945 0.000101 0.000794
0.027212 0.000105 -0.000862
0.024458 0.000116 0.000632
0.022706 0.000864 -0.003147
0.023263 0.001632 0.002336
0.026122 0.000318 -0.003092
0.023037 0.000131 -0.001696
0.023688 0.003308 0.002343
0.022613 -0.000127 -0.003154
0.026864 0.000104 0.000158
0.023611 0.001090 0.002342
0.023585 0.000118 0.000987
0.024626 0.000569 -0.003116
0.023911 0.000700 -0.003127
0.025241 0.001705 -0.003097
0.023552 0.002870 -0.003119
0.023549 0.000123 -0.000206
0.024172 0.000119 0.000170
0.025217 0.000117 -0.001099
0.026739 0.000101 0.001193
0.024922 0.001200 -0.003107
0.024050 0.003003 0.002350
0.027029 0.003474 0.002400
0.025273 0.000119 -0.001582
0.023496 0.004170 0.002277
0.025532 0.000109 0.000537
0.026609 0.001179 -0.003078
0.025739 0.000113 -0.000719
0.026555 0.000116 -0.003032
0.024577 0.004345 -0.003002
0.022617 0.000130 -0.000860
0.024178 0.002841 -0.003109
0.023960 0.000123 -0.000852
0.024782 0.004201 0.002298
0.023815 0.003760 0.002344
0.024821 0.000121 -0.001487
0.025275 -0.000409 -0.003108
0.023968 0.000117 0.000744
0.025418 0.002629 0.002372
0.025886 0.003151 -0.003077
0.027006 0.000837 0.002400
0.026324 0.000895 0.002388
0.024861 0.000109 0.001701
0.022745 0.000128 -0.000271
0.025602 0.000103 0.002154
0.023132 0.000133 -0.002353
0.027232 0.002998 -0.003055
0.022856 0.003378 -0.003128
0.023341 0.002325 -0.003126
0.026238 -0.000295 0.002385
0.025766 0.001750 0.002378
0.024595 0.003914 -0.003078
0.024341 0.002253 0.002354
0.026989 0.004118 0.002358
0.025588 0.002351 -0.003087
0.025045 0.000770 -0.003108
0.027457 -0.000112 -0.003071
0.024954 0.000114 0.002365
0.024930 0.000112 0.000697
0.026546 0.000107 -0.000189
0.025610 -0.000025 -0.003102
0.022769 0.000133 -0.002052
0.023164 0.000123 0.000200
0.023232 0.002870 0.002336
0.024005 0.000121 -0.000319
0.026535 0.003303 -0.003065
0.024069 0.001671 0.002349
0.025918 0.004386 -0.002975
0.024746 -0.000402 -0.003117
0.023508 0.000130 -0.002060
0.025753 0.000118 -0.002359
0.025232 0.000240 -0.003108
0.024398 0.001923 -0.003111
0.024863 0.002621 -0.003098
0.026319 -0.000429 -0.003090
0.026308 0.000103 0.001119
0.023385 0.000127 -0.001161
0.025342 0.000107 0.001729
0.024303 0.003760 0.002353
0.026372 0.001611 -0.003079
0.025008 0.003682 -0.003089
0.025479 0.002808 -0.003086
0.025921 0.001185 -0.003090
0.023550 -0.000042 0.002340
0.023216 0.000118 0.001890
0.024855 0.000743 0.002363
0.025702 0.000116 -0.001405
0.025976 0.000257 0.002383
0.026246 0.003679 -0.003068
0.022991 0.000122 0.001061
0.022864 0.004251 0.002248
0.026674 0.000714 -0.003080
0.025875 0.000738 -0.003094
0.025646 0.004211 0.002314
0.025848 0.000106 0.000999
0.025768 0.000951 0.002379
0.024269 0.000891 0.002353
0.027238 0.001302 -0.003066
0.027125 0.002392 0.002401
0.026343 0.002295 0.002388
0.026597 0.003380 0.002393
0.023935 0.003973 -0.003082
0.024081 0.000355 0.002350
0.024337 -0.000039 -0.003124
0.025107 0.002013 0.002367
0.026869 0.001582 -0.003071
0.026392 0.000114 -0.002031
0.024775 0.002813 0.002362
0.026291 0.002912 -0.003072
0.023985 0.000128 -0.002201
0.024146 0.000128 -0.002707
0.027413 0.000101 0.000099
0.026357 0.000106 0.000267
0.026538 0.003859 0.002384
0.025974 0.003434 0.002382
0.026165 0.000109 -0.000486
0.022754 0.002293 0.002327
0.023450 0.000121 0.000568
0.023477 0.004280 -0.003030
0.025183 0.003903 0.002353
0.024741 0.002190 -0.003103
0.025349 0.001116 -0.003100
0.026255 0.002999 0.002387
0.026145 0.004147 0.002336
0.023400 0.000125 -0.000676
0.025047 0.003185 0.002366
0.024426 0.000125 -0.002205
0.022559 0.002946 -0.003136
0.022552 0.001590 0.002324
0.025436 0.001298 0.002373
0.027036 0.000096 0.002169
0.025620 0.003679 0.002376
0.026733 0.000452 0.002396
0.023535 0.000127 -0.001586
0.024462 0.001225 -0.003114
0.026457 0.004308 -0.002984
0.023127 0.000926 0.002334
0.025987 0.004546 0.002245
0.022726 0.000125 0.000236
0.025305 0.000120 -0.002023
0.026301 0.000116 -0.002487
0.027365 0.004362 0.002320
0.023876 0.000115 0.001523
0.025209 0.004279 -0.003007
0.027110 0.001546 0.002402
0.027506 0.003639 0.002408
0.024039 0.000124 -0.001402
0.026717 0.002742 0.002394
0.022983 0.000124 0.000617
0.026771 0.003909 -0.003046
0.024066 0.003523 -0.003106
0.022541 0.002220 -0.003140
0.025102 0.000115 -0.000423
0.026732 0.000108 -0.000890
0.023153 0.002092 0.002334
0.025498 0.003060 0.002374
0.027466 0.003878 -0.003038
0.025046 0.001517 0.002366
0.027292 0.003111 0.002405
0.027140 0.000195 -0.003076
0.024132 0.000112 0.001935
0.023615 0.001874 -0.003124
0.024852 0.000111 0.001222
0.027030 0.000108 -0.001380
0.024534 0.003191 0.002358
0.023573 0.003332 -0.003116
0.025726 -0.000422 0.002375
0.025770 0.000105 0.001598
0.022637 0.001588 -0.003143
0.024759 0.003582 0.002362
0.022813 0.004348 -0.003023
0.022830 0.003830 -0.003116
0.024868 0.000117 -0.000798
0.025392 0.000666 0.002373
0.023233 0.001313 -0.003135
0.026614 0.001974 -0.003072
0.025002 0.002442 0.002365
0.024386 0.000123 -0.001660
0.027519 0.002493 -0.003053
0.026767 0.001218 0.002396
0.026574 0.000111 -0.001482
0.026690 0.000099 0.001894
0.023673 0.000115 0.001927
0.024786 0.001707 -0.003105
0.025879 0.003958 -0.003053
0.023134 0.003334 0.002334
0.027015 0.001971 0.002400
0.024164 0.001537 -0.003117
0.023012 0.000350 0.002332
0.026004 0.000103 0.001964
0.027588 0.001325 0.002410
0.029893 0.002130 0.002449
0.028826 0.000099 -0.001480
0.032372 0.004339 -0.002897
0.027547 0.002070 0.002409
0.031792 0.000072 0.001756
0.032072 0.001373 -0.002983
0.032294 0.000085 -0.002778
0.028857 0.000088 0.001863
0.028684 0.002629 -0.003032
0.028507 0.000091 0.001441
0.031157 0.000088 -0.002012
0.031080 0.002426 0.002469
0.029231 0.001059 0.002438
0.032154 0.000083 -0.002030
0.028098 0.000092 0.001922
0.029380 0.001895 -0.003025
0.028848 0.002652 0.002431
0.030674 0.004121 -0.002960
0.028281 -0.000392 -0.003057
0.029732 0.001367 -0.003023
0.030598 0.000090 -0.001550
0.029917 0.000093 -0.001355
0.028501 0.000095 0.000185
0.032364 -0.000408 -0.002987
0.030621 0.001760 -0.003005
0.028963 0.000095 -0.000597
0.031184 0.000079 0.000429
0.030772 0.000075 0.002417
0.029235 0.004007 0.002417
0.029060 0.000088 0.001453
0.028077 0.000094 0.001009
0.030681 0.000093 -0.002548
0.029396 -0.000059 -0.003038
0.027817 0.000844 0.002414
0.032105 0.003180 0.002486
0.028162 0.000105 -0.002132
0.031126 0.000083 -0.000410
0.031561 0.003290 -0.002979
0.030543 0.000088 -0.000951
0.031505 0.002255 -0.002986
0.030718 0.003413 -0.002992
0.031579 0.003982 0.002464
0.028607 0.000101 -0.001996
0.029384 0.000096 -0.001326
0.029454 0.003074 0.002441
0.029541 0.001383 0.002443
0.031714 0.000525 0.002481
0.030497 -0.000323 -0.003019
0.031797 0.000087 -0.002386
0.032448 0.000076 -0.000448
0.029599 0.002381 -0.003018
0.032361 0.000073 0.000445
0.029007 0.000577 -0.003041
0.028334 0.001347 0.002422
0.031348 0.000075 0.001862
0.030100 0.000093 -0.001755
0.031403 0.000083 -0.000946
0.029698 0.003165 -0.003011
0.030437 0.000078 0.001929
0.027953 0.000104 -0.001643
0.028923 0.000093 0.000014
0.031498 0.003372 0.002476
0.032165 0.000369 0.002488
0.028109 0.000096 0.000536
0.032152 0.000082 -0.001585
0.031920 -0.000085 -0.002995
0.030394 0.002569 -0.003003
0.031899 0.000079 -0.000295
0.028760 0.002200 0.002429
0.030167 0.003491 -0.003001
0.031060 0.004244 0.002418
0.032261 0.002173 -0.002974
0.031543 -0.000346 -0.003001
0.029046 0.003501 0.002435
0.030900 0.002866 0.002466
0.030454 0.003594 0.002458
0.028036 0.004181 0.002368
0.030568 -0.000378 0.002458
0.027582 0.000098 0.000676
0.028641 0.004406 -0.002934
0.029613 0.004339 0.002370
0.028679 0.001431 -0.003041
0.030639 0.004078 0.002436
0.029113 0.001559 0.002436
0.027993 0.001957 0.002416
0.031855 0.000077 0.000344
0.030807 0.000083 0.000154
0.030195 0.000083 0.001168
0.031465 0.000080 -0.000105
0.031772 0.000008 0.002481
0.027646 0.004340 -0.002961
0.030448 0.000418 0.002459
0.028422 0.003541 -0.003031
0.030169 0.000950 -0.003019
0.029905 0.000082 0.001722
0.029266 0.000090 0.000438
0.027909 0.003644 -0.003039
0.029999 0.000080 0.002242
0.030818 0.000078 0.001545
0.028583 0.003452 0.002427
0.029501 0.000097 -0.001993
0.027614 0.000097 0.001184
0.028897 0.002147 -0.003032
0.028147 0.000518 -0.003056
0.030446 0.004538 -0.002882
0.027689 0.000447 -0.003065
0.029758 0.000088 0.000276
0.029505 0.003802 -0.003011
0.028051 -0.000167 0.002416
0.029676 0.000318 -0.003031
0.030474 0.001793 0.002459
0.030246 0.004008 -0.002980
0.030944 0.001685 0.002467
0.031929 0.004368 -0.002897
0.028800 0.000525 0.002431
0.028909 -0.000271 0.002430
0.030971 0.000086 -0.000867
0.030756 0.000975 -0.003008
0.028169 0.000100 -0.000819
0.027561 0.000863 -0.003064
0.030157 0.000510 -0.003022
0.029858 0.000097 -0.002348
0.031854 -0.000416 0.002480
0.031278 0.002833 -0.002986
0.028619 0.001725 0.002427
0.028925 0.000022 -0.003046
0.029814 0.000092 -0.000831
0.032518 0.000077 -0.001101
0.029915 0.000991 0.002450
0.031347 0.000148 0.002475
0.031663 0.000084 -0.001401
0.027600 0.000110 -0.002665
0.032445 0.000071 0.001009
0.027877 0.000099 -0.000138
0.030387 0.000084 0.000360
0.028068 0.002079 -0.003046
0.030456 0.002334 0.002458
0.032041 0.001612 0.002486
0.030371 0.003087 -0.003000
0.031473 0.003984 -0.002964
0.029036 0.000100 -0.001964
0.028663 0.000091 0.001025
0.029418 0.000100 -0.002539
0.027715 0.002712 0.002411
0.032018 0.003584 -0.002969
0.031397 0.001693 -0.002992
0.029475 0.000085 0.001674
0.030292 0.000094 -0.002333
0.030132 0.004335 0.002382
0.031846 0.002653 -0.002978
0.028394 0.000097 -0.000275
0.027715 0.000107 -0.002231
0.031987 0.002611 0.002484
0.029558 0.000082 0.002212
0.028765 0.001152 0.002430
0.031204 0.000091 -0.002836
0.030921 0.003306 0.002466
0.030886 0.001133 0.002466
0.030706 0.000081 0.000954
0.032509 0.001770 0.002494
0.030668 0.000085 -0.000301
0.028245 0.002552 0.002420
0.029980 -0.000214 -0.003028
0.031608 0.000490 -0.002997
0.028629 0.000104 -0.002434
0.029089 0.004072 -0.002990
0.027705 0.003176 -0.003046
0.030264 0.003030 0.002455
0.028716 0.000098 -0.000993
0.029383 0.000094 -0.000725
0.029064 0.001007 -0.003037
0.029097 0.003051 -0.003023
0.030607 0.000261 -0.003016
0.032243 0.000485 -0.002986
0.031850 0.001183 0.002483
0.028046 0.003224 0.002417
0.029318 0.001946 0.002439
0.027695 0.000093 0.002109
0.029245 0.000576 0.002439
0.027994 0.000333 0.002417
0.031720 0.000084 -0.001902
0.031969 0.000072 0.001355
0.028469 0.003010 -0.003034
0.031696 0.000076 0.000855
0.032302 0.001020 0.002490
0.032138 0.000079 -0.000764
0.029177 0.000089 0.000869
0.031337 0.001396 0.002474
0.029830 0.001885 -0.003018
0.028068 0.001436 -0.003051
0.030032 0.000085 0.000717
0.028787 -0.000426 -0.003048
0.030677 0.000091 -0.002038
0.029151 0.000131 0.002437
0.030339 0.001347 -0.003013
0.031241 0.000078 0.000964
0.028066 0.000107 -0.002638
0.031297 -0.000301 0.002471
0.030373 0.001314 0.002457
0.029648 0.000090 -0.000160
0.031048 0.003724 -0.002985
0.031325 0.000076 0.001413
0.032198 0.004128 0.002459
0.029989 0.003905 0.002443
0.032225 0.002215 0.002488
0.028796 0.000092 0.000589
0.030250 0.002088 -0.003009
0.031076 0.004349 -0.002912
0.029168 0.001445 -0.003032
0.030236 0.000096 -0.002781
0.028127 0.004057 -0.003007
0.029815 0.002836 0.002447
0.028264 0.000685 0.002422
0.029495 0.000710 -0.003032
0.029424 0.002472 0.002441
0.028512 0.004206 0.002373
0.029552 0.004287 -0.002945
0.031468 0.000890 0.002476
0.030838 0.002955 -0.002993
0.029825 0.000441 0.002448
0.031670 0.002949 0.002479
0.029988 0.001583 0.002451
0.028583 0.000318 -0.003050
0.028501 0.002984 0.002425
0.028575 0.000088 0.002316
0.027817 0.000103 -0.001124
0.027703 0.001830 -0.003055
0.028006 0.002815 -0.003042
0.030950 0.002364 -0.002995
0.029794 0.003368 0.002447
0.029580 0.000087 0.001156
0.028296 0.000101 -0.001354
0.028050 0.000966 -0.003055
0.031159 0.000087 -0.001416
0.030178 0.000087 -0.000048
0.030987 0.000703 0.002468
0.032359 0.000069 0.001712
0.031082 0.000535 -0.003006
0.031926 0.000925 -0.002989
0.031124 0.001338 -0.002999
0.031576 0.002217 0.002477
0.031581 0.001766 0.002478
0.032024 0.003686 0.002485
0.027930 -0.000137 -0.003063
0.027968 0.000094 0.001459
0.027631 0.000103 -0.000730
0.031150 0.003707 0.002470
0.029170 0.003521 -0.003018
0.031481 0.000994 -0.002996
0.028588 0.000919 -0.003046
0.028488 -0.000397 0.002422
0.032039 0.000069 0.002114
0.028760 0.003847 0.002427
0.029189 0.002572 -0.003024
0.030195 0.000088 -0.000500
0.028012 0.003712 0.002417
0.032087 0.003111 -0.002970
0.032248 0.000076 -0.000011
0.030462 0.000868 0.002459
0.032386 0.002594 -0.002969
0.036936 0.000970 -0.002903
0.034646 -0.000216 -0.002948
0.033897 -0.000399 0.002515
0.035266 0.000067 -0.002163
0.033692 0.004343 0.002453
0.034844 -0.000436 0.002531
0.033759 0.000846 -0.002958
0.034465 0.003305 -0.002928
0.033469 0.003910 -0.002942
0.034388 0.000065 -0.000246
0.032694 0.003892 0.002495
0.037145 0.000053 -0.001210
0.035566 0.003552 0.002545
0.033421 0.000424 -0.002967
0.034514 0.000056 0.002294
0.032624 -0.000156 0.002495
0.036495 0.000048 0.001452
0.036007 0.004259 -0.002860
0.036384 0.001506 0.002560
0.035466 0.000312 -0.002932
0.033218 0.000075 -0.001109
0.036054 0.001913 0.002554
0.032881 -0.000081 -0.002978
0.036925 0.004052 0.002557
0.032789 0.000081 -0.002495
0.036978 0.002581 -0.002890
0.036074 0.000057 -0.000660
0.033542 0.000074 -0.001455
0.033457 0.000065 0.001250
0.033545 0.000069 0.000029
0.034874 0.000056 0.001646
0.034099 0.003076 -0.002936
0.034033 0.000073 -0.001941
0.034622 0.000071 -0.002362
0.032899 0.000412 -0.002976
0.035313 -0.000370 -0.002936
0.035189 0.003122 0.002539
0.033840 0.000201 -0.002961
0.034370 0.002936 0.002525
0.034448 0.000059 0.001563
0.035819 0.000065 -0.002438
0.034186 0.000061 0.000959
0.032661 0.000877 -0.002976
0.035416 0.002428 0.002543
0.035933 0.003755 -0.002900
0.036870 0.004464 -0.002810
0.033974 0.000065 0.000134
0.036748 0.000061 -0.002674
0.036119 0.000064 -0.002850
0.035939 0.000053 0.000862
0.032969 0.001812 0.002502
0.033097 0.000069 0.000682
0.036837 0.000047 0.001143
0.033194 0.000078 -0.002263
0.036314 0.002284 0.002558
0.036284 0.000048 0.001989
0.036864 0.000053 -0.000855
0.033258 0.000076 -0.001811
0.036475 0.000334 0.002562
0.036271 0.000062 -0.002403
0.037498 0.000049 -0.000438
0.034897 0.000066 -0.001260
0.032770 0.000073 -0.000152
0.036989 0.003559 0.002569
0.033695 0.000075 -0.002246
0.033118 0.000070 0.000153
0.033218 0.000252 0.002507
0.033080 0.004525 0.002405
0.036069 0.000060 -0.001473
0.033681 0.002710 0.002513
0.033894 0.001731 0.002517
0.037456 0.003708 0.002577
0.033625 0.003488 -0.002942
0.032560 0.001337 -0.002975
0.033015 0.002596 0.002502
0.035051 0.000432 -0.002939
0.033937 0.002194 0.002518
0.034058 0.001282 -0.002950
0.034198 -0.000238 -0.002956
0.033106 0.003441 -0.002951
0.035839 0.002526 0.002550
0.034268 0.000073 -0.002633
0.033771 0.000069 -0.000439
0.035446 0.000960 -0.002928
0.034980 0.003080 -0.002921
0.033570 0.000066 0.000712
0.036328 0.000831 0.002559
0.036393 0.001386 -0.002909
0.035851 0.001372 0.002551
0.033550 0.001251 0.002512
0.036365 0.002830 0.002559
0.036070 0.000062 -0.001949
0.036699 0.003795 -0.002887
0.037090 0.000043 0.002027
0.035158 0.002046 0.002539
0.037417 0.002740 -0.002882
0.036066 0.002922 -0.002903
0.033290 -0.000342 -0.002971
0.035908 0.000057 -0.000216
0.034544 0.002040 -0.002936
0.032768 0.001761 -0.002968
0.036501 0.000439 -0.002914
0.032665 0.000438 0.002497
0.037319 0.000774 0.002576
0.034973 0.003504 0.002535
0.036541 0.004385 0.002504
0.032747 0.000973 0.002498
0.033086 0.001289 0.002504
0.034461 0.000062 0.000608
0.033057 0.004441 -0.002867
0.034178 0.003455 0.002522
0.035277 0.002644 -0.002919
0.037147 -0.000010 -0.002905
0.035655 0.001524 -0.002921
0.032762 0.002208 0.002498
0.035105 0.000059 0.000490
0.032635 0.003287 0.002495
0.035182 0.000069 -0.002684
0.032606 0.000080 -0.001926
0.036190 0.003492 0.002556
0.033639 0.001444 -0.002956
0.036962 0.000048 0.000664
0.035947 0.000050 0.001694
0.033230 0.002150 -0.002958
0.035434 0.004186 0.002513
0.033958 0.004165 -0.002903
0.032769 0.000067 0.001854
0.033040 0.003068 0.002502
0.036987 0.001990 0.002570
0.037283 0.003233 0.002574
0.035308 0.001298 0.002542
0.034886 0.000057 0.001104
0.034663 0.000705 -0.002943
0.036403 0.000054 -0.000118
0.034808 0.000062 -0.000059
0.032553 0.003065 -0.002963
0.033818 0.000071 -0.001010
0.036805 0.001370 0.002567
0.036357 0.000058 -0.001019
0.034971 0.002607 0.002535
0.034300 0.000069 -0.001351
0.035482 0.000061 -0.000794
0.036396 0.003466 -0.002894
0.037384 0.000376 -0.002899
0.035851 0.003162 0.002550
0.035305 -0.000051 0.002542
0.032757 0.003911 -0.002953
0.033116 0.000832 -0.002969
0.033168 0.000066 0.001665
0.037078 0.000050 -0.000253
0.034133 0.003687 -0.002932
0.034594 0.004006 -0.002913
0.035304 0.000052 0.001991
0.036103 0.004073 0.002539
0.036838 0.002713 0.002567
0.037128 0.000049 0.000194
0.035555 0.000064 -0.001791
0.037055 0.003060 -0.002885
0.036933 0.000471 -0.002906
0.036048 0.002083 -0.002910
0.034733 0.000065 -0.000671
0.035331 0.000064 -0.001200
0.034161 0.000059 0.001953
0.035771 0.002575 -0.002911
0.037107 0.004469 0.002499
0.034032 0.000058 0.002432
0.035225 0.004443 -0.002837
0.035608 0.001916 0.002546
0.033542 0.003136 0.002510
0.034374 0.001641 -0.002942
0.036610 0.002852 -0.002895
0.034872 0.000986 0.002534
0.033031 0.001273 -0.002967
0.032789 0.002352 -0.002964
0.034484 0.001176 -0.002943
0.035603 0.000906 0.002547
0.036910 0.000043 0.002457
0.035768 0.000056 0.000370
0.034500 0.000597 0.002528
0.036464 0.004161 -0.002865
0.034377 0.001464 0.002526
0.036554 0.000059 -0.001783
0.035510 0.000471 0.002546
0.034451 0.002734 -0.002933
0.036070 0.000481 0.002555
0.033993 0.000061 0.001451
0.034928 0.001473 -0.002933
0.035436 0.002138 -0.002920
0.033340 0.000071 -0.000402
0.035418 0.000054 0.001558
0.033648 0.003635 0.002513
0.037160 0.000056 -0.002183
0.033503 0.000719 0.002511
0.034943 0.000067 -0.001697
0.034978 0.001021 -0.002936
0.034835 0.002426 -0.002928
0.032966 0.000074 -0.000625
0.034832 0.001668 0.002533
0.036995 0.000055 -0.001681
0.034853 0.003993 0.002524
0.033147 0.003973 0.002495
0.033389 0.002349 0.002508
0.032558 0.002791 0.002494
0.033986 0.001079 0.002519
0.036334 0.002446 -0.002902
0.036586 0.003308 0.002562
0.035565 0.004171 -0.002878
0.034168 0.000505 -0.002953
0.035792 -0.000286 0.002548
0.036739 0.001746 -0.002900
0.036480 0.000050 0.000827
0.037180 0.001907 -0.002892
0.033181 0.003529 0.002505
0.034896 0.000289 0.002535
0.033907 0.000474 0.002518
0.033098 0.002749 -0.002956
0.035881 0.000060 -0.001055
0.035311 0.003601 -0.002912
0.036003 0.000984 -0.002918
0.037520 0.004231 0.002547
0.034317 0.003988 0.002515
0.032801 0.000078 -0.001459
0.033791 0.001971 -0.002949
0.033689 0.002498 -0.002947
0.036538 0.000051 0.000382
0.033377 0.003094 -0.002948
0.035680 0.003317 -0.002907
0.035472 0.000055 0.001060
0.037154 0.002412 0.002573
0.037395 0.000045 0.000806
0.035025 0.004024 -0.002904
0.032813 0.000068 0.001421
0.035324 0.000059 -0.000042
0.036047 0.000552 -0.002921
0.035036 0.001976 -0.002928
0.037157 0.003735 -0.002879
0.034155 0.002411 -0.002940
0.035748 0.000049 0.002225
0.032554 0.003516 -0.002960
0.036564 -0.000242 0.002562
0.033378 0.000062 0.002080
0.034470 0.000070 -0.001949
0.034685 0.002119 0.002531
0.037397 0.000265 0.002578
0.036496 0.000964 -0.002910
0.033684 0.000062 0.001777
0.036985 0.000470 0.002571
0.036536 0.003808 0.002562
0.036655 0.000056 -0.001342
0.036095 0.000051 0.001267
0.033462 0.001771 0.002510
0.034348 0.002479 0.002525
0.034814 0.003594 -0.002921
0.037165 0.000045 0.001499
0.036181 0.000046 0.002410
0.036315 -0.000420 -0.002919
0.033106 -0.000197 0.002503
0.037109 0.001396 -0.002897
0.038355 0.000046 -0.001064
0.040959 0.002892 -0.002820
0.037695 0.003524 -0.002871
0.037651 -0.000245 0.002580
0.041634 0.000020 0.001626
0.039852 0.003260 -0.002836
0.040483 0.003331 -0.002825
0.042410 0.001765 -0.002803
0.041499 0.000019 0.002087
0.040281 0.001501 -0.002841
0.038023 0.004477 -0.002792
0.039322 0.003124 0.002609
0.039263 0.000030 0.002602
0.038031 0.001517 -0.002880
0.038174 0.000049 -0.001536
0.038114 0.003777 0.002589
0.040108 0.000038 -0.001317
0.042374 0.000385 0.002663
0.040512 0.004324 0.002593
0.040571 0.004040 -0.002816
0.041240 0.001159 -0.002827
0.038907 0.000036 0.001098
0.042383 0.003155 -0.002794
0.041032 0.000028 0.000356
0.040907 0.000577 -0.002837
0.040316 0.002850 -0.002831
0.039592 0.000036 0.000064
0.040420 0.000035 -0.001007
0.038405 0.001034 0.002595
0.040959 0.004532 0.002566
0.038082 0.000045 -0.000296
0.039513 0.002818 -0.002845
0.042482 0.000016 0.001348
0.041288 0.000035 -0.002304
0.041511 0.003026 -0.002809
0.042085 0.000027 -0.001188
0.041710 0.000028 -0.000917
0.039887 0.000044 -0.002634
0.038611 0.001984 0.002598
0.042524 0.000021 -0.000187
0.040160 0.001615 0.002625
0.041849 0.000021 0.000867
0.041729 0.000032 -0.002198
0.037538 0.001892 0.002579
0.039725 0.000042 -0.001778
0.040743 0.002153 -0.002829
0.039619 0.000044 -0.002196
0.037802 0.000049 -0.001038
0.040628 0.000038 -0.002218
0.042074 0.001151 0.002657
0.038045 0.000039 0.001633
0.037690 0.004167 -0.002845
0.039394 0.000748 0.002612
0.037839 0.000605 0.002585
0.040089 0.000040 -0.002071
0.038719 0.000490 -0.002875
0.042092 0.004103 -0.002785
0.039682 0.001210 -0.002854
0.042486 0.000014 0.002019
0.040311 0.002240 -0.002836
0.042017 0.004533 0.002588
0.038101 0.001654 0.002589
0.041034 0.000021 0.002135
0.042259 0.000337 -0.002816
0.042442 0.003757 -0.002788
0.038776 -0.000225 -0.002877
0.040568 0.000031 0.000072
0.040148 -0.000380 0.002622
0.040140 0.001087 0.002624
0.037891 0.000308 -0.002891
0.039370 0.002021 0.002611
0.038370 0.000051 -0.002473
0.041291 0.003971 -0.002807
0.037672 0.001066 -0.002889
0.042070 0.000713 0.002658
0.040940 0.000029 -0.000253
0.042517 0.001313 -0.002804
0.038581 0.000043 -0.000226
0.038682 0.003281 0.002598
0.040773 0.001277 -0.002835
0.038336 0.001888 -0.002872
0.038494 0.003352 -0.002859
0.038772 0.002657 0.002600
0.037621 0.001422 0.002581
0.040748 0.000036 -0.001745
0.038876 0.002095 -0.002861
0.039222 0.002589 0.002608
0.039278 0.000033 0.001381
0.039110 0.000039 -0.000108
0.040348 0.000759 -0.002846
0.037824 0.002723 0.002584
0.039678 0.000031 0.001087
0.041231 0.004531 -0.002737
0.040958 0.003069 0.002637
0.038028 0.002321 0.002588
0.040513 0.000025 0.001735
0.041451 0.000024 0.000695
0.040606 0.003500 0.002631
0.038714 0.003724 -0.002852
0.041395 0.000030 -0.001218
0.040276 0.000007 -0.002852
0.039292 0.004500 0.002538
0.041796 0.004096 0.002643
0.041291 0.000030 -0.000761
0.042272 0.000835 -0.002812
0.041990 0.003301 0.002655
0.038903 0.000900 -0.002869
0.040969 0.001986 0.002638
0.039828 0.000720 0.002619
0.040898 -0.000059 0.002637
0.039767 0.000027 0.002318
0.040148 0.000034 -0.000370
0.041568 0.001799 0.002648
0.038576 0.000048 -0.001907
0.042175 -0.000331 -0.002819
0.041316 0.003328 0.002643
0.042172 0.002686 0.002658
0.039772 0.000033 0.000557
0.039267 0.000041 -0.000931
0.037989 0.001150 0.002588
0.041435 0.000032 -0.001669
0.038563 0.000543 0.002598
0.041666 0.000027 -0.000356
0.041318 0.000023 0.001248
0.039259 0.000557 -0.002866
0.040283 0.003145 0.002626
0.037561 0.001546 -0.002888
0.039326 -0.000229 -0.002868
0.038099 -0.000350 -0.002889
0.037732 0.001944 -0.002882
0.040735 0.003914 0.002633
0.038104 0.003853 -0.002862
0.041910 0.002578 -0.002806
0.038998 0.004147 -0.002828
0.038816 0.001388 0.002602
0.037592 0.000042 0.001415
0.039779 0.002263 0.002618
0.040056 0.000028 0.001913
0.038093 0.000051 -0.002142
0.039071 0.001037 0.002606
0.041181 -0.000284 -0.002836
0.038973 0.002719 -0.002855
0.037580 0.000056 -0.002566
0.037946 0.000041 0.000991
0.039552 0.000030 0.001901
0.039747 0.000669 -0.002856
0.039695 0.001340 0.002617
0.041894 0.001682 -0.002813
0.040872 0.000033 -0.001073
0.038743 0.001613 -0.002867
0.038385 0.000213 -0.002883
0.041589 -0.000310 0.002647
0.040271 0.000641 0.002627
0.040276 0.004459 -0.002765
0.040692 0.001017 0.002634
0.040739 0.000039 -0.002698
0.041758 0.002108 -0.002812
0.040083 0.000050 0.002624
0.041113 0.000801 0.002641
0.041408 0.003508 -0.002808
0.038870 -0.000164 0.002602
0.042226 0.000031 -0.002409
0.041380 0.002432 -0.002816
0.041873 0.003526 -0.002800
0.039050 0.000033 0.001797
0.041423 0.004383 0.002603
0.039659 0.000040 -0.001247
0.037792 0.003379 0.002583
0.042322 -0.000214 0.002661
0.042461 0.004512 -0.002724
0.039894 0.002434 -0.002841
0.038691 0.004545 0.002517
0.041789 0.000023 0.000229
0.037925 0.004422 0.002525
0.041332 0.000203 -0.002833
0.041477 0.003789 0.002646
0.037663 0.000039 0.002028
0.039759 -0.000335 -0.002861
0.038246 0.000041 0.000682
0.040950 0.003632 -0.002815
0.039029 0.000045 -0.001794
0.041392 0.001753 -0.002820
0.038574 0.003754 0.002596
0.039310 0.002016 -0.002854
0.041790 0.000407 -0.002823
0.040838 0.000027 0.000998
0.042382 0.003515 0.002661
0.039187 0.000046 -0.002336
0.040132 0.000032 0.000272
0.041960 0.002009 0.002655
0.038851 0.000038 0.000646
0.039035 0.004107 0.002590
0.041489 0.002444 0.002647
0.039137 0.003194 -0.002849
0.038310 0.002671 0.002592
0.038509 0.002820 -0.002862
0.037792 0.000045 0.000409
0.041056 0.002567 0.002639
0.038252 0.000043 0.000191
0.040129 0.000029 0.001171
0.038311 0.002336 -0.002869
0.040044 0.003516 0.002621
0.037902 0.003023 -0.002871
0.039605 0.004481 -0.002770
0.041586 0.000729 0.002649
0.038225 0.000035 0.002492
0.041411 0.000749 -0.002827
0.038691 0.000046 -0.001424
0.042291 0.004161 0.002645
0.041728 -0.000286 -0.002827
0.038112 0.001061 -0.002882
0.039518 0.000039 -0.000548
0.042065 0.000025 -0.000588
0.041681 0.001089 -0.002820
0.041238 0.001435 0.002643
0.039579 0.001635 -0.002852
0.038464 0.000036 0.001993
0.041875 0.000030 -0.001788
0.039762 0.004014 -0.002832
0.039217 0.003741 -0.002844
0.039447 0.003773 0.002611
0.041842 0.000264 0.002654
0.040598 0.001596 0.002632
0.041536 0.002910 0.002647
0.038360 0.000039 0.001115
0.042137 0.001603 0.002658
0.040164 0.003843 -0.002827
0.037711 0.002381 -0.002879
0.040499 0.000030 0.000663
0.039898 0.001940 -0.002845
0.037614 0.000054 -0.002117
0.040451 0.000024 0.002165
0.042130 0.000016 0.001690
0.040569 0.002799 0.002631
0.040025 0.000037 -0.000818
0.042441 0.000018 0.000876
0.040236 0.002236 0.002625
0.041631 0.004282 -0.002771
0.042423 0.002303 -0.002799
0.039747 0.002940 0.002617
0.039302 0.000036 0.000675
0.040000 0.004011 0.002619
0.040965 0.000023 0.001601
0.037678 0.000052 -0.001655
0.038925 0.000042 -0.000601
0.037538 0.000047 0.000020
0.040777 0.000462 0.002636
0.039211 0.001389 -0.002861
0.038740 0.000040 0.000176
0.041897 0.000016 0.002275
0.042131 0.000021 0.000516
0.038259 0.003152 0.002591
0.041364 0.000209 0.002646
0.038478 0.004159 -0.002834
0.038579 0.001206 -0.002873
0.039238 0.000042 -0.001370
0.040095 0.002647 0.002623
0.038394 0.000045 -0.000617
0.039065 0.003526 0.002605
0.040667 0.000032 -0.000590
0.039668 -0.000278 0.002615
0.041590 0.001186 0.002649
0.040765 0.004459 -0.002758
0.041930 0.000019 0.001304
0.038959 0.000032 0.002223
0.038476 0.000037 0.001551
0.043145 0.001039 0.002107
0.046592 0.000004 -0.001480
0.046698 0.000543 0.002737
0.044210 0.001998 0.002693
0.045943 0.001869 0.002723
0.043214 0.000026 -0.002237
0.046565 -0.000257 -0.002744
0.043162 0.001955 0.001369
0.043204 0.000848 -0.001384
0.042822 0.003315 0.002669
0.045921 0.001331 0.002723
0.044330 0.000010 0.000296
0.043225 0.002977 -0.001956
0.043980 0.002444 -0.002771
0.043196 0.000812 -0.000942
0.042945 0.001192 0.002672
0.044377 0.002865 -0.002762
0.043182 0.000206 -0.000343
0.043337 0.002073 0.002679
0.045619 0.000007 -0.001041
0.043234 0.002739 -0.002527
0.043825 0.000879 0.002688
0.043234 0.002250 -0.002703
0.043192 0.003114 0.000015
0.045950 0.002390 -0.002738
0.044429 0.000144 -0.002780
0.045239 0.000003 0.000748
0.047049 0.000004 -0.002294
0.046309 0.003806 0.002728
0.044637 0.000001 0.002276
0.045644 0.002827 0.002718
0.043217 0.004446 -0.001050
0.046101 0.000002 -0.000257
0.042995 0.004083 0.002667
0.044876 0.000049 -0.002773
0.043218 0.001937 -0.001855
0.043423 0.003786 0.002679
0.044517 0.000827 -0.002774
0.046276 0.000539 -0.002746
0.043460 0.000010 0.001470
0.044849 0.003174 -0.002751
0.042563 0.001526 0.002666
0.045384 0.004463 -0.002692
0.046547 -0.000006 0.001281
0.043692 0.000017 -0.000879
0.045507 0.004374 0.002682
0.042800 0.003360 -0.002785
0.043179 0.001696 0.000297
0.043180 0.002671 0.000552
0.043882 0.000012 -0.002790
0.043949 0.003650 0.002688
0.045642 0.003837 0.002717
0.043220 0.000904 -0.002273
0.044590 0.004102 -0.002747
0.046852 0.000552 -0.002736
0.045619 0.000005 -0.000408
0.046212 0.002853 -0.002730
0.046946 -0.000322 0.002739
0.047452 0.001318 -0.002720
0.046242 0.000004 -0.001097
0.044339 0.000014 -0.000904
0.042898 0.001907 -0.002794
0.043225 0.004476 -0.001480
0.044116 0.000013 -0.000425
0.045973 0.004302 -0.002703
0.043775 0.000250 0.002687
0.043169 -0.000278 0.000312
0.047207 0.000001 -0.001853
0.043498 0.000303 -0.002795
0.047264 0.000405 -0.002730
0.047089 0.004521 -0.002660
0.043188 0.004118 0.000586
0.045234 0.002919 -0.002747
0.046130 0.000007 -0.001646
0.043177 0.004466 0.001300
0.043015 0.003883 -0.002778
0.045398 0.001165 -0.002756
0.043185 0.001388 -0.000058
0.043193 0.003545 0.000063
0.043147 0.000513 0.001810
0.047478 0.004245 0.002735
0.043172 0.000950 0.000508
0.043680 0.001534 -0.002783
0.043191 0.002658 -0.000092
0.043843 0.000013 0.000143
0.043153 0.002838 0.002174
0.046902 0.002030 0.002739
0.043202 0.003861 -0.000336
0.046722 0.002972 -0.002721
0.042847 -0.000049 0.002671
0.045028 0.000009 -0.000613
0.043154 -0.000186 0.001203
0.043217 0.001318 -0.002003
0.043240 0.004337 -0.002389
0.043216 0.002896 -0.001463
0.044821 0.001754 0.002704
0.045316 0.000006 -0.000060
0.043622 0.000023 -0.002420
0.047409 0.000549 0.002749
0.046450 -0.000003 0.000747
0.047096 -0.000097 -0.002735
0.045040 0.001314 0.002708
0.044504 0.001318 -0.002770
0.043210 0.001981 -0.001394
0.045371 0.003452 0.002713
0.042955 0.000012 0.001635
0.046608 0.003568 -0.002719
0.043202 0.001655 -0.000985
0.043230 0.001525 -0.002729
0.045054 0.003913 -0.002743
0.045127 0.000012 -0.001728
0.045927 0.000888 -0.002749
0.044777 0.003166 0.002702
0.042593 0.000019 0.000406
0.046052 -0.000156 -0.002753
0.042767 0.002589 -0.002791
0.043149 0.002094 0.002187
0.043178 0.002199 0.000599
0.043156 0.001490 0.001618
0.043213 0.003992 -0.000954
0.046432 0.000007 -0.002378
0.044470 0.003426 -0.002756
0.047062 -0.000011 0.002206
0.043527 0.000925 -0.002790
0.043210 0.000383 -0.001913
0.043660 0.000013 0.000538
0.044543 0.001218 0.002700
0.045730 0.000237 -0.002757
0.044723 0.000013 -0.001284
0.043225 0.003736 -0.001700
0.047296 -0.000001 -0.001390
0.045915 0.000398 0.002723
0.043197 -0.000299 -0.001338
0.044105 0.003982 -0.002758
0.043218 -0.000288 -0.002576
0.046644 0.004339 -0.002688
0.043980 0.001339 0.002690
0.044286 0.003146 0.002694
0.044931 0.003593 0.002705
0.043385 0.000016 -0.000008
0.043200 0.002844 -0.000523
0.043196 0.004184 0.000078
0.044793 0.000005 0.001225
0.047162 -0.000003 -0.000270
0.045567 0.003360 -0.002738
0.043192 0.001387 -0.000549
0.047501 -0.000008 0.000509
0.043154 0.003423 0.002349
0.042561 0.000026 -0.001677
0.042530 0.000023 -0.000682
0.043170 0.004090 0.001624
0.043086 0.001001 -0.002797
0.043173 0.003054 0.001101
0.045528 0.000011 -0.002034
0.043161 0.004140 0.002151
0.044351 0.000016 -0.001519
0.045415 -0.000324 0.002713
0.046155 0.002266 0.002726
0.045662 0.000009 -0.001583
0.044858 0.000016 -0.002331
0.044426 0.000733 0.002698
0.046008 0.000896 0.002725
0.046828 0.004194 0.002728
0.044285 0.000007 0.001193
0.046647 0.002566 0.002735
0.043657 0.000011 0.001041
0.046250 -0.000007 0.002241
0.043008 0.000020 -0.000792
0.046680 0.000000 -0.000590
0.047169 0.002899 0.002744
0.043999 0.000006 0.002055
0.046702 0.001124 0.002736
0.044217 0.001843 -0.002772
0.046007 0.003709 -0.002728
0.044958 0.004076 0.002705
0.043045 0.004560 -0.002707
0.043984 0.000523 -0.002785
0.043173 0.003747 0.001359
0.042663 0.000028 -0.002499
0.043203 0.000298 -0.001491
0.047521 -0.000012 0.001664
0.043164 0.003728 0.001875
0.043166 0.003290 0.001603
0.044634 0.002238 -0.002762
0.046718 0.003102 0.002736
0.046781 -0.000003 0.000118
0.046918 -0.000009 0.001690
0.042965 0.000400 -0.002803
0.045718 0.001933 -0.002745
0.047037 0.001616 -0.002725
0.045892 -0.000006 0.002568
0.044142 -0.000089 0.002693
0.046003 0.004167 0.002715
0.046066 -0.000004 0.001451
0.042698 0.000024 -0.001184
0.044473 0.000008 0.000788
0.043238 0.003238 -0.002628
0.047046 0.000975 -0.002730
0.046305 0.001316 -0.002740
0.044364 0.004198 0.002680
0.047092 0.003375 -0.002712
0.044992 0.001330 -0.002762
0.043139 0.000616 0.002292
0.045108 0.000746 -0.002764
0.046431 0.002453 -0.002729
0.043618 0.002749 0.002683
0.043194 0.001895 -0.000533
0.043171 0.001429 0.000709
0.043498 0.000021 -0.001819
0.042870 0.000016 0.000819
0.043220 0.002508 -0.001764
0.043181 0.003816 0.000929
0.047217 0.002329 0.002745
0.046206 -0.000001 0.000355
0.046669 0.000005 -0.001973
0.044836 0.000007 0.000428
0.046514 0.000901 -0.002739
0.046742 0.003625 0.002736
0.043699 -0.000348 0.002683
0.043209 0.003394 -0.000876
0.043472 0.001145 0.002681
0.044561 0.000011 -0.000398
0.043171 0.002429 0.001054
0.045882 0.003325 0.002721
0.043556 0.000019 -0.001308
0.044756 0.002577 0.002702
0.042886 0.001952 0.002671
0.043208 0.001288 -0.001492
0.044578 -0.000201 0.002699
0.043209 0.002893 -0.001009
0.043314 0.000009 0.001948
0.047176 0.000958 0.002745
0.043715 0.003394 -0.002769
0.046431 0.004389 0.002698
0.043718 0.004559 0.002618
0.043164 0.001112 0.001073
0.045061 0.002269 0.002708
0.047294 0.000072 0.002747
0.047070 -0.000006 0.000662
0.045641 0.000000 0.001050
0.043554 0.003867 -0.002768
0.043148 0.001523 0.002092
0.046005 0.003273 -0.002731
0.045056 -0.000002 0.002466
0.046965 -0.000000 -0.001057
0.045224 0.002208 -0.002752
0.043682 0.003263 0.002684
0.043062 0.002951 0.002673
0.043167 0.000337 0.000638
0.045674 0.000002 0.000313
0.045538 0.000642 -0.002758
0.045331 0.001705 -0.002754
0.047483 0.001969 0.002749
0.047346 0.004111 -0.002702
0.045326 0.000335 0.002713
0.046483 0.001717 0.002732
0.042536 0.002264 0.002665
0.043158 0.000303 0.001098
0.044211 0.002676 0.002693
0.043217 0.003316 -0.001352
0.043160 0.002427 0.001664
0.046081 0.000008 -0.002099
0.047114 -0.000008 0.001187
0.045661 0.002745 -0.002741
0.043200 0.003365 -0.000401
0.045211 0.002713 0.002710
0.044061 0.001294 -0.002778
0.043204 0.002222 -0.000967
0.044855 0.000435 0.002705
0.045293 0.000014 -0.002456
0.045056 0.000001 0.001757
0.045860 -0.000004 0.001913
0.043196 0.002338 -0.000451
0.044360 0.000018 -0.002029
0.045432 0.001620 0.002715
0.043225 0.002211 -0.002234
0.043155 0.000893 0.001497
0.043544 0.001616 0.002682
0.044573 -0.000283 -0.002778
0.044863 0.002609 -0.002755
0.044339 0.000004 0.001718
0.043928 0.000019 -0.001948
0.042598 0.002780 0.002665
0.042905 0.000011 0.002151
0.045632 0.002227 0.002718
0.043234 0.003902 -0.002195
0.044888 0.001873 -0.002760
0.047100 0.002352 -0.002719
0.043762 0.002230 0.002686
0.043187 0.002084 -0.000016
0.043223 0.001717 -0.002227
0.043231 0.003384 -0.002192
0.044416 0.000273 0.002698
0.046448 -0.000007 0.001854
0.047374 -0.000003 -0.000737
0.043184 0.003442 0.000612
0.046508 0.001811 -0.002733
0.044494 0.003703 0.002697
0.043184 0.000803 -0.000248
0.046958 0.003821 -0.002711
0.045392 -0.000002 0.002181
0.043082 0.002462 0.002674
0.045115 0.000830 0.002710
0.044057 0.000020 -0.002376
0.043177 0.000432 0.000027
0.043333 0.000007 0.002640
0.043162 0.002863 0.001693
0.047116 0.003838 0.002742
0.046158 0.002718 0.002726
0.046220 -0.000403 0.002726
0.042754 0.000776 0.002669
0.045437 -0.000000 0.001453
0.047334 0.001539 0.002747
0.045583 0.003844 -0.002734
0.045610 0.000728 0.002718
0.045151 -0.000312 -0.002768
0.044929 0.004509 -0.002692
0.046288 0.003165 0.002728
0.045867 0.001353 -0.002747
0.043483 0.000611 0.002682
0.047439 0.003247 0.002748
0.043844 0.002896 -0.002770
0.046624 -0.000011 0.002521
0.046001 -0.000001 0.000754
0.043597 0.000007 0.002281
0.046046 0.000004 -0.000697
0.043164 0.001569 0.001151
0.043212 0.000861 -0.001832
0.043554 0.002543 -0.002778
0.043932 0.004093 0.002684
0.051353 -0.000128 -0.002662
0.050341 -0.000023 0.000370
0.050394 0.003880 -0.002652
0.050597 -0.000194 0.002803
0.048372 0.001733 0.002765
0.051653 0.004149 0.002820
0.050544 0.003197 -0.002654
0.048867 -0.000018 0.001167
0.049495 -0.000008 -0.002623
0.052043 -0.000351 -0.002651
0.049818 0.003498 0.002789
0.050451 0.004491 0.002764
0.052247 0.003699 -0.002622
0.048306 -0.000006 -0.001276
0.048589 -0.000005 -0.002121
0.048143 0.002647 -0.002699
0.047787 0.000873 0.002755
0.052344 -0.000026 -0.001723
0.050769 0.002313 0.002805
0.051564 -0.000027 -0.000461
0.051709 0.003588 -0.002631
0.049107 0.002212 -0.002686
0.050204 0.003692 0.002795
0.047823 0.000000 -0.002438
0.050507 0.001840 -0.002664
0.047696 0.003667 0.002752
0.051820 -0.000034 0.001298
0.049041 -0.000242 -0.002702
0.047572 -0.000276 -0.002727
0.051873 0.000732 0.002825
0.050324 -0.000028 0.001728
0.049990 0.004280 -0.002646
0.050969 -0.000030 0.001637
0.051100 0.003553 0.002811
0.050695 -0.000021 -0.000832
0.048625 -0.000019 0.001989
0.047803 0.004555 -0.002644
0.049684 0.002267 -0.002675
0.047894 -0.000006 -0.000558
0.051900 0.003174 0.002824
0.050686 0.000284 0.002805
0.050524 0.001115 0.002802
0.049039 0.000522 0.002777
0.048437 -0.000373 0.002764
0.047748 -0.000012 0.001228
0.050064 0.003069 0.002793
0.050912 -0.000016 -0.002604
0.048852 0.002825 0.002772
0.050713 0.004351 -0.002626
0.052002 -0.000028 -0.000522
0.048532 -0.000014 0.000540
0.049313 0.001143 0.002781
0.049687 -0.000019 0.000156
0.048168 0.001129 0.002762
0.050188 -0.000012 -0.002375
0.051040 0.001703 0.002810
0.051274 0.002621 -0.002646
0.048728 -0.000008 -0.001389
0.050458 0.001712 0.002800
0.051722 0.000345 -0.002654
0.051111 -0.000022 -0.001028
0.047629 0.002871 -0.002706
0.050105 0.000728 0.002795
0.050326 0.000308 -0.002678
0.048039 -0.000012 0.000900
0.049707 -0.000015 -0.000983
0.050304 -0.000020 -0.000357
0.049832 0.001433 0.002790
0.048737 0.001739 -0.002695
0.051326 0.000731 -0.002658
0.049064 -0.000009 -0.001685
0.050888 -0.000019 -0.001603
0.052137 0.001538 0.002829
0.049712 -0.000022 0.001106
0.051440 0.002019 0.002817
0.049878 -0.000027 0.002247
0.051830 0.003131 -0.002633
0.048172 0.003885 0.002760
0.048603 0.003990 0.002768
0.048281 0.002875 0.002762
0.049531 -0.000012 -0.001625
0.052300 0.000193 -0.002645
0.049410 -0.000016 -0.000197
0.050780 0.002604 -0.002654
0.049773 -0.000011 -0.002051
0.049831 0.002442 0.002789
0.050396 -0.000352 -0.002679
0.050793 -0.000024 -0.000031
0.051551 -0.000021 -0.002218
0.050245 0.000300 0.002797
0.051935 0.002025 0.002825
0.048102 -0.000003 -0.002084
0.050465 -0.000017 -0.001482
0.048651 -0.000011 -0.000498
0.052074 -0.000024 -0.002084
0.051171 0.004042 0.002812
0.048224 0.000960 -0.002710
0.051021 -0.000018 -0.002152
0.047737 -0.000001 -0.001794
0.052450 -0.000029 -0.001048
0.049503 0.004165 0.002782
0.047832 0.003699 -0.002697
0.049260 -0.000013 -0.000738
0.051537 -0.000022 -0.001747
0.048005 0.000345 -0.002718
0.049652 -0.000024 0.001669
0.049215 0.004462 -0.002635
0.051307 0.001333 0.002815
0.050862 0.001239 -0.002663
0.047933 0.002010 0.002757
0.051089 0.000871 0.002812
0.049281 0.000381 -0.002695
0.047607 0.002311 -0.002711
0.049288 0.003162 -0.002676
0.049554 0.001834 0.002785
0.052295 -0.000039 0.002134
0.048246 0.003351 -0.002692
0.049904 0.001777 -0.002675
0.050410 0.001181 -0.002671
0.050919 0.004439 0.002780
0.048541 0.003958 -0.002683
0.050314 0.002264 -0.002665
0.049402 0.003091 0.002782
0.050687 0.003109 0.002804
0.048082 0.002426 0.002759
0.047766 0.000725 -0.002719
0.051162 0.004240 -0.002632
0.050161 -0.000018 -0.000898
0.052280 -0.000041 0.002809
0.052529 0.003231 0.002835
0.051974 -0.000039 0.002464
0.051839 -0.000036 0.001798
0.048688 0.001287 0.002770
0.049363 -0.000438 0.002780
0.048015 0.000102 0.002759
0.052317 0.000854 -0.002640
0.051566 0.004040 -0.002631
0.051351 0.002803 0.002815
0.051366 0.004507 0.002780
0.050605 -0.000016 -0.002003
0.049536 0.002722 -0.002675
0.048229 -0.000017 0.002188
0.050045 0.003244 -0.002662
0.049992 0.001916 0.002792
0.051012 0.002112 -0.002654
0.049705 0.000507 -0.002687
0.048776 0.003076 -0.002685
0.051904 0.003748 0.002824
0.051537 0.000398 0.002820
0.052469 -0.000032 -0.000224
0.051365 0.001791 -0.002650
0.052204 -0.000034 0.000874
0.052217 0.002402 0.002830
0.052280 -0.000033 0.000224
0.048276 0.002048 -0.002701
0.052317 0.001836 -0.002633
0.047950 0.004129 -0.002692
0.048303 -0.000248 -0.002715
0.049425 0.000857 -0.002690
0.051709 0.001195 -0.002649
0.050657 0.003882 0.002803
0.048960 -0.000022 0.002284
0.048570 0.000677 0.002769
0.052065 0.004417 -0.002598
0.052121 0.004423 0.002804
0.049974 -0.000014 -0.001616
0.047798 0.001541 0.002755
0.051837 -0.000026 -0.001094
0.049956 -0.000028 0.002717
0.049236 0.003580 0.002779
0.050680 -0.000031 0.002015
0.048929 0.003547 -0.002679
0.051466 -0.000030 0.000889
0.049452 0.003827 -0.002668
0.048981 0.002203 0.002775
0.051895 0.002450 -0.002636
0.048115 0.000576 0.002761
0.049161 -0.000021 0.001535
0.047546 -0.000014 0.002100
0.051086 -0.000024 -0.000426
0.052325 0.002497 -0.002629
0.049328 0.001749 -0.002685
0.052360 -0.000038 0.001511
0.048449 0.004473 0.002728
0.048056 -0.000011 0.000449
0.052497 0.002932 -0.002623
0.047833 -0.000004 -0.001231
0.049971 0.000964 -0.002680
0.048468 0.003303 0.002765
0.048879 0.000217 -0.002703
0.049992 0.002774 -0.002666
0.049935 -0.000021 0.000544
0.048584 0.000532 -0.002706
0.048563 0.002410 0.002768
0.048990 0.003985 -0.002675
0.052513 0.001347 -0.002634
0.051731 -0.000031 0.000543
0.050578 -0.000027 0.001230
0.048026 0.004365 0.002732
0.049174 -0.000008 -0.002146
0.047837 0.001518 -0.002712
0.050810 -0.000025 0.000432
0.051008 0.003411 -0.002645
0.050450 0.002640 0.002800
0.047940 -0.000008 -0.000074
0.051492 -0.000027 0.000087
0.048770 0.002631 -0.002688
0.052071 0.001453 -0.002640
0.048874 -0.000329 0.002772
0.049009 -0.000017 0.000753
0.049238 -0.000016 0.000310
0.049411 -0.000024 0.002054
0.051545 -0.000036 0.002327
0.051084 -0.000034 0.002206
0.050142 -0.000023 0.000947
0.051713 0.002056 -0.002642
0.048360 0.001486 -0.002703
0.049361 -0.000025 0.002493
0.051407 -0.000199 0.002816
0.052296 0.003998 0.002831
0.051858 0.001184 0.002825
0.049962 0.003784 -0.002660
0.049066 0.001535 0.002777
0.050693 0.000721 -0.002669
0.050021 0.004237 0.002785
0.048725 0.000103 0.002772
0.051106 0.000134 0.002812
0.048782 0.001262 -0.002698
0.050855 -0.000027 0.000880
0.050856 0.003848 -0.002644
0.051177 -0.000030 0.001209
0.047896 0.003282 0.002756
0.049042 0.004238 0.002766
0.051848 0.002700 0.002824
0.049292 0.001271 -0.002689
0.048422 -0.000011 0.000011
0.049313 0.002533 0.002780
0.048964 -0.000014 -0.000027
0.052414 0.001928 0.002834
0.047702 0.002790 0.002753
0.049490 0.000536 0.002784
0.048359 -0.000016 0.001325
0.048367 -0.000005 -0.001742
0.049452 -0.000020 0.000760
0.049304 -0.000012 -0.001211
0.047960 -0.000015 0.001844
0.050416 -0.000030 0.002419
0.051371 0.003072 -0.002641
0.051364 -0.000034 0.001821
0.047572 0.003301 -0.002704
0.051704 0.001588 0.002822
0.048943 0.000830 -0.002698
0.057206 0.004386 -0.002524
0.055926 0.003753 0.002894
0.055255 0.001335 -0.002587
0.053773 -0.000290 -0.002621
0.055180 -0.000044 -0.001140
0.056859 -0.000063 0.001666
0.054246 -0.000035 -0.002192
0.057432 0.004275 0.002919
0.054234 -0.000037 -0.001491
