ply
format ascii 1.0
element vertex 867
property double x
property double y
property double z
end_header
0.217929141362637 0.000357456411076 -0.007681228588249
0.217844432566679 0.002008199292014 -0.006758877174552
0.217771352470351 0.003436899923901 -0.005717108334369
0.217710978008589 0.004622513594476 -0.004570781755348
0.217664207606074 0.005547423005126 -0.003335573701446
0.217631742894105 0.006197812869438 -0.002026792010558
0.217614077821853 0.006563950218437 -0.000655589949588
0.217611516431270 0.006640450173801 0.000803802068271
0.217623997889513 0.006425859966198 0.002209989804295
0.217651344033244 0.005923435062554 0.003553258393021
0.217693158837211 0.005140763830712 0.004830969506659
0.217748820261977 0.004089579243671 0.006028957102956
0.217817500200181 0.002785558146446 0.007131431283977
0.217898182630288 0.001248007438868 0.008122931726894
0.217989686686295 -0.000500565836576 0.008989134738384
0.218090697940637 -0.002435049125725 0.009717319627017
0.218199815304940 -0.004528622903964 0.010296688653017
0.218315637474501 -0.006754423363816 0.010718603865692
0.218436999764799 -0.009090106433200 0.010976769383254
0.218565137329917 -0.011559561418745 0.011067453708176
0.220207419481157 -0.011474457671776 0.011043928369167
0.220335151225983 -0.013939223560795 0.010965690905432
0.220455843133714 -0.016271342112556 0.010719657311827
0.220570734093077 -0.018494633997999 0.010309669889821
0.220678672192399 -0.020586769922934 0.009741900487584
0.220778273259599 -0.022520898451007 0.009024835705652
0.220868156924264 -0.024270201429745 0.008169117651842
0.220947032496719 -0.025809554408637 0.007187315850693
0.221013745244157 -0.027116424923255 0.006093612420729
0.221067306836925 -0.028171468241979 0.004903339625756
0.221106917032385 -0.028958960457627 0.003632176636574
0.221131978549314 -0.029467121515174 0.002294201729420
0.221142100531646 -0.029688365539834 0.000892010066019
0.221137121299984 -0.029619394791056 -0.000564719896135
0.221117214891295 -0.029260944985817 -0.001934881412615
0.221082641958106 -0.028618519912232 -0.003244163629738
0.221033913982713 -0.027701775930324 -0.004481388214772
0.220971756613409 -0.026524422228758 -0.005631210659535
0.220897092511517 -0.025103960223417 -0.006677899925309
0.220811021137288 -0.023461315723752 -0.007606522834756
0.220714792163726 -0.021620337255073 -0.008403538412483
0.220609767922739 -0.019607078888629 -0.009057177927545
0.220497362052358 -0.017448622123927 -0.009557718078577
0.220378905980681 -0.015170504851829 -0.009897687046357
0.220255132544363 -0.012786766041205 -0.010072032980604
0.220124572228943 -0.010269020327391 -0.010078294769792
0.220001078973822 -0.007884429262808 -0.009915807966627
0.219883179052759 -0.005604620294164 -0.009587174843088
0.219771596956179 -0.003443657777855 -0.009097377354749
0.219667651787638 -0.001427117093484 -0.008453760198968
0.219572741121420 0.000417871396804 -0.007665911848861
0.219488207818632 0.002065194395567 -0.006745471291904
0.219415279124029 0.003490935155338 -0.005705860708302
0.219355029741435 0.004674092562671 -0.004561909000546
0.219308356234243 0.005597085817121 -0.003329259955715
0.219275958780169 0.006246128253720 -0.002023189698103
0.219258330305055 0.006611507067512 -0.000654828388131
0.219255774220964 0.006687848536150 0.000801540173558
0.219268229821082 0.006473702900039 0.002204814677953
0.219295519311174 0.005972318881679 0.003545300386100
0.219337247486446 0.005191269127916 0.004820364436096
0.219392793596151 0.004142262304277 0.006015870133804
0.219461331248541 0.002840942777695 0.007116060293587
0.219541846526993 0.001306577449451 0.008105506622122
0.219633161011932 -0.000438373266329 0.008969915100815
0.219733962998924 -0.002368848841742 0.009696591391986
0.219842854302261 -0.004458085314802 0.010274760125785
0.219958436520357 -0.006679274532402 0.010695801246964
0.220079547381594 -0.009010118713194 0.010953431917057
0.220207419481157 -0.011474457671776 0.011043928369167
0.221537572192385 -0.011405553339264 0.011014928149212
0.221664968970934 -0.013863855577025 0.010936895856963
0.221785344373798 -0.016189858334553 0.010691507466765
0.221899934040816 -0.018407319814984 0.010282595203956
0.222007589081112 -0.020493969280916 0.009716314731532
0.222106928952485 -0.022423025711737 0.009001130394594
0.222196576904434 -0.024167741283431 0.008147656392887
0.222275245632015 -0.025703057432350 0.007168429288375
0.222341783430612 -0.027006500783648 0.006077594008113
0.222395204562390 -0.028058777335717 0.004890442608273
0.222434710883283 -0.028844204416063 0.003622613142283
0.222459706678390 -0.029351032861911 0.002288146967228
0.222469802116633 -0.029571696691825 0.000889632439230
0.222464835942607 -0.029502906813315 -0.000563277365199
0.222444981736882 -0.029145397013999 -0.001929845742773
0.222410499468443 -0.028504656648749 -0.003235694472080
0.222361899278265 -0.027590316754555 -0.004469674534671
0.222299904911687 -0.026416050568832 -0.005616481662107
0.222225436610426 -0.024999313611403 -0.006660426069061
0.222139590951486 -0.023360976815457 -0.007586613739257
0.222043614330706 -0.021524826165455 -0.008381539207426
0.221938865507384 -0.019516847407931 -0.009033464605179
0.221826754412400 -0.017364051023326 -0.009532692129730
0.221708608982290 -0.015091907931429 -0.009871769556103
0.221585160131902 -0.012714420285035 -0.010045658282094
0.221454942200458 -0.010203277157829 -0.010051903650240
0.221331772796514 -0.007824939492444 -0.009889842955710
0.221214182058557 -0.005551109140339 -0.009562071646234
0.221102892577094 -0.003395813575260 -0.009073558612603
0.220999219996438 -0.001384561107425 -0.008431629291296
0.220904558225845 0.000455589048225 -0.007645847010426
0.220820246604878 0.002098592074279 -0.006727820235155
0.220747509159939 0.003520593943027 -0.005690935947096
0.220687417776528 0.004700648614763 -0.004549984161129
0.220640866666873 0.005621221393282 -0.003320567639754
0.220608554172528 0.006268561768042 -0.002017922446851
0.220590971926680 0.006632982405140 -0.000653149554887
0.220588422545714 0.006709123674388 0.000799399796820
0.220600845482018 0.006495539618067 0.002198994326148
0.220628063407607 0.005995470439163 0.003535964717822
0.220669682154079 0.005216468925862 0.004807685014406
0.220725082598558 0.004170213038652 0.006000055594113
0.220793440516440 0.002872306118368 0.007097360593264
0.220873744650019 0.001341964540383 0.008084212178000
0.220964819670030 -0.000398410181815 0.008946353814647
0.221065357311880 -0.002323823239551 0.009671124455410
0.221173963056490 -0.004407580857188 0.010247776987983
0.221289242169471 -0.006622945183855 0.010667713962523
0.221410035427168 -0.008947676912349 0.010924669016804
0.221537572192385 -0.011405553339264 0.011014928149212
0.222651243082707 -0.011347889258660 0.010980153649321
0.222778232597944 -0.013798332770928 0.010902370811495
0.222898223183501 -0.016116899739281 0.010657766881387
0.223012446529110 -0.018327272416392 0.010250161833442
0.223119757416683 -0.020407251260176 0.009685691652168
0.223218779717349 -0.022330140863860 0.008972793623762
0.223308141081818 -0.024069278911143 0.008122048016388
0.223386558320413 -0.025599686945845 0.007145951315003
0.223452883410301 -0.026898963436236 0.006058603228014
0.223506133764865 -0.027947876059965 0.004875246925792
0.223545513791551 -0.028730792279065 0.003611470469881
0.223570429679847 -0.029236000490604 0.002281270329811
0.223580492844891 -0.029455958900152 0.000887226587221
0.223575542546780 -0.029387388929823 -0.000561038540429
0.223555751811181 -0.029031022021454 -0.001923238258372
0.223521379776007 -0.028392329981493 -0.003224912437235
0.223472934951409 -0.027480913058334 -0.004454947699863
0.223411138769051 -0.026310400778648 -0.005598088702658
0.223336908528810 -0.024898192860273 -0.006638695817559
0.223251337302141 -0.023265093515991 -0.007561922641629
0.223155667500394 -0.021434812690985 -0.008354306884010
0.223051253539172 -0.019433253060291 -0.009004148200048
0.222939500842072 -0.017287338756974 -0.009501779788992
0.222821733100469 -0.015022459275126 -0.009839773249214
0.222698678892617 -0.012652572005321 -0.010013106085964
0.222568877243175 -0.010149456525899 -0.010019331488854
0.222446101588429 -0.007778721954452 -0.009857788871595
0.222328886765734 -0.005512160606248 -0.009531065384760
0.222217953055613 -0.003363755111861 -0.009044114034543
0.222114611896512 -0.001358932236287 -0.008404236839393
0.222020252741627 0.000475335308707 -0.007620966555277
0.221936210648903 0.002113085966046 -0.006705874537300
0.221863705731765 0.003530541964817 -0.005672304971435
0.221803806449097 0.004706824225826 -0.004535000591694
0.221757404154501 0.005624454107962 -0.003309514281506
0.221725194957066 0.006269725058455 -0.002011033397950
0.221707668918319 0.006632980711970 -0.000650623425791
0.221705127687240 0.006708878572037 0.000797282401437
0.221717510909776 0.006495977303390 0.002192402692797
0.221744641824824 0.005997506750703 0.003525099043981
0.221786127524066 0.005220995557330 0.004792753892240
0.221841350863843 0.004178084351538 0.005981312689601
0.221909490254441 0.002884326593242 0.007075109813016
0.221989537670952 0.001358877226714 0.008058806620611
0.222080321541417 -0.000375933847944 0.008918192154141
0.222180537783515 -0.002295191725716 0.009640645840778
0.222288796336181 -0.004372287965895 0.010215454924694
0.222403706923725 -0.006580570193444 0.010634049440461
0.222524114028312 -0.008897870196001 0.010890183058222
0.222651243082707 -0.011347889258660 0.010980153649321
0.223603909779524 -0.011298589370092 0.010939287051422
0.223730416539431 -0.013739717430896 0.010861799907925
0.223849950976348 -0.016049470281335 0.010618125848686
0.223963740097693 -0.018251440145123 0.010212070326377
0.224070643038965 -0.020323511872555 0.009649745999333
0.224169288902701 -0.022239091540432 0.008939558079097
0.224258310556643 -0.023971618190232 0.008092046612552
0.224336429689211 -0.025496208322300 0.007119660578807
0.224402502641823 -0.026790545565153 0.006036446085708
0.224455550563198 -0.027835470708825 0.004857588356150
0.224494780885258 -0.028615410643019 0.003598616193084
0.224519602054885 -0.029118698286893 0.002273472857948
0.224529626964436 -0.029337820516428 0.000884728624103
0.224524695485066 -0.029269511217372 -0.000558030870205
0.224504979984679 -0.028914499050960 -0.001915052135638
0.224470738616066 -0.028278235022364 -0.003211777952062
0.224422477956257 -0.027370282884281 -0.004437137190235
0.224360916694366 -0.026204220350233 -0.005575932500312
0.224286968643124 -0.024797380992388 -0.006612583708854
0.224201722718632 -0.023170489935545 -0.007532300852074
0.224106416609168 -0.021347166990656 -0.008321672816509
0.224002399581473 -0.019353216362780 -0.008969043736797
0.223891071716377 -0.017215459831898 -0.009464783560886
0.223773751673190 -0.014959190373003 -0.009801492126493
0.223651165260451 -0.012598312317132 -0.009974166032066
0.223521857056771 -0.010104712523602 -0.009980367768857
0.223399548138209 -0.007742990387138 -0.009819439261820
0.223282778911989 -0.005485045455563 -0.009493957826381
0.223172266920462 -0.003344807203967 -0.009008857639696
0.223069318616592 -0.001347605736557 -0.008371412961323
0.222975318171517 0.000479688772657 -0.007591120308105
0.222891595567911 0.002111213460419 -0.006679507046212
0.222819366280892 0.003523280947889 -0.005649866633203
0.222759694707558 0.004695091528463 -0.004516885758043
0.222713468812998 0.005609233006730 -0.003296058179299
0.222681382060015 0.006252050935887 -0.002002513518752
0.222663922647151 0.006613925659626 -0.000647275195318
0.222661391076657 0.006689534991176 0.000795126364461
0.222673727223914 0.006477443074561 0.002184943054537
0.222700754999788 0.005980867476079 0.003512573111349
0.222742082989613 0.005207308218671 0.004775408922910
0.222797096395825 0.004168361678324 0.005959449370129
0.222864976752014 0.002879522187903 0.007049088383405
0.222944719865317 0.001359871873449 0.008029045631275
0.223035158617547 -0.000368344252872 0.008885164178978
0.223134993883902 -0.002280306000977 0.009604871431258
0.223242840887683 -0.004349506083128 0.010177495357224
0.223357314638388 -0.006549393444276 0.010594498570487
0.223477264010922 -0.008857884145336 0.010849658486846
0.223603909779524 -0.011298589370092 0.010939287051422
0.224430697753757 -0.011255833115377 0.010891962545443
0.224556642254545 -0.013686111585884 0.010814819793448
0.224675645420822 -0.015985598742968 0.010572228743230
0.224788928806574 -0.018177781954736 0.010167977934129
0.224895356617872 -0.020240644362236 0.009608152856780
0.224993564050202 -0.022147710238923 0.008901121365775
0.225082190047526 -0.023872536676420 0.008057376662774
0.225159961979718 -0.025390350769750 0.007089312397413
0.225225741271182 -0.026678935332514 0.006010912249633
0.225278553421144 -0.027719216307827 0.004837293951627
0.225317609384092 -0.028495689800060 0.003583917288603
0.225342320236065 -0.028996740582696 0.002264663551190
0.225352300589919 -0.029214888923783 0.000882091589176
0.225347391028503 -0.029146883225313 -0.000554255562551
0.225327763153630 -0.028793448909984 -0.001905245548844
0.225293673970732 -0.028160012755985 -0.003196208069166
0.225245627805359 -0.027256096009927 -0.004416121199897
0.225184340152412 -0.026095216039202 -0.005549855135790
0.225110720763181 -0.024694629376941 -0.006581898949466
0.225025853714083 -0.023074969035154 -0.007497528411113
0.224930971192491 -0.021259749846577 -0.008283392012942
0.224827416468332 -0.019274661329515 -0.008927885694068
0.224716583399778 -0.017146406054583 -0.009421422203193
0.224599784785362 -0.014900164582184 -0.009756634268046
0.224477743207765 -0.012549779445573 -0.009928540724684
0.224349009714218 -0.010067262452883 -0.009934714897864
0.224227244397475 -0.007716036987195 -0.009774501637354
0.224110994151920 -0.005468127488751 -0.009450466803705
0.224000973330786 -0.003337401523110 -0.008967522644131
0.223898482580511 -0.001349076614865 -0.008332911087751
0.223804899920285 0.000470096486425 -0.007556086444153
0.223721549421675 0.002094369864964 -0.006648524846144
0.223649641157622 0.003500161420435 -0.005623460668530
0.223590234794514 0.004666763890501 -0.004495515325305
0.223544214350878 0.005576842468230 -0.003280113713050
0.223512270207425 0.006216803393988 -0.001992318209961
0.223494888392897 0.006577069766017 -0.000643103241385
0.223492368073964 0.006652343051998 0.000792887566653
0.223504649393232 0.006441193777613 0.002176527218368
0.223531557044194 0.005946825208693 0.003498256625225
0.223572701351825 0.005176704034337 0.004755479764765
0.223627470251029 0.004142375090454 0.005934257745851
0.223695048913069 0.002859263845369 0.007019053860036
0.223774437608214 0.001346367614641 0.007994655689271
0.223864474405535 -0.000374167457493 0.008846969219270
0.223963865954186 -0.002277631494248 0.009563477733661
0.224071233632108 -0.004337635019490 0.010133556633378
0.224185198604386 -0.006527744984297 0.010548706476436
0.224304614862100 -0.008825975601624 0.010802732334899
0.224430697753757 -0.011255833115377 0.010891962545443
0.225155272442041 -0.011218394384453 0.010837743524728
0.225280570179260 -0.013636192631002 0.010760996924381
0.225398962227846 -0.015923871217561 0.010519651653473
0.225511663868731 -0.018104796897416 0.010117476796036
0.225617545140636 -0.020157065874922 0.009560526591845
0.225715248247735 -0.022054338384497 0.008857125924000
0.225803419123431 -0.023770307310194 0.008017714108355
0.225880791672941 -0.025280326963487 0.007054621149363
0.225946233167606 -0.026562294250029 0.005981758916487
0.225998774111010 -0.027597233064060 0.004814167507736
0.226037629509632 -0.028369719127198 0.003567227317589
0.226062213463815 -0.028868196860672 0.002254748351998
0.226072142565496 -0.029085224943243 0.000879276320274
0.226067258216181 -0.029017568474854 -0.000549694749102
0.226047731136454 -0.028665949152936 -0.001893746988218
0.226013817011947 -0.028035765887510 -0.003178080020780
0.225966017578342 -0.027136491030670 -0.004391728524116
0.225905044656256 -0.025981572533990 -0.005519640389164
0.225831803325126 -0.024588178313020 -0.006546384341904
0.225747372094307 -0.022976835422936 -0.007457311765951
0.225652976823511 -0.021170937940609 -0.008239139717598
0.225549953884564 -0.019196043460803 -0.008880323726364
0.225439689977747 -0.017078717428258 -0.009371325774423
0.225323491159973 -0.014844011093491 -0.009704816422699
0.225202076303240 -0.012505695904111 -0.009875840087054
0.225074003895593 -0.010035927396184 -0.009881982553965
0.224952863881029 -0.007696776193074 -0.009722592037596
0.224837210616074 -0.005460410398086 -0.009400221222019
0.224727754785539 -0.003340626362586 -0.008919757128554
0.224625790356643 -0.001362512111456 -0.008288404496798
0.224532688272027 0.000447318979032 -0.007515569085564
0.224449765803744 0.002063251216512 -0.006612668094205
0.224378226810642 0.003461823601972 -0.005592867934959
0.224319125517395 0.004622435211207 -0.004470714936384
0.224273341402826 0.005527840256825 -0.003261554783495
0.224241561302329 0.006164514787310 -0.001980372504564
0.224224268748740 0.006522931081225 -0.000638086167904
0.224221761372416 0.006597817815838 0.000790530387716
0.224233979623350 0.006387752857619 0.002167064626228
0.224260749095286 0.005895923022648 0.003482006547942
0.224301682114301 0.005129756656289 0.004732773461770
0.224356169758441 0.004100739308186 0.005905498057049
0.224423401383363 0.002824217232160 0.006984723411085
0.224502382393254 0.001319090186739 0.007955315226253
0.224591956824057 -0.000392609411069 0.008803251865345
0.224690837966677 -0.002286298577263 0.009516080889161
0.224797654278704 -0.004335723353747 0.010083232259202
0.224911034005959 -0.006514586433398 0.010496250180720
0.225029837024631 -0.008801014932917 0.010748971538632
0.225155272442041 -0.011218394384453 0.010837743524728
0.225794332059364 -0.011185408594978 0.010776098827636
0.225918892304203 -0.013588975875957 0.010699803951592
0.226036587506735 -0.015863189370776 0.010459879219493
0.226148625794848 -0.018031278297893 0.010060071530845
0.226253883858121 -0.020071467785641 0.009506399490658
0.226351011892609 -0.021957573102173 0.008807138982439
0.226438663801638 -0.023663441973105 0.007972667877073
0.226515580942559 -0.025164573772448 0.007015243605598
0.226580637253862 -0.026438995502887 0.005948696153336
0.226632868945509 -0.027467842750489 0.004787977093492
0.226671495644387 -0.028235782022933 0.003548376292783
0.226695934899397 -0.028731325756653 0.002243622472579
0.226705805559186 -0.028947076429426 0.000876246358350
0.226700949958757 -0.028879818181555 -0.000544313902507
0.226681537813848 -0.028530268462621 -0.001880455158495
0.226647823305143 -0.027903794405093 -0.003157228710362
0.226600305215151 -0.027009812607566 -0.004363733776446
0.226539691174769 -0.025861691868054 -0.005485006843182
0.226466880936210 -0.024476499053141 -0.006505707463787
0.226382946660809 -0.022874640397410 -0.007411273242450
0.226289106992967 -0.021079372282082 -0.008188499417800
0.226186690438734 -0.019116101871979 -0.008825909469180
0.226077075536384 -0.017011238249775 -0.009314021518765
0.225961560655484 -0.014789685216344 -0.009645549267970
0.225840860436809 -0.012465133161667 -0.009815566300824
0.225713541853029 -0.010009901512077 -0.009821672613670
0.225593114858826 -0.007684518364379 -0.009663220257031
0.225478142319665 -0.005461315638177 -0.009342746890087
0.225369330737325 -0.003354008480624 -0.008865110769543
0.225267966462838 -0.001387537250512 -0.008237474228481
0.225175412369586 0.000411641320077 -0.007469187664176
0.225092977976267 0.002018062310675 -0.006571601075265
0.225021860055910 0.003408402811819 -0.005557803377546
0.224963106628111 0.004562183154684 -0.004442255281059
0.224917591995150 0.005462259059193 -0.003240212147354
0.224885998949762 0.006095186174716 -0.001966570804034
0.224868808178750 0.006451492859219 -0.000632185056544
0.224866315560641 0.006525938816549 0.000788022777197
0.224878461895935 0.006317110283740 0.002156454846149
0.224905073804917 0.005828175319529 0.003463657125716
0.224945765895482 0.005066518546638 0.004707062126319
0.224999932829741 0.004043557911693 0.005872884159169
0.225066768734738 0.002774549341700 0.006945757279773
0.225145284868773 0.001278281352733 0.007910636269760
0.225234332071697 -0.000423343319231 0.008753582022151
0.225332631207883 -0.002305886383651 0.009462215391797
0.225438818807708 -0.004343248411115 0.010026028554595
0.225551531191028 -0.006509286878327 0.010436615485922
0.225669634944710 -0.008782257644018 0.010687849346294
0.225794332059364 -0.011185408594978 0.010776098827636
0.226360083464533 -0.011156244376341 0.010706373545010
0.226483807716154 -0.013543679977856 0.010630590726396
0.226600713000594 -0.015802629958556 0.010392276262877
0.226711999337319 -0.017956167632667 0.009995151906429
0.226816550955073 -0.019982664271822 0.009445195867850
0.226913027109194 -0.021856110884500 0.008750628486580
0.227000090737416 -0.023550530718806 0.007921757981829
0.227076491644541 -0.025041587586104 0.006970759518187
0.227141111326684 -0.026307455962111 0.005911370260234
0.227192992462341 -0.027329398042486 0.004758441432837
0.227231359915917 -0.028092183246522 0.003527160283896
0.227255635145467 -0.028584401110092 0.002231163393683
0.227265439557758 -0.028798703759868 0.000872964502557
0.227260616545970 -0.028731896919580 -0.000538061586750
0.227241334686783 -0.028384693223603 -0.001865235254174
0.227207846454934 -0.027762423782592 -0.003133439667225
0.227160647285325 -0.026874441995100 -0.004331847205458
0.227100440059546 -0.025734026933687 -0.005445594783789
0.227028118491073 -0.024358130919683 -0.006459444913721
0.226944747545369 -0.022767023230063 -0.007358932935797
0.226851537687832 -0.020983804159510 -0.008130942713158
0.226749808508168 -0.019033710351205 -0.008764074750472
0.226640929292513 -0.016942973641751 -0.009248910808081
0.226526189696352 -0.014736330688738 -0.009578213489810
0.226406299564108 -0.012427379998308 -0.009747089443610
0.226279835486294 -0.009988626776551 -0.009753154773588
0.226160216744759 -0.007678850571028 -0.009595765879016
0.226046015850380 -0.005470568997252 -0.009277443387428
0.225937934563206 -0.003377405152376 -0.008803012949063
0.225837250600853 -0.001424132006549 -0.008179588826592
0.225745317689699 0.000362971274019 -0.007416458661565
0.225663436559532 0.001958610678136 -0.006524896276452
0.225592795951171 0.003339619829379 -0.005517902740044
0.225534436850367 0.004485656509393 -0.004409841708496
0.225489227691472 0.005379691502920 -0.003215866156126
0.225457846684618 0.006008370691858 -0.001950772929627
0.225440771290450 0.006362286003641 -0.000625342988505
0.225438295401690 0.006436232312665 0.000785333039022
0.225450360216159 0.006228805344514 0.002144580797770
0.225476793517790 0.005743151895318 0.003443009714371
0.225517212501059 0.004986607025480 0.004678069531101
0.225571015890836 0.003970512049423 0.005836067082608
0.225637403222829 0.002710020503127 0.006901739553816
0.225715392391333 0.001223794802462 0.007860142703202
0.225803841948855 -0.000466409318060 0.008697430976899
0.225901481344759 -0.002336317586886 0.009401308313099
0.226006956260426 -0.004360005742418 0.009961337411564
0.226118912168130 -0.006511506718404 0.010369168665186
0.226236223261705 -0.008769222310622 0.010618716355115
0.226360083464533 -0.011156244376341 0.010706373545010
0.226861700260103 -0.011130428055347 0.010627750028533
0.226984480243768 -0.013499642662138 0.010552545587127
0.227100493302856 -0.015741352255013 0.010316049948200
0.227210930298240 -0.017878454051829 0.009921956459181
0.227314683974272 -0.019889484395454 0.009376197704948
0.227410423818901 -0.021748632795933 0.008686931287013
0.227496822974368 -0.023430120756876 0.007864386751886
0.227572640787011 -0.024909797824320 0.006920646342859
0.227636767289407 -0.026166005047170 0.005869342381979
0.227688252466363 -0.027180147628684 0.004725212749026
0.227726327098148 -0.027937111228497 0.003503328782277
0.227750417058270 -0.028425572467558 0.002217222987129
0.227760146642932 -0.028638239551773 0.000869389918986
0.227755360440544 -0.028571942583702 -0.000530867168254
0.227736225741202 -0.028227388758871 -0.001847911798323
0.227702993092749 -0.027609868500705 -0.003106437229497
0.227656154148906 -0.026728663822280 -0.004295698478123
0.227596406426848 -0.025596952449797 -0.005400945894718
0.227524636819198 -0.024231557323858 -0.006407058283847
0.227441902163562 -0.022652593025581 -0.007299681380857
0.227349403687023 -0.020882983547368 -0.008065799151719
0.227248450908132 -0.018947772925428 -0.008694099102461
0.227140402662583 -0.016872992794039 -0.009175234873771
0.227026538763163 -0.014683191019727 -0.009502024305541
0.226907563636737 -0.012391862324345 -0.009669611391964
0.226782064737333 -0.009971721755242 -0.009675630431124
0.226663358930353 -0.007679573845128 -0.009519442734279
0.226550029621323 -0.005488145956065 -0.009203549691441
0.226442773214436 -0.003410957213240 -0.008732740123314
0.226342857675719 -0.001472591518597 -0.008114073996259
0.226251626399863 0.000300872525201 -0.007356768068208
0.226170370189438 0.001884333951765 -0.006472010119414
0.226100268712751 0.003254803191296 -0.005472701994039
0.226042355010712 0.004392093277984 -0.004373097724297
0.225997490889750 0.005279304964155 -0.003188234636459
0.225966349383873 0.005903186050821 -0.001932796647148
0.225949404309730 0.006254400268165 -0.000617482435198
0.225946947317043 0.006327782216288 0.000782427261945
0.225958920052412 0.006121938338248 0.002131301192715
0.225985151614130 0.005639991413714 0.003419820452937
0.226025262118259 0.004889220521642 0.004645454248546
0.226078654878623 0.003880880419134 0.005794613920924
0.226144535540101 0.002630008989837 0.006852153141350
0.226221929492455 0.001155126217389 0.007803241723290
0.226309703999759 -0.000522178204250 0.008634139782647
0.226406598208268 -0.002377815265644 0.009332645101599
0.226511268135570 -0.004386058560096 0.009888400037762
0.226622369591744 -0.006521139202940 0.010293118708529
0.226738785362816 -0.008761623828231 0.010540761841477
0.226861700260103 -0.011130428055347 0.010627750028533
0.227306227777966 -0.011107596863250 0.010539193203362
0.227427942792832 -0.013456261380690 0.010464641070104
0.227542949578058 -0.015678526836972 0.010230196746619
0.227652428665233 -0.017797091844106 0.009839521544989
0.227755282402818 -0.019790678916391 0.009298496592047
0.227850191819357 -0.021633701438852 0.008615208731916
0.227935841565986 -0.023300604512575 0.007799798782083
0.228011001750224 -0.024767447159760 0.006864244186901
0.228074572032280 -0.026012758294683 0.005822059024406
0.228125610637201 -0.027018104408116 0.004687853340985
0.228163355017314 -0.027768502258433 0.003476567749166
0.228187236025984 -0.028252726683286 0.002201617376127
0.228196881218192 -0.028463549136132 0.000865475140001
0.228192136530357 -0.028397827214583 -0.000522636399860
0.228173167801536 -0.028056261980091 -0.001828257250610
0.228140223406368 -0.027444097968018 -0.003075866486186
0.228093790734071 -0.026570536681132 -0.004254812322754
0.228034561251697 -0.025448641544695 -0.005350473046316
0.227963414159139 -0.024095089580518 -0.006347858619632
0.227881397127209 -0.022529820899902 -0.007232739284046
0.227789700963788 -0.020775560657166 -0.007992211903979
0.227689623828926 -0.018857135661602 -0.008615062107750
0.227582512772054 -0.016800351754347 -0.009092024604480
0.227469636505118 -0.014629543878686 -0.009415979530671
0.227351693344927 -0.012358089705978 -0.009582113000528
0.227227282997648 -0.009958940947746 -0.009588079831758
0.227109606820881 -0.007686674666010 -0.009433246875473
0.226997260507406 -0.005514254780189 -0.009120093825137
0.226890934420946 -0.003455083153307 -0.008653367964186
0.226791885529448 -0.001533530451503 -0.008040068022260
0.226701445575266 0.000224550923094 -0.007289330812992
0.226620894164811 0.001794277724813 -0.006412247076086
0.226551400734186 0.003152859790745 -0.005421606747713
0.226493989363910 0.004280285252746 -0.004331540223488
0.226449514385279 0.005159801443806 -0.003156954398948
0.226418642994540 0.005778271111836 -0.001912405825387
0.226401844898550 0.006126438967940 -0.000608500383459
0.226399409217321 0.006199184415854 0.000779266779497
0.226411278103600 0.005995125986069 0.002116440850017
0.226437282138046 0.005517359371893 0.003393783754221
0.226477044731757 0.004773100515021 0.004608786649641
0.226529974374093 0.003773506551062 0.005747978742940
0.226595283600009 0.002533484928095 0.006796345081598
0.226672006252840 0.001071394991159 0.007739184113125
0.226759019421782 -0.000591360830436 0.008562875130404
0.226855073189481 -0.002430902470459 0.009255321755190
0.226958835230957 -0.004421726667872 0.009806256185197
0.227068973015523 -0.006538288052116 0.010207464407894
0.227184379019691 -0.008759339165935 0.010452959534285
0.227306227777966 -0.011107596863250 0.010539193203362
0.227699169083336 -0.011087468745971 0.010439370931478
0.227819682394726 -0.013412944683772 0.010365554858252
0.227933553707440 -0.015613269509907 0.010133425225020
0.228041951897572 -0.017710917730916 0.009746607195396
0.228143790150796 -0.019684821935660 0.009210923831307
0.228237762517983 -0.021509648128154 0.008534382134728
0.228322566636829 -0.023160093715340 0.007727022801924
0.228396984757691 -0.024612454090880 0.006800705022847
0.228459927404537 -0.025845470155044 0.005768809449802
0.228510462100643 -0.026840890394330 0.004645801882852
0.228547833827038 -0.027583879498023 0.003446475424491
0.228571479056325 -0.028063323130831 0.002184112753120
0.228581029020668 -0.028272064114314 0.000861162371524
0.228576331177571 -0.028206991071308 -0.000513244216118
0.228557549728745 -0.027868798141624 -0.001805974552768
0.228524930596604 -0.027262678080844 -0.003041266028228
0.228478956358328 -0.026397741544458 -0.004208572024700
0.228420311654052 -0.025286922981336 -0.005293415189705
0.228349867003247 -0.023946734759526 -0.006280953484014
0.228268659732976 -0.022396920119787 -0.007157097640677
0.228177868894165 -0.020659979848910 -0.007909071917956
0.228078779830012 -0.018760495638827 -0.008525772664686
0.227972726290402 -0.016724018547246 -0.008998026067053
0.227860964461175 -0.014574643256330 -0.009318782556622
0.227744185764595 -0.012325615358466 -0.009483275775533
0.227621003732056 -0.009950153615402 -0.009489183695692
0.227504489382947 -0.007700321626535 -0.009335879419349
0.227393252274903 -0.005549350240984 -0.009025818157727
0.227287975955622 -0.003510509003950 -0.008563700323898
0.227189904982890 -0.001607927967758 -0.007956455548404
0.227100357950649 0.000132795708595 -0.007213130436282
0.227020601831639 0.001687024454001 -0.006344706227347
0.226951794516012 0.003032193114911 -0.005363846581561
0.226894949973447 0.004148487402186 -0.004284542383851
0.226850914100348 0.005019320049432 -0.003121553352609
0.226820347505674 0.005631683509851 -0.001889292320969
0.226803715258823 0.005976413872861 -0.000598260456752
0.226801303625297 0.006048441098313 0.000775805154049
0.226813055328976 0.005846397356073 0.002099777182644
0.226838802623211 0.005373347775386 0.003364508763502
0.226878172637197 0.004636437054294 0.004567515824185
0.226930579700332 0.003646712172985 0.005695460569732
0.226995244122286 0.002418933396941 0.006733476291622
0.227071209285347 0.000971278807707 0.007667006587138
0.227157363365312 -0.000675060473550 0.008482565227651
0.227252468785375 -0.002496440150677 0.009168175263564
0.227355206374724 -0.004467608758666 0.009713670267544
0.227464256758867 -0.006563273138737 0.010110917324755
0.227578523348999 -0.008762395611724 0.010353988655305
0.227699169083336 -0.011087468745971 0.010439370931478
0.228044877811754 -0.011069822292267 0.010326533731268
0.228164031594500 -0.013369064189097 0.010253550388175
0.228276618307948 -0.015544566822623 0.010024039443966
0.228383793641926 -0.017618551161123 0.009641585166239
0.228484483042624 -0.019570187458065 0.009111944926095
0.228577395293518 -0.021374427514053 0.008443035397321
0.228661242724448 -0.023006254178355 0.007644784005593
0.228734821323387 -0.024442230259835 0.006728916155570
0.228797053904844 -0.025661336485838 0.005708661550423
0.228847018511504 -0.026645527240906 0.004598322799367
0.228883968641879 -0.027380134573681 0.003412526121699
0.228907347125806 -0.027854169531344 0.002164404351944
0.228916789355577 -0.028060555676652 0.000856378370961
0.228912144509548 -0.027996216732352 -0.000502523330931
0.228893574937048 -0.027661839007560 -0.001780670183803
0.228861323786203 -0.027062556677606 -0.003002026151847
0.228815868190168 -0.026207377619319 -0.004156163595234
0.228757885065549 -0.025109090366120 -0.005228768482657
0.228688235111360 -0.023784021007571 -0.006205166210146
0.228607943952419 -0.022251690057985 -0.007071426453874
0.228518177338605 -0.020534344469421 -0.007814917597151
0.228420206112966 -0.018656288624079 -0.008424661250757
0.228315348979158 -0.016642785334371 -0.008891587092041
0.228204847951799 -0.014517657466756 -0.009208725079801
0.228089386653117 -0.012294001188119 -0.009371362626170
0.227967594255463 -0.009945337383351 -0.009377203898200
0.227852394322108 -0.007720886084782 -0.009225629070269
0.227742412096474 -0.005594180128314 -0.008919065655994
0.227638323415056 -0.003578339363431 -0.008462161042387
0.227541358795598 -0.001697221627736 -0.007861766685795
0.227452821956786 0.000023864685142 -0.007126827135152
0.227373965578453 0.001560559944210 -0.006268199749271
0.227305934488418 0.002890553556783 -0.005298405327474
0.227249731217618 0.003994254761674 -0.004231276921429
0.227206192119773 0.004855263415915 -0.003081407742944
0.227175970351413 0.005460718712785 -0.001863048031831
0.227159525735419 0.005801560121142 -0.000586580490672
0.227157141307892 0.005872774796719 0.000771984080990
0.227168760438848 0.005673010340077 0.002081020183620
0.227194217274016 0.005205297302279 0.003331484138840
0.227233143149001 0.004476699780964 0.004520919897407
0.227284959000238 0.003498140133689 0.005636140130012
0.227348893933202 0.002284212113178 0.006662445841691
0.227424002121925 0.000852888731327 0.007585444842679
0.227509184284862 -0.000774877950896 0.008391803044503
0.227603216806494 -0.002575710372171 0.009069678611322
0.227704795397771 -0.004524641933033 0.009609019804784
0.227812615568262 -0.006596664810601 0.010001785458681
0.227925593099944 -0.008770978654903 0.010242114665290
0.228044877811754 -0.011069822292267 0.010326533731268
0.228346829102418 -0.011054483154707 0.010198325595965
0.228464437101243 -0.013323896949808 0.010126289066944
0.228575563225466 -0.015471176753036 0.009899755571867
0.228681348172130 -0.017518255259696 0.009522262879574
0.228780731327629 -0.019444572947890 0.008999493670696
0.228872438226413 -0.021225406568909 0.008339261915888
0.228955197903287 -0.022836063519917 0.007551366252173
0.229027821965891 -0.024253410660832 0.006647379970348
0.229089247203078 -0.025456701402358 0.005640361144435
0.229138563618101 -0.026428124235093 0.004544426835672
0.229175034393846 -0.027153201495245 0.003374013517181
0.229198109588329 -0.027621086789856 0.002142083651014
0.229207429323903 -0.027824795484416 0.000851026711905
0.229202844735536 -0.027761291210265 -0.000490245936575
0.229184516066395 -0.027431251373019 -0.001751811369978
0.229152683310243 -0.026839743542272 -0.002957322667605
0.229107817410379 -0.025995658735522 -0.004096487467566
0.229050586501759 -0.024911619580342 -0.005155177434709
0.228981840117534 -0.023603740367676 -0.006118908338936
0.228902590577076 -0.022091288371893 -0.006973930574732
0.228813988506972 -0.020396221934988 -0.007707776395571
0.228717288263603 -0.018542530138025 -0.008309609835053
0.228613791443061 -0.016555148058548 -0.008770478239965
0.228504723947290 -0.014457589508591 -0.009083501991560
0.228390760529873 -0.012262780758255 -0.009244029638451
0.228270548146933 -0.009944586206415 -0.009249795131566
0.228156842704147 -0.007748992749955 -0.009100186686291
0.228048287279678 -0.005649876583716 -0.008797600324070
0.227945548942380 -0.003660187353166 -0.008346623141289
0.227849842246474 -0.001803473387803 -0.007754017710242
0.227762453997482 -0.000104714755060 -0.007028612542090
0.227684620624200 0.001412044931949 -0.006181124142954
0.227617472102579 0.002724784516214 -0.005223910879630
0.227561997957706 0.003814167387804 -0.004170626347385
0.227519023693270 0.004664006163067 -0.003035674440058
0.227489193992392 0.005261606878732 -0.001833120528872
0.227472962712664 0.005598026546072 -0.000573212621445
0.227470609218353 0.005668317352529 0.000767727270402
0.227482077614138 0.005471144443363 0.002059781226833
0.227507204197378 0.005009499054250 0.003294022893256
0.227545625086367 0.004290353640178 0.004468028082791
0.227596768729742 0.003324488862785 0.005568780545565
0.227659874233802 0.002126309149809 0.006581771976909
0.227734008042797 0.000713554348976 0.007492796897164
0.227818085136178 -0.000893095290165 0.008288694201199
0.227910897772410 -0.002670565483771 0.008957775677498
0.228011158583005 -0.004594213524468 0.009490119989071
0.228117580000708 -0.006639356016260 0.009877790287887
0.228229091873073 -0.008785462452447 0.010115001699873
0.228346829102418 -0.011054483154707 0.010198325595965
0.228607810787493 -0.011041314911819 0.010051471791437
0.228723647206892 -0.013276543559419 0.009980520379363
0.228833099390930 -0.015391477971535 0.009757399254900
0.228937290853844 -0.017407720461931 0.009385592895964
0.229035176958503 -0.019305021205552 0.008870698382549
0.229125502437173 -0.021059029370526 0.008220411980136
0.229207015469752 -0.022645424309219 0.007444384724702
0.229278545565139 -0.024041421345902 0.006554015573631
0.229339045527792 -0.025226586405996 0.005562165901610
0.229387619068630 -0.026183376282462 0.004482740118562
0.229423540469532 -0.026897531394726 0.003329957234862
0.229446268072523 -0.027358368733674 0.002116584453470
0.229455447420947 -0.027559008877321 0.000844975255444
0.229450931892188 -0.027496461195125 -0.000476093231316
0.229432879315605 -0.027171392888652 -0.001718655166760
0.229401526069831 -0.026588795192533 -0.002906007333773
0.229357336004144 -0.025757425195081 -0.004028012408698
0.229300967189099 -0.024689715383848 -0.005070754877522
0.229233256360967 -0.023401537313341 -0.006019968692277
0.229155200590124 -0.021911868026765 -0.006862111363619
0.229067933170775 -0.020242335098247 -0.007584902952003
0.228972689564397 -0.018416566251094 -0.008177670717809
0.228870751760586 -0.016459120955149 -0.008631596865459
0.228763327195002 -0.014393158823869 -0.008939905406835
0.228651080457127 -0.012231411413439 -0.009098014957344
0.228532678884560 -0.009948136814435 -0.009103693602378
0.228420686235335 -0.007785616518243 -0.008956338772896
0.228313766027503 -0.005718120233719 -0.008658310398048
0.228212575281581 -0.003758402540301 -0.008214126476834
0.228118310256437 -0.001929657048960 -0.007630447714037
0.228032238373895 -0.000256487541723 -0.006915969633190
0.227955577437897 0.001237424547489 -0.006081247313115
0.227889440403084 0.002530389775744 -0.005138452961259
0.227834801888905 0.003603362808710 -0.004101034502964
0.227792474964136 0.004440400100194 -0.002983178860073
0.227763094600759 0.005028998901508 -0.001798739531130
0.227747107819717 0.005360350935975 -0.000557810153641
0.227744789777094 0.005429582922048 0.000762930588940
0.227756085419545 0.005235380112472 0.002035521785793
0.227780833510349 0.004780688684666 0.003251171543808
0.227818675649108 0.004072376064555 0.004407492192667
0.227869048893978 0.003121060520075 0.005491663551817
0.227931203812928 0.001940929498928 0.006489395861368
0.228004220912753 0.000549455625951 0.007386697624857
0.228087031517032 -0.001032992364723 0.008170605988491
0.228178446076956 -0.002783687767024 0.008829608805267
0.228277196616218 -0.004678359077188 0.009353934187525
0.228382014962736 -0.006692694715732 0.009735764843357
0.228491847084227 -0.008806473435735 0.009969403038715
0.228607810787493 -0.011041314911819 0.010051471791437
0.228830060674254 -0.011030213308863 0.009881232154814
0.228943842463502 -0.013225794942175 0.009811539232180
0.229051353256753 -0.015303216039963 0.009592375683340
0.229153696640087 -0.017283695748368 0.009227164180838
0.229249846505460 -0.019147343420403 0.008721402527343
0.229338569850252 -0.020870240143220 0.008082650477049
0.229418637058319 -0.022428496652825 0.007320387882208
0.229488898399964 -0.023799732413064 0.006445811513004
0.229548325254106 -0.024963875795523 0.005471554617525
0.229596037229453 -0.025903694763020 0.004411274978425
0.229631321480193 -0.026605182662036 0.003278939398632
0.229653645955924 -0.027057845971637 0.002087088624866
0.229662662487108 -0.027254927292499 0.000838034393686
0.229658227051826 -0.027193489039914 -0.000459601849922
0.229640494679962 -0.026874186581067 -0.001680124039741
0.229609697557421 -0.026301922619354 -0.002846415735656
0.229566291306029 -0.025485298915621 -0.003948519423185
0.229510922323918 -0.024436527438140 -0.004972766412540
0.229444412505881 -0.023171198222233 -0.005905143697522
0.229367741236916 -0.021707951708804 -0.006732348996547
0.229282021709603 -0.020068031856309 -0.007442320183555
0.229188467471616 -0.018274647295053 -0.008024573824954
0.229088337773462 -0.016351921875169 -0.008470448529419
0.228982818634104 -0.014322604420139 -0.008773288496849
0.228872562854973 -0.012199200662184 -0.008928593604235
0.228756261411556 -0.009956425284924 -0.008934171525202
0.228646255214217 -0.007832262350146 -0.008789430378681
0.228541231486646 -0.005801437953673 -0.008496688234952
0.228441835595560 -0.003876480442607 -0.008060382955724
0.228349242581377 -0.002080172034917 -0.007487057102582
0.228264697385226 -0.000436680106942 -0.006785251963588
0.228189396210445 0.001030733953083 -0.005965335398524
0.228124432270817 0.002300765415285 -0.005039263712234
0.228070762898633 0.003354706758936 -0.004020246299614
0.228029186740991 0.004176897233971 -0.002922218444226
0.228000327507159 0.004755055857225 -0.001758787920376
0.227984624289115 0.005080530587436 -0.000539869331274
0.227982347362406 0.005148534582116 0.000757444981467
0.227993442650187 0.004957776414131 0.002007463793424
0.228017751775649 0.004511150003545 0.003201551156300
0.228054922695462 0.003815400966403 0.004337361750702
0.228104402452876 0.002880959230795 0.005402302792000
0.228165454908789 0.001721760596814 0.006382337982657
0.228237176879366 0.000354967771381 0.007263723998165
0.228318518643661 -0.001199411798570 0.008033727911296
0.228408311752300 -0.002919054518318 0.008681041769934
0.228505310719504 -0.004780119396055 0.009196067013727
0.228608269867194 -0.006758726075092 0.009571125008747
0.228716153858818 -0.008835011979672 0.009800619083602
0.228830060674254 -0.011030213308863 0.009881232154814
0.229015366145322 -0.011021103661360 0.009680368388851
0.229126722805176 -0.013169888969953 0.009612160891577
0.229231942128177 -0.015203032200411 0.009397668564451
0.229332104178726 -0.017141300236916 0.009040241129642
0.229426204719104 -0.018965226378993 0.008545259210415
0.229513037026737 -0.020651401518210 0.007920121433398
0.229591397693352 -0.022176445563057 0.007174105598582
0.229660161494432 -0.023518454993047 0.006318169829729
0.229718321732785 -0.024657785983693 0.005364678111617
0.229765016781657 -0.025577573779079 0.004326997126802
0.229799548988733 -0.026264110261572 0.003218795991695
0.229821397643661 -0.026707125567700 0.002052348161268
0.229830221997741 -0.026900006324416 0.000829916100044
0.229825881098716 -0.026839877558290 -0.000440062503283
0.229808526672186 -0.026527380668100 -0.001634570651148
0.229778385955275 -0.025967313861698 -0.002776004166392
0.229735904858750 -0.025168095563180 -0.003854617767625
0.229681716003502 -0.024141677456611 -0.004857034097632
0.229616623766573 -0.022903317293445 -0.005769538821500
0.229541586658481 -0.021471258214793 -0.006579113180643
0.229457694145374 -0.019866291388305 -0.007273952139495
0.229366133909538 -0.018111130778735 -0.007843795706927
0.229268138361988 -0.016229386063796 -0.008280167099313
0.229164868243042 -0.014243321201675 -0.008576552377362
0.229056962440411 -0.012165175379139 -0.008728547333067
0.228943139829951 -0.009970202207561 -0.008734006366995
0.228835478289560 -0.007891313389192 -0.008592350213347
0.228732693023262 -0.005903773704370 -0.008305847535375
0.228635415642517 -0.004019844472733 -0.007878841606813
0.228544796143094 -0.002261822335189 -0.007317735541989
0.228462052931616 -0.000653359567948 -0.006630888581126
0.228388356715709 0.000782778230786 -0.005828447604872
0.228324777408548 0.002025740417218 -0.004922114083034
0.228272251937976 0.003057218200141 -0.003924815867282
0.228231561928836 0.003861884620562 -0.002850191226465
0.228203317796741 0.004427720450501 -0.001711557900658
0.228187949274925 0.004746258057113 -0.000518619174585
0.228185720878318 0.004812812624010 0.000751044359464
0.228196579682663 0.004626120249361 0.001974420442523
0.228220370686770 0.004189013172614 0.003143057191708
0.228256749350715 0.003508093234683 0.004254659275441
0.228305174503390 0.002593568061605 0.005296902309970
0.228364925695662 0.001459076427750 0.006256049165471
0.228435118994030 0.000121415236464 0.007118649440763
0.228514727051157 -0.001399834501287 0.007872241596478
0.228602606321838 -0.003082824992808 0.008505758696633
0.228697537866407 -0.004904223389909 0.009009806763271
0.228798302556995 -0.006840658318536 0.009376870823811
0.228903887124071 -0.008872690551138 0.009601473493543
0.229015366145322 -0.011021103661360 0.009680368388851
0.229165136233204 -0.011013942484374 0.009436986185808
0.229273553547155 -0.013106008928546 0.009370579078631
0.229375995524048 -0.015085485757445 0.009161748443798
0.229473513719139 -0.016972591697145 0.008813755584949
0.229565130402349 -0.018748373885914 0.008331839099599
0.229649670703487 -0.020390041116999 0.007723202321858
0.229725962979180 -0.021874830434643 0.006996878156945
0.229792911706090 -0.023181416478870 0.006163535480399
0.229849536759582 -0.024290673939260 0.005235211919976
0.229894999256214 -0.025186183218290 0.004224921334217
0.229928619958747 -0.025854598034782 0.003145972032545
0.229949891901385 -0.026285919606322 0.002010313502511
0.229958483329755 -0.026473709125005 0.000820148489124
0.229954257012146 -0.026415167504565 -0.000416308038298
0.229937360669241 -0.026110919213560 -0.001579286211801
0.229908015540066 -0.025565635807404 -0.002690590699014
0.229866655765222 -0.024787513499321 -0.003740733452850
0.229813897267079 -0.023788188499351 -0.004716690221873
0.229750523190520 -0.022582515818698 -0.005605108671738
0.229677466745430 -0.021188257056531 -0.006393313684148
0.229595788640648 -0.019625654581413 -0.007069811826659
0.229506645208661 -0.017916822805278 -0.007624613928611
0.229411236330032 -0.016084748209979 -0.008049466957696
0.229310692106433 -0.014151107079161 -0.008338028915130
0.229205634561636 -0.012127815536707 -0.008486011845413
0.229094816387769 -0.009990780394223 -0.008491326783881
0.228989996657720 -0.007966765467891 -0.008353409754911
0.228889924488706 -0.006031688443467 -0.008074469538616
0.228795214820309 -0.004197486993493 -0.007658734764632
0.228706987293262 -0.002485869221648 -0.007112439532090
0.228626428153397 -0.000919863083859 -0.006443722432547
0.228554677206596 0.000478366737391 -0.005662462511820
0.228492776124844 0.001688519967316 -0.004780052370293
0.228441637105042 0.002692771089536 -0.003809078618907
0.228402021140433 0.003476197712095 -0.002762819533765
0.228374522534237 0.004027097863912 -0.001654241322806
0.228359559676543 0.004337227421916 -0.000492791144981
0.228357390100203 0.004402025229103 0.000743358629662
0.228367962277937 0.004220260745316 0.001934442746691
0.228391125299932 0.003794691450833 0.003072232417265
0.228426543720664 0.003131744925827 0.004154492896872
0.228473690653659 0.002241359358086 0.005169225113483
0.228531864666601 0.001136813515887 0.006103054539533
0.228600205158103 -0.000165539064787 0.006942885807671
0.228677711898463 -0.001646634229031 0.007676586310583
0.228763271527242 -0.003285200873680 0.008293381232692
0.228855697279639 -0.005058522039274 0.008784124557419
