ply
format ascii 1.0
element vertex 859
property double x
property double y
property double z
end_header
0.082468969991933 0.026862791188982 0.000536214383734
0.072009450561733 0.026577743646681 0.000554685377096
0.061062217707449 0.025709217258922 0.000564547608502
0.049258609600000 0.024196340540506 0.000565607989755
0.038117844267661 0.022248893658707 0.000557980182952
0.027665308022421 0.019876133358448 0.000541761608582
0.017855165136392 0.017084910687358 0.000517167743323
0.008773227502456 0.013907677910308 0.000484547194977
0.000526345631635 0.010386653557847 0.000444364099974
-0.006778338750689 0.006570322946954 0.000397186031478
-0.013041303662581 0.002511485003965 0.000343669110835
-0.018174782050203 -0.001734553999480 0.000284537182203
-0.022105260173294 -0.006112308750608 0.000220548685437
-0.024774881802063 -0.010570254663259 0.000152431015490
-0.026141258671173 -0.015072341889742 0.000080688869780
-0.026163314346365 -0.019706508252949 0.000003770589217
0.055244480722263 -0.008363047806564 0.000011590077297
0.055269677298183 -0.008450126385068 0.000010087919774
0.055319462331659 -0.008527530976893 0.000008691882659
0.055393533182642 -0.008597135878062 0.000007371507870
0.055490899493648 -0.008658489446362 0.000006136493754
0.055610197109410 -0.008710931581991 0.000005000830156
0.055749746082483 -0.008753811388926 0.000003979054669
0.055907599232362 -0.008786557559855 0.000003084975900
0.056081601605929 -0.008808708825419 0.000002331035836
0.056269477944262 -0.008819925827901 0.000001727918584
0.056468991980079 -0.008819985568230 0.000001284289187
0.056678355534837 -0.008808736305061 0.000001006635073
0.056898394417534 -0.008785804021545 0.000000899336035
0.057128581457880 -0.008751150296483 0.000000964199764
0.057339209217662 -0.008708951952693 0.000001197763133
0.057537539956772 -0.008658382922207 0.000001597634129
0.057722566056804 -0.008599914364610 0.000002158222910
0.057892318538974 -0.008534289640098 0.000002871551601
0.058044676878278 -0.008462401471330 0.000003727497840
0.058177606679962 -0.008385244753647 0.000004714051226
0.058289268500261 -0.008303881545130 0.000005817653362
0.058378080204611 -0.008219402425924 0.000007023701280
0.058442754852458 -0.008132868431356 0.000008317427800
0.058482315959320 -0.008045185176247 0.000009685958294
0.058496051142136 -0.007956604476158 0.000011126690925
0.058483302330812 -0.007865112036342 0.000012674540372
0.058445874378481 -0.007783660469586 0.000014110377114
0.058383849624427 -0.007710132311601 0.000015469186684
0.058297982155806 -0.007644575038208 0.000016748507571
0.058189458834923 -0.007587592820862 0.000017935672164
0.058059807642512 -0.007539854460343 0.000019016182646
0.057910848585453 -0.007501976478279 0.000019975761605
0.057744641380909 -0.007474477618936 0.000020801223762
0.057563414910024 -0.007457758727617 0.000021480966678
0.057369452971526 -0.007452098823170 0.000022005289446
0.057164852758384 -0.007457674680484 0.000022366603290
0.056950712310511 -0.007474664054158 0.000022559519864
0.056719820179113 -0.007504257660357 0.000022580262139
0.056501894013692 -0.007542351958069 0.000022431053477
0.056297430399668 -0.007588765874732 0.000022113799535
0.056105532737558 -0.007643365395986 0.000021632715284
0.055927879606547 -0.007705515718257 0.000020994619892
0.055766561125349 -0.007774390998599 0.000020208592403
0.055623673109171 -0.007849042808524 0.000019285735197
0.055501162322281 -0.007928438340392 0.000018238882764
0.055400745589057 -0.008011495740010 0.000017082194325
0.055323860922692 -0.008097129650931 0.000015830505835
0.055271640057488 -0.008184332193074 0.000014498045976
0.055244912156601 -0.008272398190013 0.000013094687207
0.055244480722263 -0.008363047806564 0.000011590077297
-0.186515676802660 0.000411776080341 0.001811530155446
-0.186513327686321 0.000389704330835 0.001810761908005
-0.186511073966127 0.000368526504358 0.001809045479726
-0.186508915845393 0.000348244566052 0.001806403337317
-0.186506880241039 0.000329111497911 0.001802875706133
-0.186504996047899 0.000311398898885 0.001798516911004
-0.186503291212855 0.000295369493292 0.001793394083127
-0.186501791547538 0.000281265972787 0.001787585774046
-0.186500520014920 0.000269304289737 0.001781180249688
-0.186499496219047 0.000259668857758 0.001774273224158
-0.186498736018260 0.000252508909330 0.001766964361046
-0.186498251238292 0.000247935782032 0.001759349765370
-0.186498049512668 0.000246021333680 0.001751487093012
-0.186498134040049 0.000246795823359 0.001743461238369
-0.186498502840452 0.000250241962338 0.001735808759146
-0.186499150434794 0.000256308177406 0.001728489847442
-0.186500066811328 0.000264900614616 0.001721588712846
-0.186501237782945 0.000275886221403 0.001715201313724
-0.186502645266196 0.000289095334217 0.001709421565513
-0.186504267632697 0.000304324968328 0.001704336587152
-0.186506080161091 0.000321343057551 0.001700024068875
-0.186508055638672 0.000339894102086 0.001696550474577
-0.186510165257218 0.000359707581637 0.001693969733804
-0.186512380355265 0.000380514321875 0.001692322367727
-0.186514678556438 0.000402104163735 0.001691635434351
-0.186517061800134 0.000424495365115 0.001691924184882
-0.186519356884080 0.000446060645095 0.001693167634369
-0.186521565796160 0.000466818643626 0.001695351007433
-0.186523666256126 0.000486559959050 0.001698441835533
-0.186525629744569 0.000505016536356 0.001702392669541
-0.186527427638676 0.000521919316168 0.001707142621645
-0.186529032951002 0.000537014573591 0.001712618661137
-0.186530421220722 0.000550072295297 0.001718737138936
-0.186531571109224 0.000560891779768 0.001725405730280
-0.186532464843387 0.000569305808659 0.001732526175400
-0.186533088551504 0.000575183814580 0.001739999116362
-0.186533432497657 0.000578434116964 0.001747737950979
-0.186533491076369 0.000579004146671 0.001755781144159
-0.186533264040982 0.000576890272548 0.001763591868422
-0.186532754863031 0.000572124903764 0.001771086037523
-0.186531971359227 0.000564781341526 0.001778207867508
-0.186530925661002 0.000554973332127 0.001784864155978
-0.186529633942306 0.000542852594875 0.001790959120329
-0.186528116108578 0.000528605918179 0.001796401833374
-0.186526395398819 0.000512451429344 0.001801109626950
-0.186524497868206 0.000494633739022 0.001805010233627
-0.186522451669456 0.000475417193380 0.001808043319156
-0.186520285861512 0.000455074684467 0.001810161580310
-0.186518027480653 0.000433860134745 0.001811331328627
-0.186515676802660 0.000411776080341 0.001811530155446
-0.186496418679539 0.000371710513266 0.005077369726864
-0.186366068238640 -0.000853031842795 0.005034740338549
-0.186241011247556 -0.002028171180445 0.004939497212756
-0.186121258988181 -0.003153598455641 0.004792887007754
-0.186008305057116 -0.004215275915634 0.004597141793895
-0.185903752803793 -0.005198132768770 0.004355276009104
-0.185809152976623 -0.006087590669084 0.004071014705707
-0.185725937840771 -0.006870182865837 0.003748716641077
-0.185655381591737 -0.007533926348252 0.003393279615505
-0.185598572041199 -0.008068588163840 0.003010014722142
-0.185556389154749 -0.008465887530782 0.002604452207719
-0.185529489132160 -0.008719646422880 0.002181924856797
-0.185518295551150 -0.008825877511861 0.001745631944634
-0.185522985902691 -0.008782901747107 0.001300284188129
-0.185543450319153 -0.008591678465477 0.000875654711838
-0.185579384771036 -0.008255069419940 0.000469534609724
-0.185630233715061 -0.007778282485123 0.000086596599207
-0.185695209920796 -0.007168700633184 -0.000267834672642
-0.185773309953249 -0.006435738348323 -0.000588547919204
-0.185863333672044 -0.005590659078200 -0.000870708985632
-0.185963909310380 -0.004646339975439 -0.001110006907763
-0.186073526858659 -0.003616958503682 -0.001302753661401
-0.186190587773463 -0.002517525601014 -0.001445956742526
-0.186313501654834 -0.001362977518909 -0.001537367666256
-0.186441026857050 -0.000164975802793 -0.001575485007181
-0.186573270995596 0.001077492662367 -0.001559462489112
-0.186700623225581 0.002274131460923 -0.001490464548805
-0.186823193853026 0.003425974907723 -0.001369311059382
-0.186939746566094 0.004521403485157 -0.001197803672182
-0.187048698847417 0.005545543051847 -0.000978575298393
-0.187148462441805 0.006483463734763 -0.000715004550172
-0.187237539839092 0.007321086558312 -0.000411143838676
-0.187314573729310 0.008045648281050 -0.000071634779260
-0.187378380051161 0.008646012148821 0.000298399606632
-0.187427972589540 0.009112899359815 0.000693506969111
-0.187462581615359 0.009439064841990 0.001108174022028
-0.187481666890953 0.009619421319782 0.001537595284651
-0.187484917373177 0.009651051776891 0.001983905141661
-0.187472319375231 0.009533754723800 0.002417315498817
-0.187444065529624 0.009269328517347 0.002833160482872
-0.187400589578864 0.008861840578281 0.003228344690308
-0.187342564685645 0.008317602590434 0.003597696400294
-0.187270888328541 0.007645033327446 0.003935900718792
-0.187186665043250 0.006854497517062 0.004237912174444
-0.187091184341846 0.005958098855482 0.004499143582246
-0.186985892003648 0.004969410576895 0.004715584884739
-0.186872350198628 0.003903101022312 0.004883888186511
-0.186752171382614 0.002774312736337 0.005001428672180
-0.186626855775265 0.001597135657450 0.005066336998060
-0.186496418679539 0.000371710513266 0.005077369726864
-0.186453921414620 0.000372650025200 0.005355272316403
-0.186312678441749 -0.000954436022065 0.005309080669519
-0.186177171257598 -0.002227774051789 0.005205878699968
-0.186047412086815 -0.003447245907835 0.005047017241081
-0.185925019336079 -0.004597640794466 0.004834914882698
-0.185811730336227 -0.005662628552749 0.004572837959565
-0.185709225421549 -0.006626412619900 0.004264822802216
-0.185619056542222 -0.007474400917087 0.003915592400806
-0.185542604369912 -0.008193609091864 0.003530453832694
-0.185481047617591 -0.008772949090975 0.003115162004277
-0.185435339783804 -0.009203448161941 0.002675709288757
-0.185406191902642 -0.009478412021406 0.002217874096545
-0.185394062947434 -0.009593520146208 0.001745123045366
-0.185399145240911 -0.009546953178476 0.001262560495852
-0.185421319734524 -0.009339750620561 0.000802447517433
-0.185460256993021 -0.008975013363369 0.000362390620273
-0.185515355050012 -0.008458384469478 -0.000052547009842
-0.185585760891379 -0.007797863857636 -0.000436595779983
-0.185670387231642 -0.007003652718782 -0.000784108930467
-0.185767933642563 -0.006087955713071 -0.001089848347810
-0.185876913727778 -0.005064726052369 -0.001349142828831
-0.185995691296085 -0.003949325918029 -0.001557996165325
-0.186122534224272 -0.002758020613844 -0.001713165789325
-0.186255719213078 -0.001506994515926 -0.001812215324803
-0.186393900860588 -0.000208883648617 -0.001853517882073
-0.186537195775007 0.001137409762499 -0.001836156467187
-0.186675189996129 0.002434043822161 -0.001761392821251
-0.186808003047529 0.003682139276129 -0.001630115328809
-0.186934295306891 0.004869105639866 -0.001444276193395
-0.187052352016244 0.005978825837489 -0.001206728341326
-0.187160452200321 0.006995122404337 -0.000921132713233
-0.187256973211848 0.007902739877108 -0.000591880353712
-0.187340444319357 0.008687848473923 -0.000224000747490
-0.187409582517311 0.009338380815079 0.000176954986665
-0.187463319179071 0.009844282730114 0.000605078881721
-0.187500820254336 0.010197703723805 0.001054396942343
-0.187521500361318 0.010393131410311 0.001519702125271
-0.187525022465036 0.010427405017401 0.002003307171723
-0.187511371734975 0.010300306218400 0.002472934791667
-0.187480756900678 0.010013783647037 0.002923529215411
-0.187433647949674 0.009572244611755 0.003351736376854
-0.187370774296449 0.008982528222436 0.003751952388353
-0.187293108415979 0.008253756754450 0.004118418225009
-0.187201847142773 0.007397161047907 0.004445666798497
-0.187098387744974 0.006425856225564 0.004728727602824
-0.186984296816205 0.005354549747828 0.004963255486317
-0.186861267066741 0.004199135692823 0.005145622791885
-0.186731045694776 0.002976021968357 0.005272985365530
-0.186595258283495 0.001700475916716 0.005343317654766
-0.186453921414620 0.000372650025200 0.005355272316403
-0.186383241449888 0.000377952084505 0.005527490456729
-0.186235247847511 -0.001012561303921 0.005479091105716
-0.186093264172694 -0.002346757818135 0.005370956655302
-0.185957303234353 -0.003624513654793 0.005204502501148
-0.185829060790018 -0.004829891026616 0.004982262828253
-0.185710357205288 -0.005945779283789 0.004707660084019
-0.185602953125098 -0.006955626875576 0.004384923513158
-0.185508474674223 -0.007844144302834 0.004019001838518
-0.185428368512766 -0.008597726633200 0.003615455786277
-0.185363869689627 -0.009204755866063 0.003180315315388
-0.185315977275291 -0.009655830401219 0.002719859201204
-0.185285436287324 -0.009943936005755 0.002240142030057
-0.185272727635434 -0.010064545659502 0.001744796104740
-0.185278052834307 -0.010015753049390 0.001239169745972
-0.185301287145536 -0.009798647360207 0.000757065923090
-0.185342085388694 -0.009416477688219 0.000295976750740
-0.185399816826743 -0.008875156803049 -0.000138792593136
-0.185473587676225 -0.008183066975121 -0.000541196761117
-0.185562258685458 -0.007350896955634 -0.000905319109775
-0.185664467272955 -0.006391434719702 -0.001225671172900
-0.185778656000865 -0.005319300365210 -0.001497358489745
-0.185903110477133 -0.004150590300443 -0.001716193855553
-0.186036015792681 -0.002902347220362 -0.001878779725620
-0.186175566284116 -0.001591529024353 -0.001982563278680
-0.186320352246784 -0.000231375668530 -0.002025839868753
-0.186470495862116 0.001179263089043 -0.002007648674677
-0.186615085440457 0.002537869054017 -0.001929311741773
-0.186754246217944 0.003845616537575 -0.001791759914433
-0.186886574545756 0.005089313299957 -0.001597038700674
-0.187010273710017 0.006252071958585 -0.001348137380842
-0.187123540482401 0.007316941855850 -0.001048891868197
-0.187224674662109 0.008267938402047 -0.000703903074872
-0.187312135224880 0.009090570828550 -0.000318440867026
-0.187384577844637 0.009772195001937 0.000101678323932
-0.187440882820324 0.010302276218251 0.000550264162964
-0.187480176238670 0.010672588772203 0.001021057130944
-0.187501844739889 0.010877356816533 0.001508601316868
-0.187505535180599 0.010913268511654 0.002015319998137
-0.187491232021471 0.010780095096088 0.002507393209556
-0.187459153968158 0.010479878337433 0.002979523543725
-0.187409793470984 0.010017236188993 0.003428196628815
-0.187343914806395 0.009399334632110 0.003847540742482
-0.187262536928269 0.008635731936245 0.004231521610431
-0.187166913873155 0.007738195713277 0.004574410847881
-0.187058509690853 0.006720467915977 0.004871000386267
-0.186938965849459 0.005597958939661 0.005116737399799
-0.186810055961395 0.004387322511096 0.005307820849531
-0.186673610731224 0.003105750744938 0.005441270646704
-0.186531333435975 0.001769240677626 0.005514964428673
-0.186383241449888 0.000377952084505 0.005527490456729
-0.186283790199773 0.000386911574973 0.005653560455500
-0.186130854401738 -0.001050037531761 0.005603544824738
-0.185984129230734 -0.002428789081559 0.005491799261393
-0.185843627923429 -0.003749215136707 0.005319786427777
-0.185711102866593 -0.004994845672980 0.005090125137130
-0.185588435216310 -0.006147998636272 0.004806352128313
-0.185477444413652 -0.007191569742479 0.004472837880216
-0.185379810887272 -0.008109758904874 0.004094696376593
-0.185297029607992 -0.008888506859034 0.003677674042165
-0.185230376868748 -0.009515807625200 0.003228002204301
-0.185180885103639 -0.009981945639950 0.002752169315906
-0.185149324209841 -0.010279672432464 0.002256432154148
-0.185136191156873 -0.010404309804285 0.001744544321328
-0.185141694188939 -0.010353887781671 0.001222032743503
-0.185165704402033 -0.010129531922363 0.000723829228592
-0.185207865088547 -0.009734599825086 0.000247342141271
-0.185267524448194 -0.009175201714376 -0.000201946175921
-0.185343758849926 -0.008459999783709 -0.000617788493255
-0.185435390997140 -0.007600039731468 -0.000994070583022
-0.185541012805406 -0.006608536582815 -0.001325120693563
-0.185659014826771 -0.005500598668797 -0.001605880915292
-0.185787625417644 -0.004292859931740 -0.001832024213183
-0.185924969060680 -0.003002932201565 -0.002000039582690
-0.186069179792976 -0.001648339680901 -0.002107288951954
-0.186218800833273 -0.000242764469658 -0.002152010748929
-0.186373958443210 0.001214982086032 -0.002133212066158
-0.186523376540993 0.002618958231838 -0.002052259098214
-0.186667184544976 0.003970377494661 -0.001910113774715
-0.186803931931969 0.005255607084415 -0.001708889912721
-0.186931761987449 0.006457195670163 -0.001451676618571
-0.187048811264899 0.007557626532893 -0.001142437904533
-0.187153322785897 0.008540381283003 -0.000785928328625
-0.187243704064203 0.009390485237609 -0.000387593742382
-0.187318565880433 0.010094872016787 0.000046555185054
-0.187376751141497 0.010642655113748 0.000510121394524
-0.187417356750089 0.011025334128596 0.000996636332406
-0.187439748863484 0.011236940331626 0.001500461889419
-0.187443562545198 0.011274051285504 0.002024102267481
-0.187428781736969 0.011136430589341 0.002532608095243
-0.187395632448054 0.010826188194866 0.003020505060201
-0.187344623573985 0.010348096270349 0.003484161429282
-0.187276544913957 0.009709560102626 0.003917509395986
-0.187192449449466 0.008920457156293 0.004314313173493
-0.187093633095180 0.007992948018595 0.004668653079577
-0.186981608792343 0.006941233550111 0.004975147124005
-0.186858072825313 0.005781238771028 0.005229090440931
-0.186724858035693 0.004530173553616 0.005426555057014
-0.186583856263798 0.003205804137309 0.005564461364452
-0.186436827667009 0.001824661774098 0.005640616125028
-0.186283790199773 0.000386911574973 0.005653560455500
-0.186154824000217 0.000399354923186 0.005753080023854
-0.185997986321216 -0.001074255347512 0.005701788334510
-0.185847517722191 -0.002488183255607 0.005587191784724
-0.185703431777517 -0.003842297599285 0.005410790353998
-0.185567525582954 -0.005119708151367 0.005175269669868
-0.185441728288887 -0.006302281732037 0.004884256704704
-0.185327905756145 -0.007372477672244 0.004542233442282
-0.185227781286486 -0.008314092774551 0.004154444340423
-0.185142887992216 -0.009112709077772 0.003726782433510
-0.185074534728583 -0.009756014291232 0.003265638029986
-0.185023780270379 -0.010234044976438 0.002777665123924
-0.184991414157317 -0.010539367730914 0.002269280122877
-0.184977946038197 -0.010667185000411 0.001744332395533
-0.184983589470197 -0.010615476550860 0.001208489877497
-0.185008212260560 -0.010385396656577 0.000697575598745
-0.185051448600925 -0.009980388579360 0.000208931803052
-0.185112630061498 -0.009406718435103 -0.000251819294961
-0.185190809446451 -0.008673269417518 -0.000678271078774
-0.185284779422581 -0.007791369036054 -0.001064153327186
-0.185393095980726 -0.006774569473400 -0.001403649584029
-0.185514108610771 -0.005638364522410 -0.001691572896277
-0.185646000468836 -0.004399812510437 -0.001923485832413
-0.185786848187133 -0.003076974601471 -0.002095787810946
-0.185934738196083 -0.001687822096551 -0.002205773454371
-0.186088176547283 -0.000246386169684 -0.002251636247310
-0.186247292723706 0.001248552159358 -0.002232357950064
-0.186400522954679 0.002688348223518 -0.002149339613195
-0.186547999960431 0.004074246510647 -0.002003567708222
-0.186688236210288 0.005392266414616 -0.001797209982430
-0.186819327619007 0.006624511365265 -0.001533434355135
-0.186939363197595 0.007753017736098 -0.001216305973226
-0.187046541141494 0.008760845700604 -0.000850700698692
-0.187139228335054 0.009632638523883 -0.000442203324142
-0.187216000115462 0.010354996460901 0.000003022129900
-0.187275669868486 0.010916755255290 0.000478415394855
-0.187317311455922 0.011309197634785 0.000977342883624
-0.187340274863691 0.011526202588313 0.001494022640739
-0.187344185844614 0.011564260361225 0.002031022758313
-0.187329027930730 0.011423128521290 0.002552502194842
-0.187295032897516 0.011104970851848 0.003052846970614
-0.187242722624052 0.010614681274435 0.003528332695439
-0.187172907059839 0.009959854008418 0.003972736753681
-0.187086666051294 0.009150618524081 0.004379664263672
-0.186985328576010 0.008199445664115 0.004743044513171
-0.186870446175196 0.007120898598435 0.005057358200176
-0.186743758410846 0.005931308645387 0.005317780422678
-0.186607144886211 0.004648324756082 0.005520282992182
-0.186462545708496 0.003290166443500 0.005661707730248
-0.186311765942325 0.001873786724702 0.005739805442144
-0.186154824000217 0.000399354923186 0.005753080023854
-0.185995372183268 0.000415269238805 0.005835060289680
-0.185835319746458 -0.001088546146865 0.005782717256297
-0.185681766938925 -0.002531455839272 0.005665771780182
-0.185534727613286 -0.003913325947312 0.005485754586455
-0.185396035701010 -0.005216920038800 0.005245406350913
-0.185267659894967 -0.006423733251670 0.004948428389274
-0.185151504301200 -0.007515865379524 0.004599394554131
-0.185049327544599 -0.008476781102212 0.004203656800828
-0.184962694162217 -0.009291766928458 0.003767228955374
-0.184892939837376 -0.009948258198178 0.003296632310640
-0.184841145046951 -0.010436087248728 0.002798657249990
-0.184808115514132 -0.010747668312532 0.002279851700367
-0.184794371334174 -0.010878105498160 0.001744143932344
-0.184800130441612 -0.010825337162088 0.001197318059220
-0.184825257934085 -0.010590541238202 0.000675931388386
-0.184869380505130 -0.010177231566066 0.000177271686641
-0.184931816023908 -0.009591802700383 -0.000292923590858
-0.185011597879581 -0.008843319916854 -0.000728116508888
-0.185107493991806 -0.007943342908927 -0.001121908323289
-0.185218030753052 -0.006905701643210 -0.001468363355919
-0.185341523822108 -0.005746207494350 -0.001762188334926
-0.185476119114599 -0.004482268440319 -0.001998854873176
-0.185619853838782 -0.003132315851221 -0.002174688586778
-0.185770775201960 -0.001714689392258 -0.002286928645140
-0.185927358633735 -0.000243707839414 -0.002333731504094
-0.186089736271142 0.001281872773414 -0.002314058052718
-0.186246107316777 0.002751180850702 -0.002229338059407
-0.186396607211282 0.004165486389012 -0.002080578215738
-0.186539717933538 0.005510522216747 -0.001869990702086
-0.186673496369588 0.006768024931370 -0.001600808371739
-0.186795992360216 0.007919662699530 -0.001277179696349
-0.186905367168634 0.008948148473055 -0.000904080480186
-0.186999954204637 0.009837810744575 -0.000487209989345
-0.187078299603592 0.010574975109705 -0.000032858590476
-0.187139192428813 0.011148248474335 0.000452278979680
-0.187181687558709 0.011548734885165 0.000961433163024
-0.187205121655632 0.011770187866574 0.001488703489285
-0.187209112801325 0.011809025723223 0.002036710689678
-0.187193644190278 0.011665001053660 0.002568879076093
-0.187158952348750 0.011340321993063 0.003079479597077
-0.187105569852966 0.010839982775423 0.003564711522285
-0.187034323254248 0.010171733281528 0.004018224688913
-0.186946314533011 0.009345910609025 0.004433493137121
-0.186842899907376 0.008375241219913 0.004804321721117
-0.186725662721044 0.007274586790591 0.005125078007799
-0.186596378192432 0.006060613388258 0.005390838197420
-0.186456964451688 0.004751331720867 0.005597491534271
-0.186309401373086 0.003365334753250 0.005741815105603
-0.186155531020303 0.001919922994502 0.005821513614137
-0.185995372183268 0.000415269238805 0.005835060289680
-0.185804192018196 0.000434723340881 0.005904421723576
-0.185641419081402 -0.001094653228443 0.005851188986642
-0.185485256251688 -0.002562088856677 0.005732255723449
-0.185335717617129 -0.003967447376895 0.005549178677698
-0.185194668281544 -0.005293199379720 0.005304745109975
-0.185064110400770 -0.006520525465688 0.005002719249311
-0.184945980445992 -0.007631221168673 0.004647752692608
-0.184842066934424 -0.008608470108522 0.004245288365360
-0.184753960996422 -0.009437308700592 0.003801442313911
-0.184683021018657 -0.010104958716307 0.003322846677161
-0.184630345843471 -0.010601079667626 0.002816407258385
-0.184596754889375 -0.010917956847476 0.002288783283268
-0.184582777091972 -0.011050611146249 0.001743969793376
-0.184588634090151 -0.010996945877520 0.001187849217789
-0.184614188688542 -0.010758158997171 0.000657600248714
-0.184659061235383 -0.010337824071446 0.000150464551618
-0.184722558005281 -0.009742444346838 -0.000327722895636
-0.184803695957376 -0.008981239186564 -0.000770313028914
-0.184901222068975 -0.008065964770588 -0.001170798341059
-0.185013637684821 -0.007010686141127 -0.001523142261913
-0.185139229834022 -0.005831483427528 -0.001821961546951
-0.185276112917304 -0.004546060500812 -0.002062650837533
-0.185422290780264 -0.003173162019297 -0.002241473294228
-0.185575777437505 -0.001731439377641 -0.002355621159075
-0.185735022404662 -0.000235454735998 -0.002403219552164
-0.185900160064776 0.001316057016115 -0.002383211700230
-0.186059189035748 0.002810339737209 -0.002297051674233
-0.186212247060380 0.004248685010683 -0.002145763277046
-0.186357790314906 0.005616583157917 -0.001931596290700
-0.186493842657185 0.006895460343197 -0.001657838519079
-0.186618420780064 0.008066673136840 -0.001328708947710
-0.186729654692725 0.009112640653132 -0.000949267957367
-0.186825849477008 0.010017425007408 -0.000525311687728
-0.186905526556135 0.010767119363853 -0.000063237426291
-0.186967454410458 0.011350136973619 0.000430146296050
-0.187010671853631 0.011757430673957 0.000947954855265
-0.187034504272889 0.011982647814440 0.001484187487520
-0.187038563258298 0.012022145819665 0.002041509470050
-0.187022831718694 0.011875673082963 0.002582723417503
-0.186987550200707 0.011545475272409 0.003102002898561
-0.186933260333053 0.011036631511755 0.003595482579759
-0.186860802716406 0.010357023410811 0.004056704361056
-0.186771298062152 0.009517163772602 0.004479031357256
-0.186666125640803 0.008529995377854 0.004856163120240
-0.186546895709032 0.007410632515119 0.005182371479317
-0.186415413659626 0.006176024533978 0.005452648942188
-0.186273630226256 0.004844488280370 0.005662814880351
-0.186123558936215 0.003434932754056 0.005809591599421
-0.185967073163758 0.001964952530473 0.005890644787680
-0.185804192018196 0.000434723340881 0.005904421723576
-0.185579717799202 0.000457845315262 0.005964154664580
-0.185414601401090 -0.001093549870316 0.005910155529604
-0.185256190276554 -0.002582112343712 0.005789509970084
-0.185104498716499 -0.004007703977590 0.005603797142345
-0.184961418676865 -0.005352542989581 0.005355844435493
-0.184828981138762 -0.006597539035092 0.005049470272614
-0.184709150452984 -0.007724225556132 0.004689393220202
-0.184603740886239 -0.008715544065126 0.004281134566197
-0.184514366476575 -0.009556315544924 0.003830898410388
-0.184442405167518 -0.010233577797274 0.003345412375369
-0.184388971621573 -0.010736841460899 0.002831681688085
-0.184354897054519 -0.011058280759172 0.002296461447884
-0.184340718017105 -0.011192844897652 0.001743804213420
-0.184346659339183 -0.011138407003670 0.001179677103804
-0.184372581850164 -0.010896182280223 0.000641794077295
-0.184418100432396 -0.010469795742610 0.000127357087289
-0.184482511372838 -0.009865844265338 -0.000357714881482
-0.184564817477674 -0.009093679943893 -0.000806677037516
-0.184663747684293 -0.008165228213359 -0.001212928184302
-0.184777781761122 -0.007094756612037 -0.001570344842465
-0.184905182075424 -0.005898576776808 -0.001873466264269
-0.185044035880726 -0.004594647463427 -0.002117620787176
-0.185192318283754 -0.003201983199288 -0.002299017772035
-0.185348014706643 -0.001739503905393 -0.002414809037260
-0.185509552342521 -0.000221981395049 -0.002463092710072
-0.185677067509156 0.001351867656175 -0.002442796802716
-0.185838386039125 0.002867663743218 -0.002355396320584
-0.185993647658330 0.004326717044560 -0.002201929806360
-0.186141286316392 0.005714308984011 -0.001984679432454
-0.186279297420414 0.007011598316138 -0.001706980337657
-0.186405669109335 0.008199673199583 -0.001373112248728
-0.186518504469859 0.009260699634534 -0.000988208401345
-0.186616084181885 0.010178510276703 -0.000558148382900
-0.186696908381391 0.010938998071907 -0.000089421583398
-0.186759727818393 0.011530409455501 0.000411065443038
-0.186803567468233 0.011943567011654 0.000936328953628
-0.186827743005664 0.012172026630079 0.001480281790828
-0.186831860428767 0.012212093292780 0.002045627604185
-0.186815902400319 0.012063511770677 0.002594633473169
-0.186780112930123 0.011728560062996 0.003121389082638
-0.186725041444792 0.011212390418238 0.003621973449464
-0.186651540647225 0.010522997918685 0.004089835495567
-0.186560747383825 0.009671046721437 0.004518242783730
-0.186454060782625 0.008669665945973 0.004900804157532
-0.186333114283354 0.007534187483053 0.005231708977129
-0.186199739271255 0.006281804704060 0.005505877656759
-0.186055914564942 0.004931098164739 0.005719069378914
-0.185903682680701 0.003501249099970 0.005867959259855
-0.185744943963977 0.002010105396383 0.005950179380500
-0.185579717799202 0.000457845315262 0.005964154664580
-0.185319994952558 0.000484817978825 0.006016214902669
-0.185152835456716 -0.001085773676744 0.005961547599593
-0.184992464203370 -0.002592755148160 0.005839409210339
-0.184838895660256 -0.004035986598942 0.005651398431208
-0.184694045193775 -0.005397466220610 0.005400377636522
-0.184559968915750 -0.006657867450725 0.005090212497315
-0.184438655483226 -0.007798495231988 0.004725679966120
-0.184331941612069 -0.008802080000532 0.004312369649539
-0.184241461311920 -0.009653254918881 0.003856562414914
-0.184168609576541 -0.010338897398671 0.003365069130299
-0.184114514860915 -0.010848388286607 0.002844981703085
-0.184080018666018 -0.011173804972396 0.002303138818070
-0.184065664181711 -0.011310034164674 0.001743643178978
-0.184071679019816 -0.011254922673528 0.001172535740152
-0.184097922287693 -0.011009700738488 0.000627997120359
-0.184144004102367 -0.010578038229639 0.000107194650858
-0.184209212043274 -0.009966613649113 -0.000383879443985
-0.184292536577641 -0.009184894812247 -0.000838396914768
-0.184392690915133 -0.008244954715661 -0.001249674883876
-0.184508136013315 -0.007161237439631 -0.001611514101949
-0.184637112738536 -0.005950256456038 -0.001918386251698
-0.184777684676608 -0.004630192736565 -0.002165561864922
-0.184927801878871 -0.003220296088308 -0.002349203398306
-0.185085424839716 -0.001739720541351 -0.002466427427774
-0.185248961290859 -0.000203420690712 -0.002515308547378
-0.185418549236822 0.001389902667487 -0.002494761504927
-0.185581863870910 0.002924454732613 -0.002406279557062
-0.185739046647949 0.004401561894877 -0.002250914097062
-0.185888512139750 0.005806323455115 -0.002030975536212
-0.186028230949225 0.007119665032321 -0.001749840281247
-0.186156166321182 0.008322440776037 -0.001411841014904
-0.186270397870525 0.009396596014214 -0.001022174489885
-0.186369185002833 0.010325763352998 -0.000586793045722
-0.186451009295246 0.011095661182006 -0.000112266370067
-0.186514606039958 0.011694390501728 0.000394413523456
-0.186558988147664 0.012112660337913 0.000926176477458
-0.186583462825496 0.012343946842904 0.001476860013847
-0.186587631196282 0.012384509277730 0.002049201236267
-0.186571475708271 0.012234089255188 0.002605000329045
-0.186535243390568 0.011894992961740 0.003138273844683
-0.186479490468215 0.011372436398170 0.003645052283054
-0.186405080195185 0.010674513575361 0.004118703505128
-0.186313163484856 0.009812020605298 0.004552411768650
-0.186205156777627 0.008798249063004 0.004939706835067
-0.186082713724889 0.007648720551172 0.005274706165526
-0.185947688372863 0.006380841186486 0.005552267321090
-0.185802084025434 0.005013421434574 0.005768097009725
-0.185647968472335 0.003565879872807 0.005918829206640
-0.185487265573280 0.002056285231879 0.006002066692875
-0.185319994952558 0.000484817978825 0.006016214902669
-0.185022591673697 0.000515882764070 0.006061951763397
-0.184853636533497 -0.001071580347289 0.006006697218574
-0.184691542555788 -0.002594749967408 0.005883246806282
-0.184536324363717 -0.004053484757667 0.005693216396182
-0.184389917898748 -0.005429589532324 0.005439499110511
-0.184254401359667 -0.006703530121034 0.005126002145737
-0.184131784765875 -0.007856410642286 0.004757553768904
-0.184023924563427 -0.008870776020795 0.004339803630738
-0.183932472314664 -0.009731094346950 0.003879100068299
-0.183858837998511 -0.010424102068205 0.003382327112680
-0.183804162191931 -0.010939065959236 0.002856652853265
-0.183769295435390 -0.011267978304262 0.002308989436703
-0.183754786753747 -0.011405670884420 0.001743483638378
-0.183760866203857 -0.011349967380014 0.001166241305182
-0.183787391379595 -0.011102111245931 0.000615853195983
-0.183833968209823 -0.010665811774376 0.000089456213225
-0.183899876621083 -0.010047819208631 -0.000406893049642
-0.183984096236099 -0.009257703068270 -0.000866292993465
-0.184085326441702 -0.008307666039278 -0.001281988952473
-0.184202011662906 -0.007212307361712 -0.001647715084341
-0.184332373869267 -0.005988317896854 -0.001957883686028
-0.184474455845438 -0.004654073918238 -0.002207714484906
-0.184626185622002 -0.003229032016354 -0.002393328714376
-0.184785501784773 -0.001732551975828 -0.002511811976327
-0.184950794961158 -0.000179749035466 -0.002561218181904
-0.185122204638137 0.001430689964791 -0.002540450421027
-0.185287273614685 0.002981726344750 -0.002451017991051
-0.185446144865150 0.004474700742840 -0.002293983579430
-0.185597215930512 0.005894552395066 -0.002071682416122
-0.185738435613691 0.007222002021477 -0.001787527177568
-0.185867745280466 0.008437698104935 -0.001445897088625
-0.185983203916765 0.009523392028262 -0.001052044726042
-0.186083052230527 0.010462540577388 -0.000611986369990
-0.186165755487836 0.011240708727418 -0.000132362280375
-0.186230035395267 0.011845869658572 0.000379760420254
-0.186274894260102 0.012268632592008 0.000917235626156
-0.186299631847421 0.012502403600230 0.001473834661271
-0.186303844995271 0.012543401760869 0.002052324031490
-0.186287515963359 0.012391365911100 0.002614093574824
-0.186250894434404 0.012048627010674 0.003153095568969
-0.186194542608470 0.011520457091189 0.003665317873025
-0.186119333012697 0.010815037110218 0.004144057104846
-0.186026428923689 0.009943279152683 0.004582424306781
-0.185917261997392 0.008918617573060 0.004973879736311
-0.185793503648890 0.007756740708683 0.005312477663754
-0.185657027840758 0.006475241654518 0.005593020409566
-0.185509859396575 0.005093132940132 0.005811168562735
-0.185354088318482 0.003630041739235 0.005963519940286
-0.185191659132491 0.002104230878672 0.006047651572089
-0.185022591673697 0.000515882764070 0.006061951763397
-0.184684478315367 0.000551349637618 0.006102334463427
-0.184513936965828 -0.001051017126927 0.006046561169812
-0.184350321193748 -0.002588486790681 0.005921951762317
-0.184193645759561 -0.004060916688089 0.005730137280949
-0.184045864780021 -0.005449940810705 0.005474038009576
-0.183909075964762 -0.006735841594633 0.005157597826780
-0.183785308203944 -0.007899545757286 0.004785690329048
-0.183676435372579 -0.008923434349089 0.004364018207982
-0.183584124538449 -0.009791829641487 0.003898989401027
-0.183509798917848 -0.010491343559112 0.003397552568944
-0.183454609795870 -0.011011142109405 0.002866943097621
-0.183419415698149 -0.011343142397378 0.002314138027332
-0.183404770803982 -0.011482127683141 0.001743323064824
-0.183410907330074 -0.011425901214954 0.001160661380793
-0.183437681533343 -0.011175718121689 0.000605106037509
-0.183484695642975 -0.010735322519671 0.000073767057666
-0.183551222825215 -0.010111528025803 -0.000427242103891
-0.183636233123129 -0.009313994001620 -0.000890955053407
-0.183738413712943 -0.008355037696146 -0.001310553709971
-0.183856194415393 -0.007249395412159 -0.001679713405359
-0.183987780507272 -0.006013914710524 -0.001992793977244
-0.184131196398217 -0.004667144387592 -0.002244970274139
-0.184284350666444 -0.003228723699057 -0.002432327114246
-0.184445162544498 -0.001718194185909 -0.002551922738073
-0.184612007550438 -0.000150812994043 -0.002601792786210
-0.184785026480798 0.001474745364998 -0.002580830050405
-0.184951645182036 0.003040343411380 -0.002490557997819
-0.185112007970793 0.004547334369908 -0.002332049292785
-0.185264497343610 0.005980516080923 -0.002107661089207
-0.185407042846058 0.007320428263920 -0.001820838102914
-0.185537566516744 0.008547537723020 -0.001476000672441
-0.185654109118687 0.009643424516709 -0.001078450687547
-0.185754894842981 0.010591390117499 -0.000634260911323
-0.185838374547097 0.011376863979482 -0.000150133944735
-0.185903257936549 0.011987706370933 0.000366796741078
-0.185948537951935 0.012414438349126 0.000909317950259
-0.185973507784286 0.012650404080493 0.001471142529781
-0.185977760486627 0.012691787146056 0.002055062958451
-0.185961278152111 0.012538323931102 0.002622106588712
-0.185924312807565 0.012192367279241 0.003166168920153
-0.185867431931184 0.011659238717727 0.003683200144504
-0.185791516241692 0.010947196009795 0.004166433945948
-0.185697739936938 0.010067253686797 0.004608916690914
-0.185587548113749 0.009032972229581 0.005004047239518
-0.185462627879033 0.007860187263021 0.005345824041508
-0.185324870788773 0.006566657052147 0.005629000619728
-0.185176320676294 0.005171572622737 0.005849196823269
-0.185019087165400 0.003694745415201 0.006002978528289
-0.184855133037987 0.002154609714123 0.006087900016974
-0.184684478315367 0.000551349637618 0.006102334463427
-0.184301859975433 0.000591613254322 0.006138081197869
-0.184129913663929 -0.001023954205332 0.006081848430018
-0.183964949984509 -0.002574089925771 0.005956212459296
-0.183806983819209 -0.004058650066126 0.005762817762622
-0.183657985383281 -0.005459117314217 0.005504608681889
-0.183520069667811 -0.006755611667959 0.005185561586328
-0.183395282277461 -0.007928902714331 0.004810590222324
-0.183285512524690 -0.008961226354479 0.004385444261666
-0.183192441210997 -0.009836775702830 0.003916584431981
-0.183117503277486 -0.010542052389725 0.003411016638820
-0.183061859493823 -0.011066133169488 0.002876035874977
-0.183026375458390 -0.011400868558235 0.002318676659314
-0.183011609915949 -0.011540998839278 0.001743159181471
-0.183017796996266 -0.011484309163490 0.001155697385871
-0.183044791772068 -0.011232064999809 0.000595565239783
-0.183092193195604 -0.010788041309516 0.000059848957547
-0.183159268445282 -0.010159107841783 -0.000445287641832
-0.183244979079130 -0.009355003534364 -0.000912820773718
-0.183348001458004 -0.008388147108835 -0.001335876188158
-0.183466752467114 -0.007273396269296 -0.001708077112741
-0.183599422597877 -0.006027737370999 -0.002023736920082
-0.183744019984526 -0.004669872019882 -0.002277990707901
-0.183898435975628 -0.003219601264704 -0.002466891040158
-0.184060572661846 -0.001696627634517 -0.002587471922417
-0.184228792178356 -0.000116333967374 -0.002637752812388
-0.184403236481607 0.001522616144888 -0.002616617380363
-0.184571227829059 0.003101111976552 -0.002525601644203
-0.184732911726272 0.004620517900627 -0.002365787105115
-0.184886657344390 0.006065506518289 -0.002139550335823
-0.185030377172066 0.007416457230412 -0.001850364430581
-0.185161976129147 0.008653675921800 -0.001502686143768
-0.185279478837970 0.009758590902892 -0.001101861043428
-0.185381094860075 0.010714366079583 -0.000654011921581
-0.185465262290713 0.011506310870193 -0.000165896596883
-0.185530680205632 0.012122185532874 0.000355292692220
-0.185576333249023 0.012552433035017 0.000902283325774
-0.185601508789050 0.012790342710645 0.001468736355626
-0.185605796526208 0.012832066700173 0.002057467265714
-0.185589178406130 0.012677339217165 0.002629182342140
-0.185551908531901 0.012328532488541 0.003177726794101
-0.185494559056743 0.011791011881616 0.003699017450004
-0.185418017954958 0.011073103189129 0.004186232251442
-0.185323469097731 0.010185911682876 0.004632360279083
-0.185212369486953 0.009143109558310 0.005030746011217
-0.185086420128339 0.007960662898113 0.005375338455330
-0.184947528160979 0.006656476264312 0.005660847912485
-0.184797754255803 0.005249898783117 0.005882858147003
-0.184639225416222 0.003760905106501 0.006037906743877
-0.184473920594014 0.002208081385261 0.006123527836863
-0.184301859975433 0.000591613254322 0.006138081197869
-0.183869939506965 0.000637177174924 0.006169737208362
-0.183696748061721 -0.000990089271084 0.006113097235983
-0.183530589812664 -0.002551450159826 0.005986551483687
-0.183371479749596 -0.004046760608824 0.005791756336724
-0.183221402354904 -0.005457369214446 0.005531677458172
-0.183082487935193 -0.006763252015363 0.005210320011783
-0.182956796908187 -0.007945039343249 0.004832633326395
-0.182846232267631 -0.008984838462125 0.004404408709527
-0.182752486986396 -0.009866728022280 0.003932153673584
-0.182677006396584 -0.010577111906826 0.003422924856751
-0.182620959673470 -0.011104987770388 0.002884070077856
-0.182585218683588 -0.011442147115325 0.002322674795596
-0.182570346217801 -0.011583292137186 0.001742989759735
-0.182576578101303 -0.011526191948213 0.001151273912416
-0.182603768357344 -0.011272121181124 0.000587085619805
-0.182651513034022 -0.010824882133241 0.000047489996327
-0.182719074003084 -0.010191394300407 -0.000461304504273
-0.182805405302773 -0.009381467144017 -0.000932223235254
-0.182909173708931 -0.008407609314702 -0.001358342167401
-0.183028784642786 -0.007284786107289 -0.001733238351481
-0.183162415492360 -0.006030106882192 -0.002051183980907
-0.183308059967971 -0.004662408671346 -0.002307278924647
-0.183463594148574 -0.003201635911022 -0.002497547161658
-0.183626904933013 -0.001667633804364 -0.002619001219524
-0.183796342596012 -0.000075896582860 -0.002669646214034
-0.183972050121984 0.001574921839130 -0.002648357731680
-0.184141257963660 0.003164848206291 -0.002556682913258
-0.184304112680262 0.004695256771615 -0.002395711091569
-0.184458971633436 0.006150709144299 -0.002167836049075
-0.184603732195309 0.007511442644415 -0.001876556030127
-0.184736284114394 0.008757620543604 -0.001526360062292
-0.184854637708507 0.009870536667086 -0.001122632423063
-0.184956989573890 0.010833233003697 -0.000671540242108
-0.185041766495402 0.011630912591232 -0.000179890274217
-0.185107658128264 0.012251247054852 0.000345073160214
-0.185153641764060 0.012684610155559 0.000896024777211
-0.185178999610494 0.012924242632690 0.001466579725696
-0.185183318396915 0.012966268762733 0.002059573877682
-0.185166579938216 0.012810420834583 0.002635428977378
-0.185129040177547 0.012459088253427 0.003187945664618
-0.185071275411326 0.011917675239405 0.003713011199888
-0.184994180044042 0.011194567875735 0.004203754123460
-0.184898946519774 0.010300951852039 0.004653112747062
-0.184787042391165 0.009250598369742 0.005054383353619
-0.184660180981606 0.008059589128479 0.005401471132902
-0.184520283240564 0.006745958344550 0.005689048081094
-0.184369424761134 0.005329195259120 0.005912665982744
-0.184209747949229 0.003829419168807 0.006068837350077
-0.184043246087029 0.002265350814348 0.006155078460502
-0.183869939506965 0.000637177174924 0.006169737208362
-0.183382573943789 0.000688689797066 0.006197724248388
-0.183208280600131 -0.000948929829572 0.006140723914702
-0.183041065200065 -0.002520224587073 0.006013373038553
-0.182880942828762 -0.004025048671169 0.005817338543634
-0.182729910594510 -0.005444632012138 0.005555604961506
-0.182590112357597 -0.006758823249915 0.005232202938031
-0.182463621644768 -0.007948129480253 0.004852113291231
-0.182352353557215 -0.008994544127965 0.004421164174747
-0.182258011839034 -0.009882044546706 0.003945904503820
-0.182182051017984 -0.010596948116822 0.003433435813189
-0.182125647708000 -0.011128182492555 0.002891152670811
-0.182089679322706 -0.011467486951225 0.002326185615302
-0.182074712233617 -0.011609529982081 0.001742812441030
-0.182080983766320 -0.011552066503758 0.001147331911495
-0.182108347015317 -0.011296379258585 0.000579554075625
-0.182156395458636 -0.010846294735299 0.000036525375179
-0.182224386271820 -0.010208776453748 -0.000475506235964
-0.182311266838373 -0.009393696286203 -0.000949421099936
-0.182415695451749 -0.008413642467265 -0.001378251134672
-0.182536067387962 -0.007283675505668 -0.001755532526117
-0.182670548439006 -0.006021013616956 -0.002075501025577
-0.182817119550551 -0.004644613680182 -0.002333225325848
-0.182973643288501 -0.003174547024391 -0.002524704109190
-0.183137993107484 -0.001630785114146 -0.002646930895948
-0.183308508786154 -0.000028920760107 -0.002697898109833
-0.183485334218637 0.001632400687587 -0.002676474183463
-0.183655618613788 0.003232442666059 -0.002584216101030
-0.183819509463288 0.004772588171731 -0.002422220126013
-0.183975353677799 0.006237300589904 -0.002192895270870
-0.184121035251870 0.007606691504268 -0.001899762036883
-0.184254430507929 0.008860797978965 -0.001547338012224
-0.184373537104810 0.009980794824649 -0.001141041730849
-0.184476540164933 0.010949616137959 -0.000687079559647
-0.184561856463868 0.011752370813764 -0.000192301560120
-0.184628167320010 0.012376652040233 0.000336001856694
-0.184674443518150 0.012812772333206 0.000890458801059
-0.184699962699175 0.013053929427481 0.001464643799470
-0.184704308963072 0.013096222940973 0.002061410766647
-0.184687464009038 0.012939383459316 0.002640929637497
-0.184649685408612 0.012585815589844 0.003196961609574
-0.184591553124790 0.012040957936044 0.003725367776824
-0.184513967252546 0.011313249936031 0.004219232961131
-0.184418127822662 0.010413948446301 0.004671450545544
-0.184305511724811 0.009356912284991 0.005075274161831
-0.184177843183088 0.008158325468564 0.005424570222667
-0.184037055368644 0.006836336952672 0.005713976825797
-0.183885237080149 0.005410559975160 0.005939017454828
-0.183724544354175 0.003901241837935 0.006096182433490
-0.183556983154791 0.002327222388969 0.006182972236967
-0.183382573943789 0.000688689797066 0.006197724248388
-0.182831761842793 0.000746998501358 0.006222373111065
-0.182656496789266 -0.000899751084696 0.006165054992513
-0.182488349139859 -0.002479806031152 0.006036994117344
-0.182327334063848 -0.003993019720864 0.005839866702583
-0.182175459803679 -0.005420517438333 0.005576673918975
-0.182034882171960 -0.006742035476834 0.005251468883799
-0.181907686255642 -0.007937972256439 0.004869260183836
-0.181795797832874 -0.008990220812777 0.004435908465502
-0.181700930146364 -0.009882669170999 0.003957999155162
-0.181624545833068 -0.010601558428923 0.003442673379606
-0.181567828066709 -0.011135754510911 0.002897366932548
-0.181531659152616 -0.011476950639592 0.002329250106357
-0.181516608619903 -0.011619785580294 0.001742624544706
-0.181522915117282 -0.011562001735009 0.001143824127586
-0.181550430920235 -0.011304888997534 0.000572880850539
-0.181598747240374 -0.010852295189818 0.000026824688821
-0.181667117111890 -0.010211222654310 -0.000488061570466
-0.181754482049804 -0.009391598300357 -0.000964618576364
-0.181859492867366 -0.008406080543733 -0.001395839398772
-0.181980535894030 -0.007269813857626 -0.001775224186961
-0.182115766695820 -0.006000112451548 -0.002096976555744
-0.182263154961898 -0.004616038891817 -0.002356137705185
-0.182420551341670 -0.003137776407955 -0.002548684009637
-0.182585817433976 -0.001585407808245 -0.002671592227898
-0.182757283761503 0.000025387164543 -0.002722843591158
-0.182935095020606 0.001695970712634 -0.002701300223390
-0.183106328775176 0.003304933149856 -0.002608527789190
-0.183271133339180 0.004853665183029 -0.002445628663860
-0.183427846407075 0.006326543578646 -0.002215025290442
-0.183574340176381 0.007703569039684 -0.001920257797506
-0.183708479129727 0.008964667334111 -0.001565868959413
-0.183828249762614 0.010090908319509 -0.001157307519207
-0.183931827079264 0.011065130947708 -0.000700814445143
-0.184017619028547 0.011872361093575 -0.000203277988779
-0.184084299577025 0.012500122775558 0.000327970793782
-0.184130833771470 0.012938674500416 0.000885518913483
-0.184156495225513 0.013181176079361 0.001462905073901
-0.184160865720442 0.013223705385131 0.002062999100734
-0.184143926853423 0.013065991501337 0.002645748870680
-0.184105937631993 0.012710452441335 0.003204880799095
-0.184047481252525 0.012162557129592 0.003736232904939
-0.183969462828147 0.011430792055275 0.004232851457010
-0.183873089079981 0.010526476833436 0.004687590217968
