ply
format ascii 1.0
element vertex 1680
property float x
property float y
property float z
end_header
0.040803 -0.021664 0.002954
0.043014 -0.016892 -0.003893
0.040639 -0.020918 0.004291
0.040960 -0.018605 0.004525
0.041851 -0.019899 0.003512
0.040778 -0.019791 -0.004403
0.041145 -0.021657 0.001770
0.041839 -0.019934 -0.000909
0.040279 -0.021678 -0.002658
0.041881 -0.019822 -0.002448
0.040005 -0.021491 0.004047
0.040401 -0.020545 -0.004439
0.041301 -0.021296 -0.003955
0.042210 -0.018953 -0.002098
0.039683 -0.021695 0.002802
0.042548 -0.018047 -0.000288
0.040733 -0.017182 0.004842
0.041598 -0.020568 0.002186
0.042100 -0.019243 0.000403
0.042337 -0.018603 -0.001386
0.039958 -0.020466 0.004497
0.040442 -0.019452 0.004608
0.039951 -0.021688 0.000650
0.041450 -0.020958 0.003274
0.041257 -0.017659 0.004551
0.043004 -0.016911 -0.002153
0.041517 -0.020779 -0.000072
0.042299 -0.017810 -0.004086
0.042515 -0.018136 0.000500
0.040258 -0.021683 -0.001716
0.040973 -0.021660 -0.000429
0.041968 -0.019586 0.002452
0.042744 -0.017554 0.001172
0.041471 -0.020903 -0.001052
0.039878 -0.021690 -0.001024
0.041644 -0.020446 -0.003474
0.042285 -0.018752 -0.003155
0.042579 -0.017969 0.003193
0.040157 -0.021513 -0.004019
0.039650 -0.020840 -0.004320
0.041886 -0.019812 0.000935
0.042767 -0.017500 0.002499
0.042846 -0.017303 -0.003007
0.042107 -0.019218 -0.000816
0.042110 -0.019205 0.001298
0.039923 -0.018257 0.005009
0.041009 -0.021658 0.000349
0.042242 -0.018862 0.003278
0.042961 -0.017020 0.003246
0.041344 -0.019414 0.004244
0.042863 -0.017259 0.000116
0.041132 -0.021657 -0.003315
0.040407 -0.018613 -0.004738
0.039780 -0.021692 -0.000156
0.040000 -0.019258 -0.004805
0.041218 -0.021571 -0.002037
0.042323 -0.018448 0.003992
0.042723 -0.017373 0.004000
0.040010 -0.017549 -0.005075
0.041451 -0.020960 -0.002858
0.041153 -0.020537 -0.004133
0.042063 -0.019142 0.003991
0.042427 -0.018371 0.002113
0.040804 -0.021666 -0.001167
0.040680 -0.017179 -0.004850
0.042384 -0.018481 0.001318
0.039582 -0.018975 0.005040
0.041499 -0.018832 -0.004256
0.039638 -0.018580 -0.005065
0.042576 -0.017983 -0.003223
0.041151 -0.020281 0.004190
0.041614 -0.020523 -0.001938
0.041899 -0.019763 -0.000144
0.042432 -0.018361 -0.002531
0.040353 -0.021678 0.002131
0.039658 -0.021695 -0.003453
0.039981 -0.017257 0.005151
0.041862 -0.019864 0.001761
0.158840 -0.020480 -0.003816
0.158380 -0.018586 -0.004157
0.157810 -0.018587 0.001418
0.158990 -0.020710 -0.001282
0.157390 -0.017811 0.001435
0.157450 -0.017913 -0.000333
0.158260 -0.019407 -0.000193
0.158550 -0.019948 -0.001458
0.157970 -0.017644 -0.004199
0.159260 -0.018296 0.004583
0.157000 -0.017101 -0.001736
0.158270 -0.019410 0.001130
0.158550 -0.019952 -0.002213
0.156930 -0.016963 0.001617
0.158550 -0.019954 -0.003194
0.157100 -0.017280 0.002402
0.157380 -0.017787 -0.002607
0.157390 -0.017813 0.000457
0.158960 -0.020691 -0.002261
0.158160 -0.019216 -0.003244
0.157550 -0.018104 -0.003688
0.157080 -0.017234 0.003478
0.159030 -0.019485 -0.004219
0.158910 -0.020585 0.000393
0.157960 -0.016886 0.004380
0.158550 -0.019934 0.003873
0.158810 -0.017868 -0.004474
0.158610 -0.020040 0.002539
0.158200 -0.019285 0.003433
0.158550 -0.019930 -0.000652
0.158490 -0.018159 0.004315
0.157880 -0.018698 0.003835
0.159000 -0.020598 0.004003
0.157570 -0.017725 0.004056
0.159460 -0.020611 0.002192
0.158930 -0.019149 0.004280
0.158030 -0.018982 0.000455
0.157080 -0.017243 -0.000117
0.159320 -0.018596 -0.004519
0.159060 -0.020692 -0.000323
0.158030 -0.018988 0.002759
0.157080 -0.017241 -0.003321
0.158150 -0.019202 -0.001693
0.157690 -0.018355 -0.001372
0.158500 -0.019852 0.000349
0.157690 -0.018355 -0.002998
0.158870 -0.017534 0.004597
0.157670 -0.018328 0.003112
0.157230 -0.016872 -0.004074
0.159080 -0.020690 0.003262
0.158060 -0.019039 0.002010
0.157450 -0.017932 0.002312
0.158130 -0.019178 -0.000891
0.156960 -0.017032 0.000825
0.159420 -0.020623 -0.003154
0.158580 -0.017056 -0.004557
0.157820 -0.018598 -0.000427
0.159320 -0.017280 -0.004791
0.158980 -0.020707 0.001553
0.157910 -0.018756 -0.002234
0.158430 -0.019715 0.001897
0.158640 -0.020107 0.001262
0.157320 -0.017692 -0.001402
0.162330 -0.020038 0.002509
0.159750 -0.019060 0.004610
0.160990 -0.017102 0.005375
0.162690 -0.019115 0.004332
0.161410 -0.020220 0.003006
0.162940 -0.019913 -0.003502
0.162800 -0.019941 0.000716
0.160580 -0.020390 -0.000289
0.163780 -0.019744 0.000818
0.159760 -0.020552 -0.002361
0.159600 -0.019741 0.004330
0.162240 -0.020053 -0.000008
0.160400 -0.020044 -0.004102
0.163150 -0.016976 -0.005202
0.159930 -0.020519 -0.000873
0.160510 -0.018338 0.004855
0.163550 -0.019790 0.001708
0.161100 -0.019180 -0.004415
0.163820 -0.016922 0.005193
0.162250 -0.020052 -0.002633
0.161190 -0.018003 0.004940
0.164110 -0.019324 -0.004091
0.162060 -0.019995 -0.003980
0.163460 -0.018522 0.004521
0.161130 -0.019638 0.004243
0.160780 -0.020348 -0.001199
0.159720 -0.017617 0.004903
0.162590 -0.018026 0.004809
0.161700 -0.018092 -0.004830
0.160730 -0.019013 0.004545
0.162850 -0.019934 -0.001545
0.162530 -0.018406 -0.004623
0.164070 -0.019685 0.002298
0.163210 -0.019858 0.003638
0.164090 -0.017576 -0.004846
0.163840 -0.019731 -0.001461
0.160670 -0.020370 -0.002638
0.163850 -0.019730 -0.002964
0.161780 -0.020149 -0.000748
0.164190 -0.018100 0.004639
0.163340 -0.019222 -0.004201
0.163840 -0.019140 0.004222
0.162400 -0.019336 -0.004235
0.162050 -0.020092 0.000771
0.161450 -0.020213 -0.003035
0.163080 -0.017161 0.005152
0.160170 -0.020468 0.001775
0.160080 -0.019440 -0.004390
0.164520 -0.017391 0.004916
0.163770 -0.018419 -0.004510
0.161000 -0.018319 -0.004793
0.163920 -0.019717 -0.000687
0.161570 -0.020191 -0.001696
0.160140 -0.020477 0.000461
0.160070 -0.020491 0.002925
0.161960 -0.017273 -0.005177
0.162690 -0.017671 -0.004926
0.163770 -0.019747 -0.002215
0.160220 -0.020463 -0.003337
0.160780 -0.020341 0.003970
0.159870 -0.020531 0.003791
0.161980 -0.018675 0.004583
0.163610 -0.019777 0.000056
0.162310 -0.020042 0.001727
0.161290 -0.020246 0.000800
0.161900 -0.019459 0.004253
0.160100 -0.018011 -0.004945
0.161240 -0.020249 -0.003942
0.159660 -0.020430 -0.004000
0.160040 -0.017263 -0.005082
0.162000 -0.017496 0.005098
0.163410 -0.019818 0.002846
0.162460 -0.019917 0.004007
0.161080 -0.020287 0.001655
0.163000 -0.019901 -0.000529
0.160760 -0.017429 -0.005216
0.163140 -0.019875 -0.002712
0.162410 -0.020019 0.003247
0.163960 -0.019708 0.003706
0.160390 -0.018752 -0.004660
0.161560 -0.020191 0.003871
0.160610 -0.020383 0.002387
0.159560 -0.020593 0.000942
0.164420 -0.019617 -0.003430
0.160350 -0.019750 0.004260
0.160450 -0.017632 0.005178
0.161360 -0.020230 -0.000049
0.160290 -0.020446 -0.001789
0.166110 -0.019039 -0.004042
0.165920 -0.019317 -0.002443
0.166180 -0.017953 0.004531
0.165320 -0.018649 -0.004277
0.166820 -0.019135 0.001813
0.169090 -0.017302 -0.003507
0.165010 -0.019358 -0.004000
0.167720 -0.018445 0.000447
0.167880 -0.018316 0.002719
0.167120 -0.018946 0.003157
0.164780 -0.019542 -0.001896
0.167370 -0.018741 -0.000891
0.167150 -0.018914 -0.003942
0.166550 -0.019192 -0.003099
0.168470 -0.017822 0.003190
0.166990 -0.019056 -0.001800
0.167920 -0.018285 -0.000488
0.164580 -0.019586 0.001238
0.168880 -0.017481 0.002295
0.169320 -0.016917 -0.001166
0.168990 -0.017392 -0.000424
0.166250 -0.019249 0.000104
0.167510 -0.018625 0.001908
0.164680 -0.019562 -0.000997
0.166490 -0.017247 -0.004688
0.169000 -0.017379 -0.001832
0.165000 -0.017185 -0.004934
0.165970 -0.019306 -0.000642
0.167800 -0.017017 -0.004398
0.164870 -0.019527 0.002249
0.164690 -0.019564 -0.002734
0.166280 -0.018759 0.004176
0.168020 -0.018195 0.001219
0.165480 -0.019327 0.004000
0.167590 -0.018561 -0.002966
0.169290 -0.016968 0.000287
0.164580 -0.019144 0.004158
0.168720 -0.017541 0.003991
0.168220 -0.018027 0.002070
0.169150 -0.017250 0.003017
0.167190 -0.018895 0.000898
0.168260 -0.018003 -0.002542
0.167360 -0.017804 -0.004256
0.165940 -0.019310 -0.001622
0.167960 -0.018247 -0.003586
0.165720 -0.019355 0.002380
0.168390 -0.017887 -0.000007
0.165470 -0.019408 0.001361
0.165620 -0.019376 -0.003556
0.168610 -0.017185 -0.004114
0.164970 -0.019507 0.003469
0.164740 -0.019554 -0.000199
0.167020 -0.017374 0.004525
0.165580 -0.017282 0.004872
0.165980 -0.019301 0.003357
0.166090 -0.017975 -0.004501
0.164950 -0.018341 0.004470
0.167980 -0.017901 0.004078
0.168730 -0.017603 0.001150
0.168120 -0.018118 -0.001379
0.164970 -0.017953 -0.004608
0.167730 -0.018439 -0.001960
0.166780 -0.019141 -0.000568
0.165550 -0.019389 0.000492
0.166220 -0.019254 0.000950
0.169290 -0.016981 -0.002812
0.167620 -0.018528 0.003617
0.169280 -0.017001 0.001202
0.167230 -0.018856 -0.000032
0.166760 -0.018305 -0.004256
0.166450 -0.019207 0.002749
0.166980 -0.018230 0.004248
0.168480 -0.017816 -0.000795
0.166910 -0.019115 0.003918
0.031190 -0.012650 -0.005172
0.031400 -0.012243 0.005285
0.034104 -0.016356 -0.005442
0.032178 -0.012996 0.005455
0.032071 -0.013830 -0.005442
0.033975 -0.013785 -0.005442
0.033033 -0.015862 0.005456
0.031836 -0.014792 -0.005442
0.033140 -0.013459 0.005455
0.030475 -0.013871 -0.004847
0.030743 -0.013661 0.004977
0.033330 -0.015103 -0.005442
0.029750 -0.013746 0.004542
0.033538 -0.012230 -0.005442
0.030555 -0.016139 0.004914
0.029650 -0.014740 0.004503
0.029842 -0.012334 0.004579
0.033019 -0.013852 -0.005442
0.029608 -0.013233 -0.004466
0.033866 -0.013047 -0.005442
0.031239 -0.014369 0.005217
0.034269 -0.015535 -0.005442
0.030200 -0.012990 0.004736
0.031462 -0.016089 0.005340
0.031806 -0.016304 -0.005442
0.032962 -0.016155 -0.005442
0.029617 -0.016012 -0.004488
0.029827 -0.012451 -0.004558
0.031084 -0.016285 -0.005148
0.030336 -0.016146 -0.004807
0.034533 -0.016281 0.005456
0.032393 -0.016292 0.005456
0.032604 -0.014030 0.005455
0.030687 -0.015221 0.004957
0.031599 -0.013693 0.005382
0.030039 -0.015657 0.004681
0.031929 -0.015138 0.005455
0.031254 -0.015318 -0.005213
0.033130 -0.012113 0.005455
0.032548 -0.012537 -0.005442
0.031040 -0.014504 -0.005108
0.030569 -0.015282 -0.004892
0.032255 -0.015498 -0.005442
0.034110 -0.014525 -0.005442
0.030883 -0.012906 0.005043
0.032909 -0.014833 0.005455
0.030940 -0.011905 -0.005052
0.033966 -0.012507 0.005455
0.029652 -0.014676 -0.004488
0.032380 -0.011954 0.005455
0.031109 -0.013569 -0.005139
0.031820 -0.013084 -0.005442
0.030389 -0.014547 0.004826
0.033989 -0.014698 0.005455
0.034457 -0.015385 0.005456
0.033771 -0.016038 0.005456
0.030401 -0.012843 -0.004814
0.033638 -0.014019 0.005455
0.029592 -0.016298 0.004496
0.032584 -0.014746 -0.005442
0.039219 -0.015462 0.005456
0.036758 -0.014108 0.005455
0.037528 -0.012269 -0.005442
0.036091 -0.014468 -0.005442
0.038911 -0.015634 -0.005442
0.034845 -0.013246 -0.005442
0.038175 -0.013975 0.005456
0.037466 -0.015493 -0.005442
0.035240 -0.015082 0.005456
0.035856 -0.015785 -0.005442
0.036512 -0.012323 -0.005442
0.035413 -0.014153 0.005455
0.037232 -0.016373 -0.005441
0.036863 -0.012682 0.005455
0.038216 -0.014976 -0.005442
0.039126 -0.014846 -0.005442
0.038909 -0.013775 0.005456
0.034885 -0.014735 -0.005442
0.038852 -0.012484 -0.005442
0.035260 -0.016442 0.005456
0.037595 -0.015060 0.005456
0.036181 -0.014961 0.005456
0.037630 -0.013083 -0.005442
0.034615 -0.013793 0.005455
0.035877 -0.013654 -0.005442
0.038081 -0.016295 -0.005441
0.034706 -0.012973 0.005455
0.035998 -0.013041 0.005455
0.038489 -0.013187 -0.005442
0.036815 -0.015670 0.005456
0.038360 -0.012168 0.005455
0.035850 -0.012756 -0.005442
0.035957 -0.015820 0.005456
0.036262 -0.016656 0.005456
0.037961 -0.013262 0.005455
0.037830 -0.016595 0.005456
0.039062 -0.014709 0.005456
0.038300 -0.014129 -0.005442
0.038911 -0.016782 -0.005441
0.038426 -0.015987 0.005456
0.037152 -0.013479 0.005455
0.038427 -0.015228 0.005456
0.037545 -0.015887 0.005456
0.037307 -0.014669 -0.005442
0.035103 -0.016263 -0.005442
0.037218 -0.013806 -0.005442
0.036556 -0.013193 -0.005442
0.039149 -0.014085 -0.005442
0.035450 -0.012279 0.005455
0.036461 -0.016354 -0.005442
0.034650 -0.012526 -0.005442
0.038682 -0.012994 0.005455
0.037060 -0.016493 0.005456
0.035100 -0.013948 -0.005442
0.037482 -0.014298 0.005456
0.036514 -0.015296 -0.005442
0.039302 -0.013162 -0.005442
0.043877 -0.015060 -0.001586
0.041739 -0.012120 0.005433
0.042180 -0.015689 0.004513
0.043740 -0.015329 0.002237
0.042883 -0.014333 0.004502
0.043660 -0.015001 0.004057
0.041356 -0.014316 0.005106
0.043455 -0.012496 0.004668
0.043804 -0.015198 -0.002490
0.043033 -0.016849 0.000974
0.042375 -0.012360 -0.005103
0.040006 -0.013613 -0.005442
0.041962 -0.013133 -0.005095
0.044130 -0.013227 0.004250
0.040755 -0.015070 -0.005196
0.044046 -0.014732 0.001813
0.042850 -0.014475 -0.004470
0.043535 -0.015743 -0.000266
0.043316 -0.016222 0.000484
0.039604 -0.016491 -0.005435
0.043779 -0.015248 0.000543
0.044173 -0.014501 0.000047
0.044066 -0.012128 -0.004511
0.040636 -0.014367 0.005400
0.042992 -0.016152 -0.004091
0.040288 -0.016291 -0.005168
0.043910 -0.014987 0.003103
0.043308 -0.016228 -0.001528
0.041118 -0.013470 -0.005371
0.042218 -0.014155 -0.004775
0.043824 -0.015157 -0.003822
0.043252 -0.012894 -0.004643
0.039665 -0.016388 0.005438
0.044046 -0.014733 -0.000803
0.042634 -0.016627 0.004161
0.043474 -0.014058 -0.004307
0.042262 -0.015465 -0.004510
0.039565 -0.012810 0.005455
0.039725 -0.012066 0.005455
0.044267 -0.014325 -0.002521
0.042425 -0.013069 0.004935
0.040376 -0.012613 -0.005442
0.044205 -0.014444 -0.003942
0.043476 -0.015866 -0.002495
0.040974 -0.015840 -0.004952
0.043594 -0.013967 0.004294
0.043438 -0.015948 0.003888
0.042394 -0.012319 0.005118
0.041308 -0.011974 -0.005442
0.041471 -0.015097 -0.004886
0.040203 -0.014369 -0.005442
0.039727 -0.012238 -0.005442
0.040794 -0.016286 0.004961
0.044261 -0.014334 0.002541
0.044362 -0.012851 -0.004233
0.041161 -0.013545 0.005349
0.042054 -0.016514 -0.004408
0.043187 -0.016502 -0.000811
0.043081 -0.016746 0.001869
0.040407 -0.013432 0.005456
0.043585 -0.015642 -0.001146
0.041583 -0.016397 0.004629
0.040215 -0.015246 0.005407
0.043244 -0.016376 -0.003149
0.043511 -0.015795 -0.003529
0.040545 -0.012658 0.005455
0.041575 -0.012842 0.005335
0.043567 -0.015684 0.002913
0.043200 -0.015356 -0.004157
0.043259 -0.016346 0.002586
0.042891 -0.015458 0.004273
0.044447 -0.013995 -0.003347
0.039642 -0.013910 0.005456
0.041024 -0.015553 0.004998
0.043517 -0.015786 0.001365
0.044083 -0.014665 -0.003206
0.041355 -0.016442 -0.004697
0.039926 -0.015141 -0.005442
0.044133 -0.012083 0.004510
0.044082 -0.013567 -0.004178
0.041783 -0.015082 0.004781
0.042615 -0.013329 -0.004794
0.044231 -0.014394 0.000987
0.044345 -0.014177 0.003709
0.042072 -0.013838 0.004910
0.044342 -0.014190 -0.001374
0.041178 -0.014378 -0.005155
0.043148 -0.013445 0.004576
0.045450 -0.012355 0.000116
0.045021 -0.013021 0.001417
0.044665 -0.013617 0.002902
0.044993 -0.013068 -0.001155
0.044865 -0.013281 0.003574
0.045474 -0.012321 -0.001284
0.045380 -0.012462 0.002105
0.045055 -0.012966 0.002732
0.045601 -0.012123 -0.003149
0.045259 -0.012653 -0.000550
0.044646 -0.013658 0.000429
0.045403 -0.012427 -0.002441
0.045033 -0.013003 0.000615
0.045039 -0.012995 -0.002120
0.045690 -0.011990 0.000724
0.044884 -0.013257 -0.003795
0.044838 -0.012334 0.004191
0.045721 -0.011948 0.003151
0.045085 -0.012923 -0.003122
0.044706 -0.013555 -0.001667
0.044739 -0.013498 0.001977
0.044644 -0.013656 -0.000462
0.045270 -0.012634 0.003552
0.045080 -0.012562 -0.004034
0.044700 -0.013563 -0.002757
0.044634 -0.013676 0.001235
0.098747 -0.012389 -0.003481
0.099374 -0.012515 0.002523
0.097143 -0.012047 -0.001984
0.098231 -0.012278 -0.002440
0.098775 -0.012393 0.001852
0.096408 -0.011892 0.000234
0.096497 -0.011912 0.003369
0.097630 -0.012153 0.001457
0.098536 -0.012338 0.001006
0.096538 -0.011866 -0.003967
0.098273 -0.012284 -0.001625
0.099218 -0.012488 -0.002835
0.097071 -0.012033 0.000909
0.096925 -0.012004 -0.000537
0.097674 -0.012162 0.002634
0.097154 -0.011876 0.004036
0.096411 -0.011896 0.002014
0.098586 -0.012354 -0.000595
0.099485 -0.012210 0.004103
0.099285 -0.012495 0.001261
0.097804 -0.012186 -0.003734
0.096892 -0.011992 0.002621
0.096337 -0.011881 -0.001918
0.097408 -0.012104 -0.003067
0.097893 -0.012206 0.000591
0.098743 -0.012382 0.003716
0.098924 -0.012426 0.000248
0.097699 -0.012162 -0.000852
0.099390 -0.012520 -0.001136
0.098048 -0.011859 0.004124
0.097845 -0.012191 0.003405
0.099417 -0.012523 -0.000325
0.098686 -0.012373 0.002852
0.096804 -0.011975 -0.001279
0.096685 -0.011948 -0.002644
0.103060 -0.013292 0.000384
0.104150 -0.012220 -0.004505
0.100160 -0.012684 0.000111
0.104080 -0.013123 -0.004109
0.103710 -0.013437 0.001650
0.101300 -0.012685 -0.004044
0.101550 -0.012975 -0.002062
0.101900 -0.013047 0.000721
0.102710 -0.013220 0.001385
0.103900 -0.013473 -0.000636
0.100560 -0.012765 -0.001987
0.101750 -0.012989 0.003975
0.100370 -0.012727 0.003708
0.101480 -0.012964 0.003249
0.103120 -0.013306 0.002654
0.103440 -0.012250 0.004447
0.101210 -0.012905 -0.002801
0.104400 -0.013579 0.000074
0.102950 -0.013268 -0.000418
0.103020 -0.011900 -0.004538
0.102760 -0.012565 0.004249
0.103810 -0.013451 -0.003027
0.099812 -0.011980 -0.004213
0.103870 -0.013468 0.003566
0.104100 -0.013515 0.002816
0.099556 -0.012560 -0.001871
0.104460 -0.013588 -0.003520
0.102440 -0.013107 -0.003967
0.102520 -0.013178 -0.002586
0.102140 -0.013102 -0.000391
0.103840 -0.013459 0.000853
0.103140 -0.012661 -0.004224
0.103400 -0.013368 -0.001723
0.101780 -0.013024 -0.003260
0.102510 -0.013177 0.003528
0.103470 -0.012954 0.004147
0.101800 -0.013031 0.001528
0.100390 -0.012731 -0.003346
0.100230 -0.012699 -0.000816
0.103200 -0.013324 -0.003724
0.100240 -0.012703 0.001320
0.102010 -0.012060 -0.004377
0.102140 -0.013097 0.002345
0.101180 -0.012898 0.000953
0.100260 -0.012700 0.002575
0.104180 -0.013530 -0.002351
0.101260 -0.012918 0.002053
0.100520 -0.012187 -0.004188
0.101480 -0.012961 -0.000097
0.104390 -0.013572 0.001345
0.099702 -0.012590 -0.003700
0.101300 -0.012135 0.004300
0.101170 -0.012898 -0.000975
0.099612 -0.012568 0.003426
0.102360 -0.013148 -0.001196
0.104110 -0.013512 -0.001516
0.100010 -0.012648 -0.002672
0.100440 -0.012053 0.004258
0.107430 -0.013911 -0.000235
0.104910 -0.012044 0.004661
0.106310 -0.013792 -0.003714
0.108620 -0.014035 -0.000225
0.105020 -0.013660 0.000948
0.108780 -0.014048 0.001155
0.105090 -0.013666 -0.000671
0.105290 -0.013689 0.002975
0.106000 -0.013762 -0.001615
0.107480 -0.013911 -0.001527
0.107520 -0.013915 -0.003827
0.106310 -0.011953 -0.004747
0.104870 -0.013640 -0.001640
0.107480 -0.013911 0.000834
0.106280 -0.013791 -0.000671
0.108850 -0.014054 0.003964
0.107360 -0.013901 0.002113
0.106280 -0.013790 0.003802
0.105190 -0.011955 -0.004695
0.109300 -0.012993 0.004448
0.105780 -0.012717 0.004408
0.105870 -0.013748 0.001537
0.106320 -0.013790 0.000354
0.105610 -0.013723 -0.000064
0.108610 -0.014032 -0.001473
0.108170 -0.012472 0.004625
0.108700 -0.014037 0.002224
0.108590 -0.012171 -0.004753
0.105090 -0.013667 -0.003012
0.104850 -0.012564 -0.004414
0.106510 -0.013180 0.004240
0.107110 -0.012141 -0.004700
0.108430 -0.013811 -0.004030
0.106750 -0.013834 -0.001356
0.104810 -0.013277 -0.004100
0.107090 -0.013873 0.003796
0.108530 -0.014020 -0.002352
0.109380 -0.014113 -0.003706
0.109210 -0.012728 -0.004537
0.108120 -0.012779 -0.004467
0.108360 -0.014002 0.000472
0.105090 -0.013663 0.002018
0.105450 -0.013704 -0.002214
0.107480 -0.013914 0.002845
0.106940 -0.013859 -0.002301
0.105570 -0.013063 -0.004229
0.106500 -0.013813 0.002999
0.107880 -0.013957 -0.002812
0.104830 -0.013585 0.003987
0.105910 -0.013752 -0.003070
0.108650 -0.014036 0.003245
0.109250 -0.014099 -0.000744
0.107930 -0.013328 0.004240
0.104650 -0.012755 0.004340
0.107420 -0.012197 0.004711
0.107850 -0.013950 0.003491
0.107050 -0.013398 -0.004149
0.107310 -0.012890 0.004401
0.107920 -0.013960 0.001495
0.106970 -0.013860 -0.003234
0.108660 -0.014039 -0.003211
0.106450 -0.012873 -0.004350
0.109230 -0.012181 0.004800
0.105770 -0.013734 0.002297
0.106670 -0.013831 0.001176
0.106490 -0.013811 0.002085
0.108060 -0.013971 -0.000942
0.112870 -0.013070 0.004576
0.113430 -0.014490 -0.002877
0.114070 -0.014497 -0.003941
0.114240 -0.014497 -0.002630
0.112800 -0.014466 0.001799
0.111220 -0.012868 -0.004567
0.113750 -0.013133 -0.004538
0.109580 -0.014133 0.002829
0.113790 -0.014491 0.002625
0.112040 -0.014390 0.003217
0.113940 -0.013162 0.004548
0.112410 -0.014425 0.001025
0.112640 -0.014451 -0.001347
0.109690 -0.014017 0.004020
0.111040 -0.014286 0.000676
0.111710 -0.014352 0.001810
0.110920 -0.014270 0.001424
0.112930 -0.012848 -0.004656
0.114250 -0.014496 0.003681
0.109930 -0.014169 -0.001092
0.114460 -0.012241 0.004953
0.111230 -0.013185 0.004450
0.111120 -0.014293 -0.000963
0.112190 -0.014406 -0.000189
0.110390 -0.014218 -0.002694
0.112230 -0.014407 0.002340
0.110740 -0.012325 -0.004785
0.109540 -0.014128 0.000555
0.114160 -0.013716 -0.004284
0.112400 -0.013763 0.004254
0.114250 -0.014498 0.001977
0.114530 -0.014499 -0.000973
0.113070 -0.011992 0.005062
0.111110 -0.014291 -0.002092
0.112640 -0.013709 -0.004265
0.110650 -0.012751 0.004615
0.113470 -0.014489 0.003491
0.109950 -0.014172 0.001921
0.112460 -0.014433 -0.002611
0.110680 -0.014246 0.002362
0.110840 -0.014263 0.003167
0.110690 -0.013704 0.004199
0.111040 -0.014284 -0.003360
0.110180 -0.014192 0.000960
0.113470 -0.013797 0.004268
0.112920 -0.014479 -0.003510
0.114090 -0.014492 -0.000312
0.114530 -0.014496 0.000823
0.113730 -0.014493 -0.001139
0.113700 -0.014492 -0.001958
0.111820 -0.014366 -0.001891
0.114250 -0.012484 -0.004826
0.111220 -0.014299 0.003965
0.112680 -0.014457 0.003648
0.110330 -0.014209 -0.001951
0.110030 -0.012789 -0.004548
0.111930 -0.012707 0.004691
0.110680 -0.013606 -0.004223
0.112960 -0.014480 0.002740
0.111940 -0.014377 -0.001069
0.112160 -0.014396 -0.003417
0.114270 -0.013812 0.004264
0.111690 -0.013921 -0.004130
0.113530 -0.012018 -0.005032
0.113420 -0.013874 -0.004213
0.109570 -0.014134 -0.002714
0.110300 -0.014204 0.000085
0.113030 -0.014482 0.000224
0.112180 -0.012462 -0.004790
0.111350 -0.014318 -0.000001
0.109590 -0.014130 -0.001840
0.113330 -0.014489 -0.000469
0.109630 -0.013596 -0.004178
0.109970 -0.012407 0.004733
0.112000 -0.013271 -0.004428
0.114450 -0.014498 -0.001891
0.111370 -0.011861 -0.005019
0.110450 -0.014221 -0.003870
0.111390 -0.014318 0.002600
0.113580 -0.014491 0.001642
0.113750 -0.014491 0.000532
0.111660 -0.014350 -0.002667
0.117910 -0.013497 -0.004397
0.118480 -0.014538 0.002365
0.114800 -0.013115 0.004572
0.117690 -0.014529 0.003713
0.116910 -0.012780 -0.004706
0.116470 -0.012989 0.004633
0.115230 -0.012490 -0.004826
0.115340 -0.014505 -0.001757
0.117200 -0.014522 0.003043
0.118670 -0.012725 0.004760
0.116000 -0.013954 0.004208
0.115310 -0.014502 -0.000476
0.116610 -0.014515 -0.000885
0.117840 -0.014529 -0.002491
0.116440 -0.013744 -0.004282
0.116650 -0.014518 -0.001650
0.116180 -0.012445 -0.004850
0.118530 -0.014538 -0.001578
0.117020 -0.014522 0.000426
0.115930 -0.013096 -0.004562
0.116430 -0.011968 0.005092
0.115530 -0.014507 -0.002830
0.117580 -0.014526 -0.000993
0.115170 -0.014020 -0.004154
0.119170 -0.013231 0.004541
0.116360 -0.014515 -0.003814
0.114790 -0.013267 -0.004484
0.117340 -0.012658 0.004783
0.117230 -0.014524 0.001735
0.115900 -0.014509 0.003555
0.115850 -0.014508 0.001429
0.118430 -0.014535 0.000082
0.118880 -0.014541 0.003153
0.118320 -0.014534 -0.000824
0.118820 -0.014362 0.004041
0.118310 -0.013656 0.004349
0.119390 -0.013718 -0.004304
0.118600 -0.014438 -0.003986
0.115350 -0.014507 0.000649
0.116130 -0.014514 0.000017
0.116380 -0.014514 -0.002476
0.115240 -0.012057 0.005042
0.119250 -0.014545 0.002054
0.118300 -0.014537 -0.003139
0.117760 -0.012803 -0.004699
0.115190 -0.013988 0.004190
0.114740 -0.014503 -0.003482
0.117100 -0.014526 -0.003176
0.118640 -0.014538 0.001175
0.116840 -0.014518 0.002382
0.119230 -0.014546 -0.000679
0.117320 -0.013587 0.004374
0.118880 -0.011904 0.005132
0.115380 -0.014506 0.002838
0.116700 -0.014232 0.004090
0.119520 -0.014546 -0.002254
0.119140 -0.012106 -0.005017
0.119120 -0.014544 -0.003412
0.117790 -0.014366 -0.004014
0.116890 -0.012017 -0.005047
0.115700 -0.013107 0.004578
0.114560 -0.014498 0.002873
0.117970 -0.014532 0.002975
0.118680 -0.013290 -0.004490
0.115870 -0.014512 -0.001219
0.115950 -0.014514 0.002216
0.117580 -0.014527 -0.000063
0.115200 -0.014506 0.002041
0.118410 -0.012303 -0.004921
0.117920 -0.014530 0.000905
0.116620 -0.014521 0.001123
0.117130 -0.014015 -0.004165
0.118040 -0.014533 0.001749
0.118660 -0.014536 -0.002388
0.117630 -0.014528 -0.001764
0.120140 -0.014550 0.001975
0.120190 -0.013874 -0.004239
0.122730 -0.014495 -0.000105
0.120120 -0.014551 -0.000737
0.120940 -0.014560 -0.003218
0.123940 -0.014401 -0.002849
0.123460 -0.014235 -0.004030
0.121660 -0.014564 0.002182
0.123450 -0.014437 0.000536
0.123560 -0.014434 -0.001476
0.121420 -0.014563 0.000372
0.121220 -0.011888 0.005150
0.122750 -0.013323 -0.004454
0.124130 -0.013243 -0.004442
0.121420 -0.012036 -0.005060
0.123000 -0.012261 -0.004910
0.123820 -0.014412 0.003284
0.119790 -0.014545 0.000748
0.121700 -0.014567 -0.003440
0.122930 -0.012390 0.004878
0.120310 -0.014551 -0.003914
0.120420 -0.013055 0.004622
0.121660 -0.014565 0.001312
0.122740 -0.014493 0.002652
0.121220 -0.014565 -0.002375
0.124270 -0.014377 -0.000048
0.123140 -0.014466 0.002003
0.119980 -0.012107 0.005042
0.120680 -0.014555 0.001399
0.122420 -0.014516 0.000723
0.122710 -0.014498 -0.001326
0.123150 -0.014039 0.004149
0.119710 -0.014172 0.004128
0.121260 -0.013950 -0.004210
0.121680 -0.012578 0.004835
0.121850 -0.014564 -0.000426
0.121180 -0.014560 -0.000951
0.121820 -0.013306 -0.004492
0.122240 -0.013424 0.004448
0.122580 -0.014505 -0.003777
0.120680 -0.014556 -0.000135
0.120350 -0.014555 -0.002375
0.122250 -0.012390 -0.004878
0.124200 -0.014084 -0.004073
0.124460 -0.013862 0.004184
0.119770 -0.014548 -0.003002
0.121030 -0.012640 -0.004786
0.120590 -0.014554 0.003434
0.123520 -0.014436 -0.000273
0.121500 -0.014563 0.003830
0.119770 -0.013106 -0.004576
0.122400 -0.014521 0.001913
0.119670 -0.014549 -0.000039
0.124450 -0.014363 0.001918
0.119950 -0.012053 -0.005044
0.121240 -0.013332 0.004504
0.122280 -0.014527 0.003530
0.120940 -0.014562 -0.001685
0.122650 -0.014500 -0.002830
0.124050 -0.013219 0.004479
0.121050 -0.014558 0.002721
0.124060 -0.012487 -0.004777
0.123820 -0.012479 0.004810
0.123310 -0.014452 0.001281
0.121760 -0.014569 -0.001664
0.119770 -0.014550 -0.001524
0.124180 -0.014385 0.000936
0.122380 -0.014105 0.004147
0.122000 -0.014551 -0.002381
0.120380 -0.013842 0.004276
0.123250 -0.013025 0.004589
0.123060 -0.014470 -0.002068
0.124450 -0.014362 -0.001046
0.119790 -0.014550 0.002849
0.120750 -0.013377 -0.004460
0.120630 -0.014555 0.000607
0.121930 -0.014256 -0.004073
0.124540 -0.014356 0.002945
0.128960 -0.013178 0.004331
0.124760 -0.013015 0.004545
0.128480 -0.014056 -0.003249
0.127480 -0.014134 -0.003918
0.127730 -0.014112 -0.002959
0.125820 -0.014257 0.001781
0.124540 -0.014356 -0.002219
0.125200 -0.014307 0.001284
0.129350 -0.013990 -0.003245
0.125780 -0.014264 0.002705
0.128940 -0.014022 0.002698
0.125360 -0.014291 0.003520
0.125690 -0.012859 0.004582
0.126930 -0.014173 -0.003257
0.127200 -0.013131 0.004411
0.128210 -0.014075 0.003345
0.125860 -0.014255 -0.002229
0.128910 -0.012179 -0.004748
0.125960 -0.014249 0.000021
0.126970 -0.013018 -0.004447
0.127550 -0.014126 0.001992
0.126730 -0.014189 -0.001708
0.126250 -0.014227 -0.003581
0.125490 -0.013880 0.004140
0.126750 -0.014186 0.002384
0.128920 -0.013508 -0.004165
0.128960 -0.014017 0.000580
0.125190 -0.013588 -0.004256
0.125260 -0.012648 -0.004666
0.125690 -0.011975 -0.004946
0.128930 -0.014021 0.001707
0.126480 -0.014206 0.003341
0.127290 -0.014144 0.003295
0.129280 -0.013995 -0.002057
0.129160 -0.012261 0.004728
0.128010 -0.013048 0.004420
0.126450 -0.013711 -0.004160
0.127570 -0.014126 0.001247
0.127740 -0.014112 0.000430
0.129240 -0.012814 -0.004460
0.127760 -0.014111 -0.001719
0.128810 -0.014033 -0.001402
0.127010 -0.014169 -0.002502
0.127730 -0.013327 -0.004285
0.124720 -0.014342 -0.003596
0.127400 -0.014140 -0.000840
0.125440 -0.014241 -0.003963
0.125380 -0.014292 -0.003219
0.128140 -0.014082 -0.000970
0.127530 -0.012428 -0.004686
0.125940 -0.014248 0.001027
0.129050 -0.014011 -0.000286
0.128290 -0.014071 -0.002323
0.128040 -0.013857 0.004065
0.127270 -0.013842 0.004099
0.126730 -0.012299 -0.004768
0.125220 -0.014306 0.000246
0.126870 -0.014180 0.000465
0.126790 -0.014186 0.001424
0.127310 -0.012337 0.004754
0.125260 -0.014304 -0.001020
0.128360 -0.012779 -0.004504
0.126450 -0.012489 0.004717
0.126170 -0.012819 -0.004561
0.128170 -0.012157 0.004806
0.124590 -0.012348 0.004841
0.124720 -0.012174 -0.004891
0.128300 -0.014071 -0.000094
0.128160 -0.014080 0.002606
0.126280 -0.013334 0.004354
0.129330 -0.013991 0.003499
0.126630 -0.014198 -0.000760
0.128800 -0.013891 0.004026
0.129750 -0.013956 0.002068
0.130990 -0.013821 0.003984
0.132070 -0.013779 -0.002544
0.130710 -0.013883 0.000490
0.130750 -0.013883 -0.001098
0.130900 -0.012165 -0.004689
0.132560 -0.013744 0.002908
0.130960 -0.013866 -0.002658
0.132310 -0.013764 0.000222
0.134380 -0.013467 0.002033
0.131550 -0.013819 0.001132
0.131670 -0.012858 -0.004358
0.133860 -0.013560 -0.003135
0.132500 -0.013751 -0.001740
0.134350 -0.012087 0.004563
0.130750 -0.013884 0.003024
0.132540 -0.013376 0.004128
0.133170 -0.012573 0.004444
0.132180 -0.013773 0.002050
0.132190 -0.012694 0.004436
0.132260 -0.013766 0.000967
0.132690 -0.013732 -0.000439
0.132440 -0.013753 -0.003568
0.133900 -0.013555 -0.002296
0.133010 -0.013712 -0.003023
0.130270 -0.012696 -0.004477
0.129820 -0.013354 -0.004203
0.133290 -0.013661 0.002691
0.131140 -0.012609 0.004509
0.130480 -0.012925 0.004392
0.133080 -0.013245 -0.004138
0.134200 -0.013498 0.000933
0.131620 -0.013818 0.003232
0.133840 -0.013045 -0.004166
0.134130 -0.013514 -0.000212
0.130940 -0.013869 0.001841
0.129550 -0.013972 -0.000926
0.129660 -0.013500 0.004167
0.131770 -0.013740 -0.003969
0.131990 -0.012226 -0.004624
0.133130 -0.013692 0.000991
0.129740 -0.012700 0.004515
0.133140 -0.013691 -0.002159
0.132420 -0.012955 -0.004290
0.133620 -0.013602 -0.000851
0.134340 -0.012961 0.004187
0.131760 -0.013407 0.004139
0.129770 -0.013956 0.000305
0.130930 -0.013868 -0.000352
0.130760 -0.011912 0.004825
0.131510 -0.013824 -0.001388
0.134090 -0.013516 0.003022
0.133490 -0.013625 0.003481
0.131290 -0.013842 -0.003379
0.130030 -0.013939 -0.002687
0.129950 -0.013945 0.001083
0.133330 -0.012532 -0.004427
0.130160 -0.013927 -0.001561
0.130080 -0.013931 0.003644
0.130810 -0.013735 -0.004003
0.130070 -0.013935 -0.003760
0.133430 -0.013634 0.000213
0.129900 -0.013945 0.002913
0.131520 -0.013822 0.000176
0.131990 -0.013789 -0.000789
0.132700 -0.012000 0.004722
0.132970 -0.013713 0.001727
0.134630 -0.013422 -0.001534
0.139060 -0.012632 -0.002107
0.134640 -0.013014 -0.004117
0.137690 -0.012874 -0.000914
0.136040 -0.013169 0.003190
0.136920 -0.013012 -0.000864
0.137740 -0.012869 -0.000064
0.135980 -0.012024 -0.004442
0.137510 -0.012104 -0.004288
0.136200 -0.013144 -0.002881
0.137010 -0.012998 -0.003115
0.138020 -0.012818 0.000778
0.138240 -0.012462 -0.004077
0.138050 -0.012812 0.002886
0.137770 -0.012863 -0.002274
0.134560 -0.012079 -0.004526
0.135910 -0.013192 0.000626
0.134650 -0.013418 0.003671
0.136950 -0.012616 -0.004109
0.135520 -0.013265 -0.003817
0.137970 -0.012826 -0.003300
0.136580 -0.013076 -0.001765
0.135120 -0.013333 0.000011
0.139210 -0.012604 0.003601
0.137960 -0.012825 0.001780
0.137970 -0.012822 0.003735
0.138980 -0.012177 -0.004143
0.139110 -0.012621 -0.000111
0.135800 -0.013212 0.001902
0.138630 -0.012451 0.004076
0.136380 -0.013108 -0.003750
0.139360 -0.012577 0.001473
0.135170 -0.012607 0.004275
0.137080 -0.012985 0.003068
0.136110 -0.013157 -0.000947
0.136550 -0.013077 0.000161
0.134790 -0.013392 -0.002725
0.135290 -0.013306 -0.001107
0.136410 -0.013105 0.002471
0.135720 -0.013230 -0.001795
0.136120 -0.012734 0.004147
0.139370 -0.012574 -0.002953
0.134970 -0.013361 0.001175
0.135540 -0.013192 0.003994
0.135110 -0.013335 0.003038
0.137480 -0.012405 0.004184
0.136340 -0.013117 0.001381
0.137050 -0.012987 0.001718
0.138640 -0.012708 -0.002753
0.138750 -0.012688 0.000566
0.137430 -0.012922 0.002352
0.135120 -0.013336 0.002249
0.138070 -0.012805 -0.001556
0.137210 -0.012961 0.000639
0.135410 -0.012592 -0.004240
0.139050 -0.012633 0.002229
0.138970 -0.012645 -0.001245
0.138460 -0.012739 -0.000548
0.134820 -0.013388 -0.003492
0.142720 -0.011978 -0.000636
0.141700 -0.012161 -0.000226
0.142950 -0.011935 0.002868
0.143230 -0.011886 -0.002224
0.140390 -0.012393 0.003350
0.139800 -0.012497 -0.001105
0.141960 -0.012112 0.003873
0.139860 -0.012485 -0.000112
0.140390 -0.012392 -0.002865
0.141260 -0.012239 0.002945
0.141700 -0.012159 0.002246
0.140000 -0.012464 0.002723
0.141890 -0.012123 0.000579
0.140580 -0.012361 -0.001415
0.139870 -0.012485 -0.003526
0.139990 -0.012463 0.000872
0.139550 -0.011894 0.004245
0.140720 -0.012335 0.000799
0.143150 -0.011902 -0.003354
0.139810 -0.012496 -0.002011
0.143340 -0.011865 0.003542
0.140850 -0.012100 -0.004032
0.140840 -0.012311 0.001587
0.140080 -0.012448 0.001728
0.142360 -0.012043 -0.002438
0.141570 -0.012180 -0.003614
0.141600 -0.012178 -0.002548
0.142340 -0.012041 0.001845
0.143180 -0.011894 0.001237
0.142200 -0.012071 -0.003163
0.141690 -0.012164 -0.001477
0.141220 -0.012244 0.003722
0.140850 -0.012310 -0.002278
0.140920 -0.012298 -0.000634
0.141810 -0.012139 0.001330
0.142700 -0.011918 0.003992
0.143340 -0.011865 -0.000209
0.140350 -0.011953 0.004157
0.142590 -0.012001 -0.001732
0.142740 -0.011971 0.000606
0.142200 -0.012069 0.003071
0.154290 -0.012651 -0.003129
0.153800 -0.012221 -0.002746
0.153920 -0.012316 0.003270
0.153380 -0.011910 0.001101
0.153810 -0.012233 -0.001913
0.154040 -0.012421 -0.000190
0.154510 -0.012871 0.003448
0.153380 -0.011906 0.000270
0.154500 -0.012860 0.001597
0.154150 -0.012516 0.000865
0.153620 -0.012079 -0.001057
0.154480 -0.012465 -0.004060
0.153650 -0.012105 -0.003940
0.153940 -0.012335 0.001976
0.154300 -0.012676 -0.002304
0.154370 -0.012732 0.002569
0.153350 -0.011896 0.003541
0.159230 -0.016649 0.004920
0.155620 -0.014531 0.001970
0.157510 -0.014641 -0.004652
0.155390 -0.014062 -0.001219
0.156520 -0.016214 0.000026
0.157310 -0.015260 0.004472
0.156590 -0.014041 -0.004413
0.156370 -0.015932 0.003538
0.156420 -0.013224 -0.004522
0.155960 -0.015037 -0.003968
0.154830 -0.013252 0.000096
0.155620 -0.014535 0.003835
0.156740 -0.013163 0.004679
0.156540 -0.016258 0.001172
0.159510 -0.014196 0.005462
0.157320 -0.012549 0.005249
0.158040 -0.015267 0.004751
0.156130 -0.015260 0.004018
0.156630 -0.016414 0.002221
0.155460 -0.014199 -0.002921
0.155840 -0.014968 -0.002082
0.154580 -0.012947 -0.001511
0.156400 -0.012080 0.004826
0.158130 -0.012563 0.005462
0.157800 -0.012299 -0.005435
0.158650 -0.014266 0.005361
0.157920 -0.014467 0.004874
0.157150 -0.014420 0.004585
0.156670 -0.016480 -0.003499
0.158860 -0.013471 0.005462
0.156720 -0.016585 -0.000625
0.155250 -0.013836 0.001942
0.158970 -0.014866 -0.005175
0.156260 -0.015741 -0.000642
0.157420 -0.015950 -0.004344
0.156110 -0.012720 0.004551
0.159180 -0.014960 0.005365
0.155350 -0.014013 -0.001999
0.158690 -0.014150 -0.005435
0.155470 -0.014203 -0.000060
0.155850 -0.013675 -0.004202
0.158130 -0.013762 0.005108
0.156680 -0.016513 0.003052
0.158550 -0.012405 -0.005435
0.155580 -0.012467 -0.004411
0.155140 -0.011925 0.004456
0.156660 -0.016461 -0.001451
0.156340 -0.015887 -0.002721
0.156110 -0.015472 0.000839
0.158080 -0.015719 -0.004645
0.158980 -0.016249 -0.004881
0.157970 -0.014044 -0.004954
0.155720 -0.014739 0.001155
0.157820 -0.015999 0.004513
0.156830 -0.016777 -0.002396
0.155420 -0.014128 0.002704
0.155290 -0.013907 0.000949
0.155760 -0.014805 -0.000536
0.156030 -0.015303 0.002597
0.155390 -0.013138 0.004192
0.156400 -0.014125 0.004351
0.155080 -0.013157 -0.004050
0.155940 -0.015155 0.000137
0.157800 -0.013328 -0.005047
0.157220 -0.012555 -0.005003
0.158900 -0.015820 0.004966
0.156950 -0.015243 -0.004307
0.158880 -0.013128 -0.005435
0.154970 -0.013425 -0.002906
0.156240 -0.015694 0.001817
0.155820 -0.014916 -0.003181
0.155090 -0.013588 0.003374
0.156210 -0.015631 -0.001772
0.154830 -0.013248 -0.000702
0.156810 -0.015807 0.004164
0.154640 -0.012536 0.004109
0.155990 -0.015238 -0.001168
0.157940 -0.016476 -0.004432
0.157180 -0.016555 0.004151
0.156390 -0.015748 -0.003989
0.155870 -0.015029 0.003290
0.158790 -0.012074 0.005462
0.154860 -0.013290 0.002296
0.157250 -0.013710 0.004768
0.158170 -0.014940 -0.004842
0.155510 -0.014292 -0.003828
0.157260 -0.013757 -0.004733
0.154810 -0.013225 0.000897
0.162260 -0.013471 -0.005435
0.163090 -0.014993 0.005463
0.164400 -0.014417 0.005463
0.161420 -0.013860 0.005462
0.159640 -0.013008 0.005462
0.160390 -0.015322 -0.005435
0.161060 -0.012276 0.005462
0.163300 -0.014124 0.005462
0.160140 -0.013687 -0.005435
0.162330 -0.014740 0.005462
0.160440 -0.013657 0.005462
0.159850 -0.016196 0.005276
0.163510 -0.012909 0.005462
0.164080 -0.015250 0.005463
0.164270 -0.011975 0.005462
0.160150 -0.016556 -0.005292
0.164440 -0.012958 0.005462
0.163960 -0.013106 -0.005435
0.163040 -0.015863 -0.005435
0.162500 -0.012462 -0.005435
0.163390 -0.012238 -0.005435
0.163060 -0.013534 -0.005435
0.159830 -0.014580 -0.005435
0.162120 -0.016526 -0.005435
0.163760 -0.016165 0.005463
0.162140 -0.015614 -0.005435
0.161290 -0.012607 -0.005435
0.160380 -0.012688 0.005462
0.161150 -0.015253 -0.005435
0.160680 -0.014421 -0.005435
0.162330 -0.013675 0.005462
0.162560 -0.014833 -0.005435
0.162210 -0.012397 0.005462
0.163610 -0.014208 -0.005435
0.159820 -0.015842 -0.005320
0.163810 -0.016180 -0.005435
0.164460 -0.014891 -0.005435
0.161850 -0.013104 0.005462
0.162760 -0.016030 0.005463
0.161450 -0.016019 0.005463
0.159990 -0.012339 -0.005435
0.161300 -0.016077 -0.005435
0.160130 -0.015107 0.005462
0.160900 -0.015350 0.005462
0.164040 -0.013656 0.005462
0.164510 -0.012158 -0.005435
0.161650 -0.015231 0.005462
0.163890 -0.015357 -0.005435
0.162260 -0.016839 0.005377
0.160700 -0.014533 0.005462
0.161410 -0.013841 -0.005435
0.160840 -0.013295 -0.005435
0.161730 -0.014680 -0.005435
0.160620 -0.016202 0.005463
0.167660 -0.013779 -0.005147
0.165850 -0.015270 -0.005435
0.169250 -0.016516 -0.004033
0.164540 -0.016494 0.005325
0.166880 -0.015091 -0.005253
0.168790 -0.014665 -0.004524
0.167090 -0.013735 0.005431
0.164720 -0.015744 0.005463
0.167700 -0.016845 0.004512
0.166910 -0.014348 -0.005374
0.165680 -0.013844 0.005462
0.169350 -0.015131 -0.004222
0.164540 -0.016307 -0.005384
0.165680 -0.015849 0.005451
0.164940 -0.015505 -0.005435
0.169020 -0.015548 0.004313
0.168920 -0.012390 -0.004704
0.168140 -0.012410 0.005073
0.167210 -0.012273 0.005462
0.166450 -0.016187 -0.005068
0.167900 -0.014025 0.005025
0.165260 -0.014900 0.005463
0.166300 -0.012678 -0.005435
0.167180 -0.015919 0.004970
0.167450 -0.012987 0.005342
0.165500 -0.012575 0.005462
0.168860 -0.015895 -0.004292
0.167200 -0.012573 -0.005435
0.166290 -0.014257 0.005463
0.168770 -0.013451 0.004709
0.165060 -0.013425 0.005462
0.166420 -0.016602 0.004955
0.168170 -0.013174 -0.004966
0.168500 -0.016750 0.004319
0.166530 -0.015162 0.005423
0.166540 -0.012989 0.005462
0.167680 -0.014655 -0.004982
0.165070 -0.013910 -0.005435
0.168760 -0.014751 0.004552
0.167740 -0.014757 0.004963
0.166620 -0.013524 -0.005435
0.167030 -0.014610 0.005303
0.168780 -0.013481 -0.004675
0.167910 -0.015880 -0.004683
0.165560 -0.016371 -0.005258
0.168280 -0.015612 0.004603
0.167220 -0.016228 -0.004827
0.169390 -0.016740 0.003558
0.166090 -0.011945 -0.005435
0.168300 -0.014165 -0.004808
0.165040 -0.013039 -0.005435
0.165840 -0.014064 -0.005435
0.165460 -0.016601 0.005189
0.169420 -0.016668 -0.001881
0.165450 -0.012420 -0.005435
0.169430 -0.016630 0.002119
0.168150 -0.012246 -0.005053
0.169200 -0.014089 0.004468
0.169380 -0.013844 -0.004383
0.168940 -0.012493 0.004713
0.170530 -0.013236 -0.002471
0.170240 -0.014631 0.002826
0.169600 -0.016101 0.003987
0.169580 -0.016275 0.001059
0.169810 -0.015696 0.003124
0.169680 -0.012821 0.004368
0.169960 -0.014579 -0.004066
0.170630 -0.012723 0.002331
0.170600 -0.012860 -0.003870
0.170400 -0.012261 0.004105
0.169950 -0.014184 0.004136
0.170320 -0.014341 -0.001299
0.170690 -0.012404 -0.001154
0.170540 -0.013191 0.000953
0.170080 -0.015032 -0.000337
0.170530 -0.013237 -0.000836
0.170400 -0.013926 -0.000056
0.169860 -0.015576 -0.003787
0.169930 -0.015391 0.000706
0.170710 -0.012314 0.003227
0.170510 -0.013338 0.003600
0.169640 -0.016110 -0.001291
0.170190 -0.014762 -0.002058
0.169920 -0.015427 -0.001487
0.170340 -0.014224 -0.003397
0.169580 -0.014928 0.004187
0.170520 -0.013284 -0.001631
0.169790 -0.015739 0.002335
0.169880 -0.015536 -0.002866
0.169630 -0.016145 -0.000181
0.170540 -0.013194 0.000034
0.170310 -0.014369 0.001293
0.170200 -0.014750 0.000355
0.170770 -0.012033 0.001297
0.169640 -0.012056 -0.004423
0.169800 -0.012833 -0.004288
0.170690 -0.012435 -0.002882
0.169880 -0.015535 0.001479
0.170060 -0.013700 -0.004104
0.169620 -0.016164 -0.002527
0.170730 -0.012193 -0.002096
0.170400 -0.013901 0.001897
0.170730 -0.012220 -0.000275
0.169600 -0.016219 -0.003266
0.170370 -0.014064 -0.002372
0.170140 -0.014896 -0.003157
0.170700 -0.012377 0.000509
0.170140 -0.014894 0.001906
0.170480 -0.013502 0.002678
0.170500 -0.013408 -0.003332
0.170340 -0.014222 0.003491
0.170080 -0.015045 0.003565
0.029793 -0.009281 0.004546
0.031730 -0.006920 0.005420
0.033861 -0.010913 0.005455
0.032889 -0.010469 0.005455
0.033718 -0.010129 0.005455
0.029611 -0.010299 0.004469
0.032783 -0.008605 -0.005443
0.030691 -0.010183 -0.004931
0.031371 -0.008356 -0.005245
0.032453 -0.007412 0.005454
0.033246 -0.007445 -0.005443
0.029650 -0.010945 -0.004478
0.030208 -0.009577 -0.004717
0.032445 -0.009376 0.005455
0.030675 -0.008422 -0.004918
0.031328 -0.010761 0.005245
0.033172 -0.008340 0.005455
0.030484 -0.010728 0.004856
0.034114 -0.009620 -0.005443
0.033353 -0.009361 0.005455
0.031831 -0.010652 -0.005443
0.032788 -0.010215 -0.005443
0.033373 -0.007550 0.005454
0.034411 -0.008320 -0.005443
0.034006 -0.008089 0.005455
0.031722 -0.007938 0.005420
0.029693 -0.010074 -0.004492
0.031456 -0.009130 -0.005288
0.032122 -0.008145 -0.005443
0.029952 -0.008012 0.004612
0.030558 -0.007318 0.004876
0.031605 -0.007088 -0.005350
0.033537 -0.010727 -0.005443
0.033372 -0.009170 -0.005443
0.034153 -0.011766 -0.005442
0.032159 -0.010759 0.005455
0.029797 -0.008275 -0.004532
0.031717 -0.011509 0.005431
0.029867 -0.007274 -0.004561
0.029884 -0.011093 0.004593
0.030721 -0.009362 0.004955
0.034198 -0.007592 -0.005443
0.031457 -0.009754 0.005302
0.030314 -0.008724 0.004774
0.031181 -0.010967 -0.005162
0.030612 -0.007342 -0.004889
0.033511 -0.008413 -0.005443
0.034106 -0.008968 0.005455
0.032552 -0.011480 -0.005443
0.034185 -0.006983 0.005454
0.033158 -0.011205 0.005455
0.030600 -0.011509 0.004910
0.031756 -0.011681 -0.005436
0.034446 -0.011741 0.005455
0.033396 -0.011480 -0.005443
0.031152 -0.008716 0.005156
0.032077 -0.009535 -0.005443
0.030217 -0.011580 -0.004728
0.032262 -0.007407 -0.005443
0.032437 -0.008539 0.005455
0.029663 -0.009122 -0.004478
0.031393 -0.010073 -0.005262
0.038170 -0.010172 0.005455
0.034781 -0.010528 -0.005443
0.037662 -0.011524 0.005455
0.037501 -0.010511 0.005455
0.038622 -0.011462 0.005455
0.035659 -0.010724 -0.005442
0.038295 -0.007709 0.005455
0.038918 -0.010632 0.005455
0.038533 -0.008539 0.005455
0.037870 -0.009680 -0.005443
0.039257 -0.008006 -0.005443
0.037903 -0.011007 -0.005442
0.035917 -0.010737 0.005455
0.039353 -0.007983 0.005455
0.037710 -0.008247 0.005455
0.038397 -0.006903 0.005455
0.037819 -0.007400 -0.005443
0.036717 -0.011455 -0.005442
0.034709 -0.010058 0.005455
0.035744 -0.009069 0.005455
0.035123 -0.007380 0.005454
0.038751 -0.009325 0.005455
0.035766 -0.006887 0.005454
0.037214 -0.010679 -0.005442
0.037127 -0.007793 0.005455
0.036291 -0.007736 0.005455
0.038562 -0.007060 -0.005443
0.038004 -0.008715 -0.005443
0.036568 -0.011790 0.005455
0.035538 -0.009986 0.005455
0.035396 -0.011835 -0.005442
0.035953 -0.009792 -0.005443
0.039454 -0.011243 -0.005442
0.038406 -0.007895 -0.005443
0.036336 -0.007883 -0.005443
0.039154 -0.007072 0.005455
0.037485 -0.009510 0.005455
0.036720 -0.010142 0.005455
0.035210 -0.009778 -0.005443
0.039050 -0.008956 -0.005443
0.036164 -0.008627 -0.005443
0.035573 -0.008025 0.005455
0.034779 -0.009023 -0.005443
0.039084 -0.010554 -0.005442
0.037119 -0.008827 0.005455
0.034845 -0.006936 -0.005443
0.035264 -0.007927 -0.005443
0.035053 -0.010778 0.005455
0.035783 -0.007080 -0.005443
0.038563 -0.011567 -0.005442
0.036457 -0.010763 -0.005442
0.036825 -0.007298 -0.005443
0.036619 -0.011051 0.005455
0.036371 -0.009482 0.005455
0.036865 -0.009782 -0.005443
0.035559 -0.011466 0.005455
0.035124 -0.008665 0.005455
0.037251 -0.008737 -0.005443
0.038371 -0.010243 -0.005442
0.037172 -0.008007 -0.005443
0.036643 -0.007017 0.005455
0.043622 -0.008960 0.005455
0.043459 -0.007776 0.005455
0.042479 -0.008199 0.005455
0.041748 -0.007424 0.005455
0.040105 -0.006980 0.005455
0.044526 -0.011437 0.004519
0.043526 -0.010517 -0.005106
0.040887 -0.007166 0.005455
0.042261 -0.006992 -0.005443
0.039542 -0.009878 -0.005442
0.042043 -0.011623 -0.005417
0.041882 -0.008839 -0.005442
0.043574 -0.007950 -0.005442
0.043081 -0.010316 0.005347
0.044392 -0.010547 -0.004778
0.042733 -0.008528 -0.005442
0.041509 -0.008670 0.005455
0.040128 -0.011399 0.005455
0.040131 -0.006864 -0.005443
0.044303 -0.009344 0.005142
0.043173 -0.011691 -0.004943
0.041988 -0.010721 -0.005442
0.044359 -0.007599 -0.005442
0.043533 -0.007203 -0.005443
0.043807 -0.011220 -0.004824
0.042366 -0.009885 0.005455
0.044204 -0.008501 0.005421
0.040491 -0.007977 0.005455
0.040681 -0.010834 0.005455
0.044078 -0.008956 -0.005327
0.041453 -0.006991 -0.005443
0.039861 -0.009366 0.005455
0.043513 -0.011613 0.004850
0.043879 -0.010490 0.004991
0.042653 -0.011136 -0.005293
0.042072 -0.009604 -0.005442
0.041083 -0.011735 0.005455
0.040082 -0.008636 0.005455
0.043569 -0.009597 -0.005340
0.043050 -0.011083 0.005162
0.044219 -0.007273 0.005455
0.041905 -0.007656 -0.005443
0.043636 -0.009805 0.005270
0.044402 -0.009818 -0.004959
0.044474 -0.011451 -0.004522
0.041331 -0.009508 -0.005442
0.039966 -0.008310 -0.005443
0.041430 -0.009945 0.005455
0.040603 -0.009176 0.005455
0.041212 -0.010443 -0.005442
0.042775 -0.009901 -0.005442
0.040627 -0.009193 -0.005442
0.039978 -0.010436 0.005455
0.042725 -0.007707 -0.005443
0.040352 -0.010607 -0.005442
0.040653 -0.007590 -0.005443
0.040226 -0.011398 -0.005442
0.042319 -0.011575 0.005329
0.042216 -0.009123 0.005455
0.041682 -0.011115 0.005455
0.041209 -0.008110 -0.005443
0.042285 -0.010652 0.005455
0.042953 -0.009315 0.005455
0.042790 -0.007406 0.005455
0.049417 -0.007538 0.003490
0.048961 -0.007998 -0.000053
0.048302 -0.007170 0.004420
0.045900 -0.009474 -0.004527
0.046086 -0.007314 0.005095
0.048487 -0.008485 0.003790
0.044893 -0.008577 0.005141
0.047506 -0.008535 -0.004252
0.045614 -0.007753 -0.005114
0.047996 -0.009032 0.003697
0.047177 -0.009995 -0.001171
0.046261 -0.011179 0.003527
0.048883 -0.008078 -0.000965
0.045971 -0.009436 0.004525
0.047455 -0.007302 -0.004634
0.046562 -0.010780 -0.001565
0.046182 -0.011292 0.000933
0.046885 -0.009429 0.004216
0.045795 -0.010630 0.004267
0.048826 -0.008136 0.002873
0.045416 -0.011061 -0.004280
0.047765 -0.009292 -0.001786
0.044644 -0.008408 -0.005271
0.046219 -0.011241 -0.003089
0.045529 -0.011737 0.004081
0.048601 -0.008369 0.000543
0.045982 -0.011576 0.001735
0.045055 -0.009423 -0.004834
0.049081 -0.007875 -0.002142
0.048515 -0.008456 0.001947
0.046506 -0.007547 -0.004869
0.046913 -0.007695 0.004705
0.045193 -0.009863 0.004682
0.048078 -0.008941 0.002745
0.047249 -0.009907 0.001900
0.046600 -0.010729 -0.000110
0.048466 -0.008507 -0.001458
0.048432 -0.008546 -0.002862
0.047665 -0.009409 -0.002998
0.047497 -0.007172 0.004672
0.048324 -0.008668 -0.000655
0.047230 -0.009932 -0.003415
0.045987 -0.011566 -0.000268
0.049067 -0.007889 0.001058
0.046164 -0.010475 -0.004166
0.046512 -0.008923 -0.004472
0.047197 -0.009972 -0.000382
0.046189 -0.011284 -0.002057
0.046260 -0.008580 0.004665
0.047723 -0.009336 0.002197
0.045260 -0.010173 -0.004563
0.047465 -0.008242 0.004364
0.047224 -0.009940 0.001150
