ply
format ascii 1.0
element vertex 1672
property float x
property float y
property float z
end_header
-0.173200 0.001304 -0.009336
-0.173260 -0.001029 0.010994
-0.170230 -0.001256 -0.011431
-0.172810 0.001744 0.008957
-0.173310 0.000162 0.010277
-0.171920 0.002171 -0.008740
-0.173050 0.002766 -0.007960
-0.170140 -0.001602 0.011629
-0.169800 0.000539 -0.010510
-0.171060 0.001422 0.009576
-0.174460 0.002265 0.008144
-0.174580 0.000512 -0.009847
-0.171290 0.000517 -0.010366
-0.172050 0.002840 0.007948
-0.169830 0.002966 0.008204
-0.171890 0.000213 0.010383
-0.173410 0.003095 0.007381
-0.172490 -0.001076 -0.011114
-0.170370 0.000097 0.010591
-0.174440 0.001007 0.009444
-0.171730 -0.001387 0.011351
-0.173920 -0.000955 -0.010898
-0.173140 0.000040 -0.010443
-0.174240 0.003007 -0.007232
-0.167990 0.002933 -0.008674
-0.165810 -0.001108 -0.011799
-0.165370 0.002703 -0.009333
-0.169400 0.001289 0.009974
-0.166640 -0.000597 0.011357
-0.165430 -0.001082 0.011705
-0.168900 -0.000483 -0.011151
-0.167450 -0.001662 -0.011935
-0.169430 0.001989 -0.009333
-0.165500 0.000596 -0.010903
-0.167590 0.000216 0.010792
-0.167400 0.001537 -0.010098
-0.165790 0.000544 0.010760
-0.168510 -0.000856 0.011338
-0.167960 0.002084 0.009421
-0.164830 0.001702 -0.010380
-0.166930 0.001579 0.010033
-0.165180 0.002253 0.009711
-0.167450 -0.000336 -0.011213
-0.166490 0.002854 0.008879
-0.168720 0.001200 -0.010190
-0.160690 -0.001560 0.012040
-0.164300 0.000182 -0.011249
-0.160200 0.002352 -0.010488
-0.162930 0.001886 -0.010475
-0.163780 -0.001227 -0.012025
-0.162510 0.000114 -0.011467
-0.163810 0.002829 -0.009481
-0.163680 0.002754 0.009456
-0.161540 0.001486 -0.010822
-0.163980 0.000212 0.011130
-0.160690 0.001222 0.010833
-0.160990 0.000252 -0.011555
-0.162860 -0.000663 0.011686
-0.161840 0.002053 0.010229
-0.163160 0.001339 0.010534
-0.162330 -0.001243 -0.012104
-0.160520 -0.001208 -0.012175
-0.160190 0.002385 0.010187
-0.162160 0.000564 0.011087
-0.160510 -0.000007 0.011592
-0.157590 -0.000168 0.011765
-0.155370 0.000929 -0.011751
-0.158910 0.002168 -0.010720
-0.156650 -0.000850 -0.012283
-0.156360 0.003009 -0.010521
-0.158220 0.000908 -0.011469
-0.157010 0.001974 0.010728
-0.159680 0.000891 -0.011326
-0.159090 0.001415 0.010870
-0.158850 -0.000557 -0.012104
-0.155220 0.002970 0.010307
-0.156170 0.000858 0.011474
-0.158300 0.002546 0.010271
-0.158900 -0.000087 0.011688
-0.156580 0.001826 -0.011143
-0.156220 -0.000766 0.011993
-0.156790 0.000545 -0.011810
-0.154710 -0.000020 0.011838
-0.157780 -0.001601 -0.012413
-0.151590 -0.000268 -0.012396
-0.150890 0.003073 -0.011032
-0.154420 0.001186 0.011441
-0.151400 0.001733 0.011407
-0.152660 0.002426 -0.011210
-0.150220 -0.000957 -0.012624
-0.152400 0.000516 0.011779
-0.154540 0.002915 -0.010749
-0.150790 -0.000011 0.011994
-0.154680 -0.000453 -0.012289
-0.154600 -0.001424 0.012244
-0.152950 -0.000685 0.012106
-0.153930 0.001439 -0.011613
-0.150090 0.002095 -0.011650
-0.153000 0.000615 -0.012108
-0.152490 0.002746 0.010700
-0.150840 0.001046 -0.012115
-0.150420 0.002623 0.010961
-0.153070 0.001631 0.011305
-0.150110 -0.001072 0.012328
-0.153160 -0.000700 -0.012419
-0.151730 -0.001217 0.012305
-0.148300 -0.000925 0.012364
-0.146770 0.000961 -0.012334
-0.146080 -0.000696 -0.012767
-0.147970 -0.000391 -0.012609
-0.147540 0.000454 0.011998
-0.145670 0.002775 0.011324
-0.145830 0.001426 0.011792
-0.147120 0.001652 0.011670
-0.145220 0.001307 -0.012331
-0.144720 0.002629 -0.011895
-0.148590 0.001784 -0.011967
-0.145710 0.000005 0.012206
-0.149120 0.000071 0.012042
-0.147230 0.002352 -0.011795
-0.149340 0.001933 0.011478
-0.148140 0.002820 0.011061
-0.149430 0.000475 -0.012319
-0.141200 0.001051 -0.012586
-0.143220 0.003128 -0.011778
-0.140990 0.002823 0.011583
-0.144110 0.002340 0.011599
-0.142180 -0.001804 -0.012931
-0.143520 0.000836 0.012053
-0.140360 -0.001250 -0.012948
-0.141820 0.002679 -0.012161
-0.140460 0.002354 -0.012310
-0.140550 0.000705 0.012209
-0.141130 -0.001596 0.012418
-0.143230 -0.000770 0.012415
-0.144400 -0.001494 -0.012925
-0.142530 -0.000463 -0.012890
-0.142400 0.002794 0.011540
-0.143520 0.001415 -0.012388
-0.142150 0.000867 0.012098
-0.143750 0.000119 -0.012682
-0.141670 -0.000340 0.012399
-0.137460 -0.000169 0.012377
-0.134890 -0.000314 -0.012999
-0.134820 0.002191 0.012025
-0.137070 0.002284 -0.012494
-0.136660 0.002140 0.011959
-0.138370 0.000996 0.012220
-0.136080 -0.000913 -0.012978
-0.138890 -0.000231 0.012380
-0.135280 0.001110 -0.012861
-0.136010 0.000739 0.012351
-0.138790 -0.001173 -0.012962
-0.139640 0.000172 -0.012877
-0.138220 0.000273 -0.012924
-0.137220 -0.001667 -0.012960
-0.136020 -0.000795 0.012382
-0.138190 0.002377 0.011835
-0.139380 -0.001571 0.012408
-0.138780 0.001678 -0.012554
-0.136890 0.000631 -0.012905
-0.139620 0.002072 0.011862
-0.133720 0.000818 -0.013012
-0.130990 0.002279 -0.012794
-0.134690 -0.001691 -0.012965
-0.130070 0.000763 -0.013039
-0.131880 0.000159 -0.013013
-0.134670 -0.000603 0.012369
-0.131090 0.001712 0.012305
-0.132200 0.001505 -0.012915
-0.134640 0.002730 -0.012506
-0.131090 -0.000903 -0.012994
-0.133970 0.001139 0.012332
-0.132530 0.002450 0.012035
-0.133090 -0.001105 0.012376
-0.133490 0.002065 -0.012718
-0.133080 -0.000797 -0.012990
-0.131900 -0.000283 0.012350
-0.130580 -0.000320 0.012349
-0.132270 0.001156 0.012325
-0.127620 0.000533 -0.013048
-0.129340 -0.000359 -0.013016
-0.127280 -0.001592 0.012209
-0.129680 0.000949 0.012318
-0.128000 0.001837 -0.013049
-0.126140 0.002984 0.012150
-0.124990 0.002960 -0.012924
-0.127100 0.001969 0.012286
-0.129140 -0.000491 0.012343
-0.129560 0.002646 -0.012772
-0.129170 -0.001802 -0.012989
-0.126290 0.001247 -0.013067
-0.125930 -0.000652 0.012335
-0.129090 0.002633 0.012134
-0.125800 -0.001510 -0.012946
-0.124830 -0.001387 0.012130
-0.127420 0.000077 0.012327
-0.124760 0.001448 -0.013080
-0.126400 -0.000192 -0.013039
-0.126370 0.002745 -0.012910
-0.125620 0.001106 0.012299
-0.123700 0.002695 -0.013053
-0.122230 -0.000859 -0.012977
-0.120310 0.000512 0.012288
-0.120310 0.002604 -0.013120
-0.124340 0.000654 0.012299
-0.124110 -0.000014 -0.013046
-0.120860 -0.001681 -0.012690
-0.123010 0.000801 0.012296
-0.121350 -0.000691 0.012130
-0.122120 0.001321 -0.013090
-0.123330 -0.000957 0.012166
-0.120980 -0.000351 -0.013054
-0.122270 0.002276 0.012254
-0.122310 0.002667 -0.013115
-0.124680 0.002270 0.012267
-0.118200 0.001258 0.012260
-0.117860 0.002685 0.012230
-0.118950 -0.001516 0.011814
-0.115860 0.002868 -0.013150
-0.117750 0.001642 -0.013107
-0.119360 -0.001303 -0.012738
-0.119690 0.000407 -0.013076
-0.115810 0.000583 -0.013098
-0.114870 0.001746 0.012233
-0.115730 0.000097 0.012041
-0.117590 -0.000383 0.012024
-0.115920 0.002601 0.012219
-0.117480 -0.001216 -0.012688
-0.117370 0.000144 -0.013069
-0.118970 0.000082 0.012199
-0.119050 0.001917 -0.013109
-0.116720 0.001195 0.012256
-0.119230 0.002481 0.012235
-0.115980 -0.001598 -0.012517
-0.116280 -0.001132 0.011777
-0.114440 0.000087 -0.012938
-0.112530 -0.001353 0.011540
-0.110000 0.002944 0.012194
-0.112020 0.000397 0.011937
-0.112990 0.002920 0.012205
-0.110290 -0.000809 -0.012511
-0.109990 0.002472 -0.013164
-0.114030 -0.001123 0.011665
-0.114620 -0.001488 -0.012493
-0.114110 0.000213 0.011997
-0.111490 0.000225 -0.012849
-0.109800 0.000636 -0.012898
-0.112760 0.001569 0.012233
-0.112260 0.001667 -0.013136
-0.109870 -0.001142 0.011455
-0.111710 -0.001061 -0.012494
-0.113290 0.002648 -0.013151
-0.112950 0.000474 -0.012986
-0.113040 -0.001044 -0.012551
-0.110770 -0.000220 0.011719
-0.114540 0.001957 -0.013132
-0.111100 -0.001767 0.011293
-0.111380 0.001551 0.012179
-0.107880 -0.000325 -0.012549
-0.109250 -0.001666 -0.012215
-0.108130 0.001186 -0.012997
-0.107320 0.002368 0.012179
-0.106400 -0.001257 0.011097
-0.106800 0.001768 -0.013105
-0.107940 0.001145 0.011915
-0.105410 0.000089 0.011539
-0.107800 -0.001223 0.011259
-0.109680 0.001587 0.012105
-0.108610 0.002582 0.012196
-0.109000 0.000264 0.011751
-0.105590 0.001619 0.011916
-0.106270 0.000621 -0.012754
-0.106710 0.000596 0.011715
-0.105600 -0.001144 -0.012187
-0.107100 -0.001420 -0.012175
-0.103660 -0.000365 -0.012363
-0.100330 0.002417 -0.013022
-0.101450 0.000430 0.011422
-0.101230 -0.001779 -0.011406
-0.100080 0.001566 0.011627
-0.103020 0.002830 -0.013199
-0.104640 0.002969 -0.013197
-0.104620 0.001054 -0.012810
-0.101980 0.002073 0.011843
-0.104280 0.001527 0.011826
-0.104330 -0.001486 -0.011865
-0.103030 0.000869 0.011604
-0.100250 -0.000904 0.010669
-0.101770 -0.001256 0.010629
-0.102010 -0.000907 -0.012002
-0.101900 0.001326 -0.012778
-0.100390 -0.000701 -0.011966
-0.100670 0.002916 0.011981
-0.100720 0.000604 -0.012521
-0.102930 -0.000391 0.011213
-0.094876 0.002395 0.011573
-0.096354 0.001139 0.011343
-0.097671 0.003073 0.011874
-0.096922 0.002807 -0.012999
-0.096649 -0.001646 0.009901
-0.099332 -0.001690 0.010152
-0.094902 0.000921 0.011121
-0.098329 0.003146 -0.013152
-0.097265 0.000261 -0.012250
-0.097166 -0.000519 0.010562
-0.098435 0.001787 -0.012767
-0.095879 0.000065 0.010756
-0.099381 0.000244 -0.012364
-0.099391 -0.001586 -0.011341
-0.095129 0.000738 -0.012331
-0.096393 0.001314 -0.012547
-0.099236 -0.000073 0.011015
-0.096324 -0.000483 -0.011716
-0.097740 0.000537 0.011203
-0.098223 -0.000909 -0.011638
-0.098657 0.001719 0.011597
-0.099295 0.003059 0.011949
-0.091211 0.001580 -0.012405
-0.090724 -0.001030 -0.010856
-0.093050 0.001063 -0.012329
-0.090131 0.000005 0.010146
-0.090759 0.002754 0.011461
-0.090689 -0.001184 0.009488
-0.090245 0.000607 -0.011790
-0.094357 0.002017 -0.012666
-0.092022 0.002558 -0.012722
-0.092695 -0.001600 -0.010710
-0.093041 -0.001809 0.009290
-0.094173 -0.000939 0.010038
-0.092939 -0.000087 -0.011638
-0.094493 -0.000322 -0.011637
-0.093508 0.001099 0.011080
-0.091563 0.001431 0.011058
-0.090414 0.003087 -0.012808
-0.092160 -0.000859 0.009884
-0.089730 0.001864 -0.012433
-0.092301 0.000393 0.010574
-0.091604 0.000243 -0.011705
-0.092529 0.002371 0.011456
-0.086042 -0.000860 -0.010423
-0.089143 -0.001800 0.008632
-0.088258 0.002004 -0.012412
-0.087860 -0.001277 0.008908
-0.084781 0.000616 -0.011285
-0.086535 -0.001617 0.008371
-0.089145 -0.001828 -0.009943
-0.086885 0.000539 0.010109
-0.085536 0.002936 -0.012567
-0.087091 0.002680 -0.012557
-0.088260 -0.000598 -0.010887
-0.085117 0.001707 -0.011968
-0.086104 0.000766 -0.011504
-0.087223 0.002031 0.010951
-0.085307 0.002541 0.011028
-0.089489 0.001695 0.010998
-0.085210 0.001059 0.010226
-0.086719 -0.000688 0.009280
-0.088416 -0.000046 0.009941
-0.088294 0.001261 0.010639
-0.087732 -0.001708 -0.009829
-0.088713 0.000798 -0.011772
-0.089582 -0.000428 -0.011115
-0.089377 0.003123 0.011472
-0.083669 -0.000729 -0.010156
-0.079907 -0.001425 0.007427
-0.080192 0.000476 -0.010773
-0.082256 0.002313 0.010599
-0.083766 0.002335 -0.012211
-0.084615 -0.001450 -0.009570
-0.081504 0.000912 -0.011151
-0.082907 0.001343 -0.011547
-0.079783 -0.000362 0.008413
-0.081918 0.000821 0.009757
-0.080461 0.002178 -0.011817
-0.081772 -0.000649 -0.009923
-0.080896 0.001999 0.010297
-0.082631 -0.001426 -0.009261
-0.084234 -0.000192 0.009327
-0.084666 -0.001430 0.008229
-0.082440 0.002531 -0.012205
-0.080200 -0.000787 -0.009520
-0.082362 -0.001046 0.008201
-0.081277 -0.000253 0.008772
-0.082650 0.000015 -0.010719
-0.079774 -0.001732 -0.008471
-0.083988 0.002098 0.010667
-0.080358 0.000602 0.009418
-0.083419 0.000727 0.009857
-0.077923 0.000142 -0.010096
-0.075686 -0.001845 0.005653
-0.077440 -0.000113 0.008251
-0.077301 -0.001475 0.006711
-0.075206 0.000372 -0.009870
-0.079047 0.002796 -0.012046
-0.075655 0.001851 0.009692
-0.076064 -0.001122 0.006932
-0.076980 -0.001183 -0.008569
-0.075460 -0.000933 -0.008573
-0.076645 0.000737 -0.010483
-0.077276 0.002283 0.010086
-0.078413 -0.001160 0.007425
-0.078666 0.001621 -0.011306
-0.075413 0.000820 0.008790
-0.076108 0.003101 0.010411
-0.075953 0.001861 -0.011202
-0.078167 0.000805 0.009241
-0.078500 -0.001046 -0.008962
-0.079138 0.001651 0.009935
-0.079278 0.002792 0.010563
-0.077318 0.002197 -0.011523
-0.076822 0.000852 0.009059
-0.076776 -0.000181 -0.009562
-0.072039 0.003089 -0.011563
-0.072172 0.001617 0.008989
-0.071440 -0.000103 -0.008745
-0.074653 -0.000770 0.007107
-0.073158 -0.000611 -0.008519
-0.070505 0.001471 -0.010209
-0.074401 0.000265 0.008091
-0.070204 -0.001696 -0.005804
-0.072797 -0.001594 0.005234
-0.071094 -0.000131 0.007126
-0.070836 0.001663 0.008803
-0.071471 0.002556 0.009646
-0.072355 0.000839 -0.009863
-0.070956 -0.001248 0.005267
-0.073818 0.001871 -0.011003
-0.071950 -0.000762 0.006350
-0.071688 -0.001481 -0.006633
-0.070604 0.003081 -0.011427
-0.074493 0.002577 0.009963
-0.072760 0.002691 0.009855
-0.073788 0.000869 -0.010139
-0.073550 0.001543 0.009155
-0.074072 -0.001368 -0.007540
-0.070642 -0.000925 -0.007308
-0.073403 -0.000283 0.007398
-0.072496 0.000641 0.008120
-0.074254 -0.001520 0.005770
-0.069966 0.002439 0.009390
-0.071707 0.001927 -0.010844
-0.065163 0.000409 -0.008069
-0.068501 0.002730 0.009420
-0.065635 0.001622 -0.009543
-0.069662 0.000506 -0.009069
-0.067880 0.002123 -0.010438
-0.064993 0.003084 -0.010902
-0.068785 -0.000108 -0.008215
-0.066406 -0.000632 0.004979
-0.065429 -0.001320 -0.004508
-0.065570 -0.000568 -0.006453
-0.065409 0.000124 0.005912
-0.064953 0.003074 0.009149
-0.069384 0.000131 0.007063
-0.067745 0.000762 -0.009022
-0.065141 -0.001342 0.002544
-0.067028 -0.000327 -0.007302
-0.068215 -0.000518 0.005672
-0.067339 0.001978 0.008509
-0.066753 0.000298 0.006581
-0.066380 0.002624 -0.010693
-0.068394 -0.001527 0.003837
-0.068544 -0.000903 -0.006732
-0.069561 0.001365 0.008314
-0.069468 -0.001065 0.005135
-0.066383 0.000537 -0.008562
-0.066880 -0.001271 -0.005575
-0.066581 -0.001307 0.003510
-0.065825 0.002156 0.008421
-0.064904 -0.000517 0.004717
-0.066303 -0.001772 0.001760
-0.068275 -0.001571 -0.005434
-0.069173 0.001861 -0.010392
-0.066007 0.001163 0.007513
-0.067450 0.000987 0.007589
-0.065535 -0.001841 -0.002520
-0.067748 -0.001758 0.002668
-0.066634 -0.001670 -0.003928
-0.064229 0.001882 0.007896
-0.060714 -0.000596 -0.004236
-0.062378 0.002860 -0.010274
-0.064278 -0.000734 -0.005757
-0.061233 -0.000755 0.002218
-0.062091 0.002753 0.008359
-0.063398 -0.001493 -0.000133
-0.060585 0.002637 -0.009739
-0.063116 -0.000009 0.005033
-0.060048 0.001899 0.007197
-0.061184 0.000967 0.006070
-0.062819 0.000991 0.006580
-0.062343 0.000371 -0.007176
-0.061369 0.001852 -0.009067
-0.062328 0.001149 -0.008507
-0.061568 0.001740 0.007317
-0.064468 -0.001619 0.001208
-0.063835 0.002499 -0.010143
-0.062827 -0.001107 0.001953
-0.064132 -0.001304 -0.003719
-0.060932 -0.001072 -0.000165
-0.061679 -0.001131 -0.002728
-0.064194 -0.000037 -0.006988
-0.059830 0.000138 0.004330
-0.063648 0.001371 -0.008959
-0.064596 0.000879 0.006909
-0.060306 0.002886 0.008176
-0.060838 0.000527 -0.006986
-0.060022 0.001696 -0.008674
-0.063306 -0.000927 -0.004655
-0.061921 -0.001224 0.001002
-0.063211 -0.000711 0.003542
-0.060044 -0.000790 -0.003002
-0.060288 -0.000093 -0.005716
-0.061275 0.000033 0.004584
-0.062315 -0.001326 -0.000943
-0.059978 -0.000410 0.002675
-0.063286 -0.001488 -0.002387
-0.064428 -0.001706 -0.001575
-0.062531 -0.000334 -0.005957
-0.060745 -0.001076 -0.001634
-0.057845 0.000518 -0.006093
-0.059180 -0.000386 -0.004008
-0.058749 -0.000698 -0.000213
-0.059288 -0.000613 0.001570
-0.056581 0.000816 -0.006236
-0.056590 -0.000356 -0.001495
-0.057059 -0.000081 0.002056
-0.058354 0.000855 0.005096
-0.058173 0.003008 0.007935
-0.055983 0.002274 -0.008595
-0.055475 0.003115 0.007576
-0.059422 0.001147 0.005870
-0.055189 0.000870 -0.005927
-0.056765 0.003057 0.007737
-0.057070 0.001448 0.005693
-0.056013 0.000700 0.004094
-0.059086 0.002619 -0.009467
-0.057758 -0.000050 -0.004397
-0.054931 0.001450 0.005086
-0.058423 0.001884 0.006781
-0.056095 -0.000074 -0.003170
-0.055989 0.002007 0.006288
-0.058374 0.001437 -0.007898
-0.054784 0.002415 0.006608
-0.058804 -0.000743 -0.001996
-0.055965 -0.000223 0.000017
-0.057256 -0.000444 0.000067
-0.055049 0.000604 0.003202
-0.056053 0.001477 -0.007257
-0.059553 0.000879 -0.007247
-0.057886 0.002315 -0.008963
-0.057975 0.000074 0.003115
-0.056354 0.000293 -0.004825
-0.055759 0.000000 0.001563
-0.057278 -0.000399 -0.002700
-0.054993 0.000341 -0.004094
-0.053728 0.000608 -0.004326
-0.053934 0.000116 -0.000600
-0.054408 0.000061 0.000665
-0.051295 0.001903 -0.006618
-0.052527 0.000713 0.002091
-0.050553 0.000675 -0.001352
-0.053788 0.002334 -0.008127
-0.054086 0.000427 0.002021
-0.050047 0.003032 0.006248
-0.052274 0.000372 -0.001798
-0.053017 0.001011 0.003409
-0.052075 0.002759 -0.008383
-0.054626 -0.000018 -0.002436
-0.050562 0.000728 0.000973
-0.052869 0.001818 -0.006931
-0.050032 0.002751 -0.007745
-0.052452 0.001216 -0.005717
-0.052687 0.001582 0.004642
-0.051477 0.000849 -0.003755
-0.052694 0.000354 0.000682
-0.054359 0.001491 -0.006789
-0.050083 0.001529 -0.005537
-0.051823 0.000476 -0.000582
-0.053496 0.002049 0.005639
-0.050072 0.002312 0.005080
-0.053446 0.000297 -0.002897
-0.051935 0.002276 0.005553
-0.050943 0.001567 0.004059
-0.050769 0.001165 0.002597
-0.051999 0.003042 0.006828
-0.050566 0.000738 -0.002695
-0.049210 0.000905 -0.001324
-0.046677 0.002155 0.003549
-0.049300 0.000925 0.000297
-0.045104 0.002858 0.004552
-0.045118 0.001885 -0.003614
-0.045325 0.002196 0.002879
-0.048013 0.001154 0.000727
-0.048089 0.002512 -0.006743
-0.046663 0.001323 -0.002412
-0.046771 0.002775 0.004898
-0.044753 0.001694 -0.000144
-0.047239 0.001553 -0.003722
-0.049647 0.001172 -0.003838
-0.046449 0.001422 0.000492
-0.048585 0.002788 0.005439
-0.046533 0.002391 -0.006061
-0.048588 0.001859 0.003654
-0.047194 0.001259 -0.000987
-0.048443 0.001573 -0.004610
-0.045159 0.002738 -0.006273
-0.049067 0.001365 0.002275
-0.048070 0.001144 -0.002638
-0.046027 0.001764 0.001856
-0.046605 0.001928 -0.004796
-0.047831 0.001667 0.002568
-0.049613 0.002170 -0.006595
-0.042032 0.002792 -0.005132
-0.044436 0.002026 0.001786
-0.042725 0.002050 0.000090
-0.044068 0.002434 -0.005096
-0.044390 0.001720 -0.001797
-0.042443 0.002229 -0.003190
-0.040464 0.002435 0.000360
-0.042819 0.002333 0.001893
-0.041219 0.002526 0.001603
-0.040397 0.002671 -0.003554
-0.042084 0.002123 -0.001560
-0.040799 0.002334 -0.001919
-0.043721 0.002691 0.003617
-0.040197 0.003123 0.003016
-0.039837 0.002516 -0.001012
-0.041573 0.002877 0.002994
-0.043931 0.001944 -0.003045
-0.043168 0.002884 -0.005951
-0.037322 0.003074 -0.003106
-0.036589 0.003062 -0.001406
-0.038838 0.002979 -0.003744
-0.038236 0.002790 -0.001033
-0.038120 0.002845 0.000658
-0.037123 0.002998 -0.000178
-0.039182 0.002602 -0.002349
-0.039466 0.002926 0.001940
-0.185100 0.003396 -0.001045
-0.186640 0.003157 0.000443
-0.184750 0.003489 0.000822
-0.186500 0.003155 -0.000926
-0.179930 0.004261 -0.001626
-0.180620 0.003824 0.003007
-0.181590 0.004021 0.000467
-0.181680 0.003859 0.002152
-0.181320 0.003270 -0.004428
-0.180410 0.003767 -0.003269
-0.182920 0.003554 0.002532
-0.184070 0.003172 -0.003152
-0.182220 0.003222 0.004302
-0.179890 0.003444 -0.004673
-0.181710 0.003974 -0.001008
-0.183030 0.003766 0.000046
-0.184410 0.003393 0.002175
-0.183690 0.003608 -0.001898
-0.180370 0.003508 0.004433
-0.181700 0.003818 -0.002334
-0.180550 0.004180 -0.000353
-0.175760 0.004982 -0.001604
-0.175940 0.004280 -0.004188
-0.176500 0.003620 -0.005583
-0.177940 0.004628 -0.000513
-0.177820 0.004602 -0.001948
-0.176530 0.004869 -0.000368
-0.175120 0.003773 0.005674
-0.179640 0.004373 0.001103
-0.178910 0.004301 0.002262
-0.176590 0.003563 0.005617
-0.175510 0.004790 0.002594
-0.177740 0.003811 -0.004683
-0.176680 0.004847 0.001570
-0.175130 0.005143 0.001103
-0.174970 0.004003 -0.005396
-0.175610 0.004434 0.003931
-0.177850 0.004267 0.003076
-0.176400 0.004593 -0.002836
-0.178890 0.003720 0.004562
-0.178930 0.003890 -0.003735
-0.176930 0.004097 0.004409
-0.178110 0.004634 0.001224
-0.177770 0.004239 -0.003220
-0.173290 0.004923 0.003536
-0.170610 0.004575 0.005571
-0.170900 0.003154 -0.007943
-0.174080 0.004522 0.004631
-0.172300 0.004612 0.005009
-0.170470 0.005932 0.000638
-0.170950 0.005805 -0.001620
-0.169850 0.005368 0.004089
-0.174030 0.005295 -0.000387
-0.171690 0.005145 0.003761
-0.171530 0.005553 0.002214
-0.169800 0.005951 0.001809
-0.171310 0.004619 -0.005432
-0.169740 0.005280 -0.004434
-0.174670 0.004939 -0.002663
-0.173190 0.005403 -0.001981
-0.171300 0.003782 -0.006816
-0.173760 0.003917 -0.005875
-0.172440 0.003946 0.006153
-0.171350 0.003632 0.007034
-0.173450 0.004906 -0.003496
-0.172970 0.004587 -0.004872
-0.172190 0.005611 -0.000498
-0.170540 0.005484 -0.003260
-0.173750 0.005370 0.000973
-0.172080 0.005130 -0.003546
-0.172870 0.005303 0.002338
-0.172600 0.003549 -0.006814
-0.172420 0.005608 0.001019
-0.174660 0.004559 -0.003987
-0.173770 0.003902 0.005841
-0.174230 0.005102 0.002208
-0.167030 0.004209 -0.007335
-0.165660 0.003746 -0.008298
-0.168330 0.003740 0.007652
-0.168260 0.003787 -0.007667
-0.169500 0.003433 -0.007878
-0.165420 0.003841 0.008039
-0.169650 0.004579 -0.005979
-0.167420 0.005231 0.005353
-0.165990 0.006274 0.003092
-0.169210 0.004293 0.006508
-0.167940 0.006328 -0.000896
-0.167420 0.006183 0.002468
-0.168150 0.006004 -0.002899
-0.165770 0.006159 -0.003775
-0.168450 0.005369 -0.004890
-0.167950 0.005714 0.004007
-0.166300 0.005656 -0.005177
-0.165790 0.006723 0.000146
-0.166900 0.006551 0.001041
-0.166540 0.006450 -0.002326
-0.165840 0.005604 0.005157
-0.169670 0.006014 -0.001808
-0.166720 0.004668 0.006560
-0.165140 0.006850 0.001316
-0.166410 0.006589 -0.001017
-0.169160 0.005046 0.005157
-0.168210 0.006316 0.000949
-0.164930 0.006835 -0.001615
-0.169070 0.005798 0.002896
-0.166840 0.003945 0.007699
-0.165550 0.004886 -0.006658
-0.169220 0.006118 -0.000448
-0.165340 0.004720 0.006896
-0.167540 0.004859 -0.006130
-0.160640 0.006008 -0.006229
-0.162490 0.006944 0.002769
-0.161550 0.004763 -0.008002
-0.163860 0.005280 0.006333
-0.163400 0.004268 0.007936
-0.161100 0.003480 0.009125
-0.164410 0.005394 -0.006151
-0.164450 0.006576 -0.003142
-0.162650 0.007064 -0.002517
-0.163350 0.006483 -0.004094
-0.161280 0.005608 0.006507
-0.162150 0.006073 -0.005694
-0.161940 0.003179 -0.009468
-0.162100 0.007344 -0.000219
-0.160290 0.003591 -0.009363
-0.163200 0.006361 0.004591
-0.164460 0.006526 0.003114
-0.159950 0.005163 0.007600
-0.160810 0.006967 -0.003937
-0.160510 0.007633 0.001363
-0.160410 0.007507 -0.002327
-0.163180 0.005241 -0.006747
-0.160900 0.007246 0.002635
-0.162720 0.005036 0.007109
-0.161230 0.004649 0.007916
-0.161850 0.007331 0.001645
-0.160630 0.007588 -0.000820
-0.160140 0.007089 0.003792
-0.163430 0.007041 0.001741
-0.159940 0.006194 0.005861
-0.164450 0.004216 -0.008059
-0.162530 0.003288 0.009088
-0.163070 0.004007 -0.008496
-0.159920 0.004748 -0.008327
-0.164130 0.007007 0.000304
-0.164560 0.005986 0.004842
-0.163580 0.007073 -0.000951
-0.161340 0.006710 0.004492
-0.162290 0.005956 0.005576
-0.158190 0.006187 0.006384
-0.157840 0.003753 0.009403
-0.156830 0.004446 -0.009139
-0.155860 0.005564 -0.008242
-0.157920 0.006262 -0.006599
-0.157260 0.007295 0.004686
-0.158520 0.007811 -0.002417
-0.155640 0.006011 0.007445
-0.158220 0.003511 -0.009787
-0.155740 0.006897 -0.006192
-0.159300 0.006065 -0.006522
-0.159410 0.007066 -0.004440
-0.158860 0.007616 0.002528
-0.155840 0.007222 0.005249
-0.158640 0.005244 0.007734
-0.159370 0.003309 0.009597
-0.156550 0.006172 -0.007131
-0.157760 0.008113 0.001044
-0.155150 0.007860 0.004054
-0.158750 0.007917 -0.000306
-0.155710 0.004819 0.008655
-0.159550 0.004203 0.008647
-0.157450 0.005424 -0.008097
-0.155640 0.004114 -0.009656
-0.156610 0.007909 0.002898
-0.157060 0.005769 0.007461
-0.157500 0.007613 -0.003709
-0.156450 0.008044 -0.002862
-0.158970 0.007064 0.004588
-0.157020 0.007071 -0.005531
-0.157250 0.004637 0.008602
-0.158380 0.006900 -0.005428
-0.157060 0.006666 0.005880
-0.156450 0.003532 0.009852
-0.154950 0.008039 -0.003767
-0.156030 0.007653 -0.004426
-0.158840 0.004315 -0.008923
-0.158740 0.005303 -0.007921
-0.159240 0.007861 0.000956
-0.153890 0.006189 0.007559
-0.154020 0.006069 -0.008026
-0.150040 0.004151 -0.010541
-0.150630 0.005273 -0.009401
-0.153010 0.007545 -0.005907
-0.154180 0.007353 0.005503
-0.153280 0.005377 -0.008862
-0.150250 0.006689 0.007655
-0.149780 0.003626 0.010425
-0.153510 0.005347 0.008494
-0.152650 0.006788 0.006958
-0.152290 0.004264 0.009812
-0.154640 0.006681 0.006561
-0.153900 0.006817 -0.006837
-0.151590 0.007459 0.006080
-0.150790 0.006369 -0.008338
-0.149970 0.007582 0.006336
-0.154390 0.007410 -0.005736
-0.151420 0.007999 -0.005624
-0.151130 0.004778 0.009476
-0.152130 0.006221 -0.008259
-0.152050 0.005903 0.008164
-0.154350 0.004425 -0.009581
-0.153340 0.003798 -0.010341
-0.151960 0.007089 -0.006961
-0.153000 0.007819 0.005018
-0.150640 0.008079 0.005267
-0.154590 0.004278 0.009411
-0.153840 0.007958 -0.004671
-0.152330 0.004699 -0.009664
-0.153590 0.003340 0.010239
-0.146520 0.005834 -0.009577
-0.148730 0.006673 0.007935
-0.144810 0.007619 0.007610
-0.145000 0.005608 -0.010044
-0.149140 0.006500 -0.008501
-0.146990 0.004073 0.010417
-0.148020 0.007517 0.007038
-0.149630 0.005279 0.009212
-0.148760 0.005006 -0.009971
-0.147930 0.005457 0.009311
-0.147040 0.004845 -0.010431
-0.147220 0.003569 -0.011140
-0.148560 0.004282 0.010152
-0.145030 0.005820 0.009428
-0.146980 0.006851 0.008049
-0.148730 0.003806 -0.010857
-0.146330 0.005721 0.009312
-0.146950 0.007178 -0.008237
-0.149450 0.007397 -0.007169
-0.144920 0.004520 -0.010852
-0.148800 0.008123 -0.006181
-0.145790 0.003590 -0.011267
-0.145490 0.004350 0.010396
-0.145650 0.006621 0.008505
-0.147670 0.007771 -0.007075
-0.147950 0.006157 -0.009030
-0.145020 0.007629 -0.008062
-0.145560 0.006636 -0.008982
-0.142820 0.007893 -0.008253
-0.139860 0.008079 0.007974
-0.143000 0.004604 -0.010992
-0.141160 0.006788 0.009083
-0.141320 0.005214 0.010279
-0.139830 0.003457 0.011452
-0.143680 0.005784 -0.010104
-0.141470 0.007861 -0.008506
-0.142670 0.007038 0.008573
-0.141050 0.005453 -0.010735
-0.140020 0.004628 -0.011281
-0.142910 0.006764 -0.009307
-0.142790 0.005543 0.009936
-0.140400 0.006719 -0.009778
-0.143970 0.004781 0.010284
-0.142240 0.003959 0.010943
-0.141780 0.006392 -0.009852
-0.143990 0.006955 0.008436
-0.140180 0.007849 -0.008748
-0.140340 0.006084 0.009842
-0.139720 0.004736 0.010714
-0.141180 0.008035 0.007805
-0.141740 0.004212 -0.011342
-0.144430 0.003504 0.011005
-0.138290 0.003302 -0.012177
-0.138710 0.005652 -0.010857
-0.138930 0.005857 0.010111
-0.137360 0.007173 0.009328
-0.137880 0.003648 0.011476
-0.135950 0.007226 -0.010055
-0.138300 0.004556 -0.011498
-0.138350 0.006787 -0.010059
-0.136230 0.004435 -0.011771
-0.135930 0.005130 0.010834
-0.139470 0.006974 0.009179
-0.136020 0.003204 -0.012321
-0.137320 0.005585 -0.011040
-0.135220 0.005427 -0.011340
-0.136260 0.006314 0.010096
-0.137660 0.005160 0.010649
-0.135290 0.003633 0.011593
-0.135770 0.007739 0.009005
-0.138170 0.007899 -0.009035
-0.134520 0.007525 0.009439
-0.132080 0.006591 0.010321
-0.132770 0.008124 -0.009741
-0.131710 0.003363 -0.012495
-0.129870 0.006392 -0.011345
-0.134530 0.007369 -0.010161
-0.132280 0.005090 -0.011813
-0.134210 0.005089 0.011014
-0.130470 0.006175 0.010720
-0.130400 0.005026 -0.012035
-0.134280 0.004647 -0.011855
-0.131340 0.005041 0.011318
-0.133680 0.006186 0.010411
-0.132990 0.007421 0.009741
-0.131190 0.003736 0.011730
-0.133720 0.003436 0.011710
-0.133460 0.006873 -0.010733
-0.133340 0.003601 -0.012363
-0.131690 0.006699 -0.011002
-0.132890 0.004593 0.011414
-0.130670 0.007441 -0.010701
-0.130150 0.003791 -0.012470
-0.126730 0.005885 -0.011943
-0.129630 0.004826 0.011481
-0.127380 0.006684 0.010714
-0.127130 0.003802 -0.012609
-0.128580 0.003574 -0.012595
-0.124880 0.006548 -0.011770
-0.128860 0.007101 0.010327
-0.128070 0.004046 0.011764
-0.125330 0.005152 -0.012378
-0.126520 0.004229 0.011777
-0.127490 0.006891 -0.011319
-0.128390 0.007840 -0.010718
-0.128560 0.005543 -0.011936
-0.125420 0.006724 0.010872
-0.128330 0.005282 0.011398
-0.126130 0.006971 -0.011416
-0.126370 0.007557 0.010285
-0.126060 0.005699 0.011377
-0.123380 0.006858 0.010981
-0.120960 0.008067 -0.011336
-0.120400 0.005338 0.011714
-0.120420 0.005038 -0.012644
-0.122670 0.006723 -0.011898
-0.124600 0.003929 0.011939
-0.120970 0.003472 0.012229
-0.124390 0.005467 0.011512
-0.121390 0.006457 0.011351
-0.123250 0.003368 0.012159
-0.123350 0.004649 0.011785
-0.123170 0.005127 -0.012485
-0.121030 0.006760 -0.012041
-0.124170 0.004003 -0.012709
-0.121800 0.005575 -0.012451
-0.121340 0.003625 -0.012938
-0.120390 0.007421 0.010926
-0.122390 0.005535 0.011569
-0.121980 0.004295 0.011945
-0.116380 0.005152 -0.012818
-0.116250 0.004899 0.012012
-0.117810 0.006288 0.011547
-0.119570 0.003814 0.012182
-0.119030 0.007043 0.011275
-0.117180 0.007410 0.011235
-0.114930 0.003582 0.012194
-0.117570 0.004836 0.011974
-0.119400 0.006360 -0.012374
-0.115960 0.006634 0.011526
-0.118260 0.005064 -0.012748
-0.115500 0.007917 -0.011966
-0.117180 0.006546 -0.012445
-0.118990 0.005283 0.011789
-0.119360 0.004237 -0.012892
-0.116760 0.003664 0.012199
-0.115870 0.006435 -0.012534
-0.117600 0.003575 -0.013135
-0.115240 0.004547 -0.013026
-0.111870 0.008071 -0.012249
-0.112940 0.006257 -0.012716
-0.112060 0.004590 0.012165
-0.110750 0.004773 0.012150
-0.111570 0.003354 0.012192
-0.114290 0.007325 0.011391
-0.112660 0.006284 0.011761
-0.113950 0.004138 -0.013180
-0.110690 0.007891 0.011381
-0.113110 0.007953 0.011259
-0.110100 0.004218 -0.013200
-0.110820 0.007258 -0.012580
-0.110130 0.005915 0.011972
-0.114360 0.005792 -0.012761
-0.111050 0.005881 -0.012901
-0.112570 0.004728 -0.013111
-0.111380 0.003481 -0.013174
-0.114050 0.004970 0.012078
-0.114060 0.007039 -0.012470
-0.111250 0.006606 0.011726
-0.106080 0.005818 -0.013171
-0.104890 0.005329 0.012117
-0.108330 0.003404 -0.013188
-0.106840 0.007188 -0.012795
-0.107480 0.006206 0.011999
-0.106610 0.003726 0.012162
-0.109050 0.005482 -0.013100
-0.109400 0.008150 -0.012435
-0.105550 0.007977 -0.012669
-0.106630 0.005194 0.012123
-0.105360 0.004348 -0.013226
-0.105930 0.006948 0.011839
-0.109590 0.006698 -0.012780
-0.109160 0.004356 0.012151
-0.106680 0.003667 -0.013199
-0.108180 0.007202 -0.012725
-0.108760 0.006016 0.012000
-0.109330 0.007442 0.011569
-0.105320 0.004068 0.012142
-0.107810 0.004606 0.012147
-0.107710 0.005965 -0.013043
-0.107830 0.004646 -0.013217
-0.103470 0.005605 -0.013255
-0.102410 0.004335 -0.013235
-0.101810 0.007550 0.011842
-0.099815 0.007507 -0.013065
-0.103070 0.006625 0.012051
-0.101550 0.005910 0.012093
-0.101130 0.003539 -0.013225
-0.104280 0.006927 -0.012988
-0.104100 0.003180 0.012161
-0.103710 0.004526 0.012128
-0.100230 0.006348 0.012081
-0.101440 0.005210 -0.013254
-0.100400 0.004442 0.012114
-0.100370 0.008061 0.011751
-0.101600 0.007649 -0.012947
-0.103910 0.004262 -0.013229
-0.101730 0.004377 0.012125
-0.102570 0.003320 0.012153
-0.100680 0.006528 -0.013261
-0.104630 0.006744 0.011956
-0.102600 0.006686 -0.013127
-0.097123 0.005645 -0.013283
-0.095723 0.003479 -0.013141
-0.095341 0.007590 0.012032
-0.098917 0.004932 -0.013258
-0.097133 0.004121 -0.013251
-0.099627 0.003624 -0.013227
-0.095539 0.006626 -0.013312
-0.098367 0.006274 -0.013290
-0.096736 0.007293 -0.013264
-0.096424 0.006675 0.012053
-0.096786 0.005060 0.012090
-0.095261 0.004398 0.012073
-0.098631 0.006673 0.012064
-0.098162 0.004713 0.012105
-0.095318 0.005869 0.012063
-0.096212 0.003191 0.011834
-0.092056 0.007870 -0.013356
-0.091588 0.006263 0.012038
-0.093780 0.008019 0.012015
-0.093891 0.004442 -0.013273
-0.093580 0.006095 0.012052
-0.094555 0.005739 -0.013295
-0.090454 0.005080 -0.013306
-0.093126 0.004682 0.012042
-0.090574 0.004023 0.011757
-0.091913 0.003804 0.011765
-0.092411 0.006268 -0.013315
-0.093820 0.003225 0.011719
-0.092353 0.004015 -0.013157
-0.092635 0.007332 0.012019
-0.093549 0.003201 -0.012970
-0.094108 0.007104 -0.013327
-0.090327 0.005667 0.012044
-0.090894 0.007589 0.012012
-0.088105 0.003938 0.011612
-0.086306 0.003739 0.011476
-0.087517 0.007916 -0.013376
-0.085887 0.004277 -0.012964
-0.087947 0.003925 -0.012950
-0.089137 0.004473 -0.013147
-0.084989 0.007351 0.011991
-0.086215 0.005022 0.011777
-0.087100 0.005217 -0.013283
-0.084989 0.005840 0.011919
-0.086913 0.006839 0.012008
-0.088941 0.007875 -0.013370
-0.088134 0.007544 0.011995
-0.089441 0.006217 -0.013330
-0.088858 0.006314 0.012027
-0.089177 0.004931 0.011903
-0.085608 0.005827 -0.013337
-0.087409 0.005557 0.011970
-0.086698 0.006747 -0.013353
-0.089481 0.007506 0.012002
-0.088178 0.006636 -0.013344
-0.081645 0.006188 0.011834
-0.080509 0.004100 -0.012695
-0.082271 0.007078 -0.013378
-0.083276 0.004145 0.011424
-0.080566 0.006212 -0.013300
-0.082859 0.005666 0.011774
-0.081201 0.007930 -0.013398
-0.082224 0.004071 -0.012758
-0.079923 0.003978 0.011216
-0.083123 0.006090 -0.013351
-0.083243 0.007183 0.011987
-0.080342 0.006056 0.011740
-0.084573 0.004410 0.011552
-0.084167 0.004795 -0.013047
-0.081342 0.004557 0.011425
-0.080371 0.008019 0.011954
-0.081921 0.005595 -0.013177
-0.084400 0.006856 -0.013361
-0.081153 0.003241 0.011002
-0.083652 0.003624 -0.012686
-0.075840 0.005497 0.011386
-0.075078 0.007645 0.011867
-0.076948 0.004688 -0.012712
-0.075196 0.003434 -0.012065
-0.075432 0.006663 -0.013218
-0.077152 0.007446 -0.013407
-0.077432 0.003543 0.010781
-0.077496 0.005864 -0.013076
-0.078872 0.006216 0.011708
-0.078282 0.007493 0.011961
-0.078746 0.005366 -0.012986
-0.078132 0.003684 -0.012479
-0.079634 0.007985 -0.013408
-0.077048 0.006690 0.011732
-0.075178 0.004717 -0.012647
-0.075319 0.007982 -0.013429
-0.079003 0.006825 -0.013389
-0.075520 0.004245 0.010969
-0.077083 0.004930 0.011310
-0.078811 0.004797 0.011364
-0.076634 0.003503 -0.012242
-0.072817 0.008133 0.011872
-0.073875 0.003334 -0.011886
-0.070125 0.005550 -0.012680
-0.070805 0.006612 0.011410
-0.070359 0.003577 0.010093
-0.072029 0.004578 0.010805
-0.069768 0.004985 0.010793
-0.073084 0.006892 -0.013184
-0.072136 0.005918 0.011308
-0.074153 0.004671 0.011066
-0.073376 0.003720 0.010476
-0.071440 0.007620 -0.013327
-0.073557 0.006222 0.011452
-0.071947 0.006214 -0.012944
-0.074242 0.005730 -0.012898
-0.073479 0.004642 -0.012555
-0.071727 0.004271 -0.012245
-0.069870 0.007553 -0.013247
-0.068517 0.003417 -0.011420
-0.066831 0.005859 -0.012637
-0.068568 0.005697 0.011058
-0.065828 0.005035 -0.012138
-0.068806 0.003903 0.010109
-0.066235 0.004576 0.010219
-0.066885 0.003229 0.009553
-0.066677 0.007642 -0.013144
-0.069425 0.006827 0.011387
-0.065052 0.006085 0.010919
-0.067243 0.004651 -0.012044
-0.066469 0.006562 0.011186
-0.066244 0.003846 -0.011469
-0.067935 0.007285 -0.013090
-0.067542 0.004869 0.010509
-0.067578 0.007842 0.011550
-0.065916 0.007934 0.011486
-0.068218 0.005460 -0.012576
-0.069530 0.004291 -0.012040
-0.065232 0.006539 -0.012759
-0.069484 0.008145 0.011713
-0.061213 0.007826 0.011230
-0.061484 0.006543 0.010808
-0.063280 0.007371 0.011223
-0.060223 0.005492 0.010113
-0.060103 0.007164 0.011002
-0.062965 0.004942 0.010093
-0.064138 0.007944 -0.013120
-0.063383 0.003431 -0.010947
-0.063597 0.005928 0.010693
-0.060782 0.004333 0.009545
-0.062045 0.004930 -0.011719
-0.064381 0.005059 -0.012015
-0.060090 0.003567 -0.010612
-0.063272 0.006163 -0.012567
-0.061287 0.006888 -0.012706
-0.064597 0.007389 0.011291
-0.064672 0.004742 0.010151
-0.060823 0.004448 -0.011318
-0.062715 0.007711 -0.012995
-0.063582 0.003682 0.009469
-0.061933 0.003721 0.009254
-0.060550 0.005572 -0.011966
-0.056048 0.006941 -0.012359
-0.059461 0.007891 -0.012913
-0.057836 0.007021 -0.012576
-0.056656 0.003462 -0.009929
-0.057053 0.004556 0.009212
-0.054791 0.003221 -0.009374
-0.059346 0.003668 0.008758
-0.054984 0.007077 0.010447
-0.058842 0.004645 0.009519
-0.056069 0.003975 0.008488
-0.055316 0.005186 -0.011240
-0.055737 0.005378 0.009600
-0.057256 0.007195 0.010734
-0.055614 0.004159 -0.010475
-0.057408 0.006034 0.010121
-0.057659 0.004064 -0.010718
-0.059417 0.004851 -0.011424
-0.058776 0.006094 0.010290
-0.058151 0.005474 -0.011673
-0.056605 0.005280 -0.011415
-0.059621 0.006462 -0.012404
-0.050487 0.004737 0.008262
-0.053469 0.004322 -0.010282
-0.051729 0.004131 -0.009789
-0.053276 0.003178 0.007260
-0.053995 0.005777 0.009638
-0.050690 0.006505 -0.011594
-0.050664 0.006630 0.009760
-0.050835 0.003514 0.007168
-0.053092 0.007893 -0.012651
-0.052725 0.005893 -0.011413
-0.050441 0.004372 -0.009816
-0.050672 0.007804 0.010403
-0.051975 0.004867 0.008647
-0.052942 0.003476 -0.009324
-0.052822 0.007578 0.010498
-0.051345 0.005265 -0.010890
-0.054000 0.006569 -0.011943
-0.054557 0.004658 0.008885
-0.051236 0.007774 -0.012397
-0.054223 0.003754 0.007978
-0.051938 0.005926 0.009508
-0.049569 0.004105 0.007507
-0.049671 0.005693 -0.011010
-0.046336 0.004405 0.007239
-0.045698 0.007796 -0.011891
-0.049314 0.005282 0.008579
-0.046288 0.003574 0.006051
-0.049282 0.006350 0.009471
-0.045818 0.006163 0.008819
-0.048703 0.006967 -0.011686
-0.045473 0.007568 0.009751
-0.048448 0.005424 -0.010570
-0.047009 0.005473 0.008374
-0.044907 0.003972 0.006304
-0.047745 0.007402 0.009896
-0.048755 0.004497 -0.009671
-0.048508 0.003613 -0.008716
-0.047718 0.003491 0.006335
-0.046400 0.005266 -0.010062
-0.047353 0.004360 -0.009286
-0.045739 0.003434 -0.007703
-0.045906 0.004322 -0.009016
-0.045000 0.005179 -0.009739
-0.047486 0.006463 -0.011266
-0.047573 0.003202 -0.007821
-0.044841 0.005419 0.007949
-0.049547 0.008001 -0.012374
-0.045936 0.006454 -0.011114
-0.048074 0.004219 0.007362
-0.041024 0.005394 0.007286
-0.042541 0.005875 -0.010036
-0.043815 0.004552 0.006938
-0.042541 0.005165 0.007325
-0.042954 0.003614 -0.007189
-0.040948 0.005923 -0.009828
-0.041520 0.004470 0.006162
-0.042433 0.004957 -0.009078
-0.044290 0.006186 -0.010655
-0.043827 0.004515 -0.008860
-0.043875 0.007833 -0.011748
-0.043914 0.006215 0.008550
-0.042950 0.004014 0.005817
-0.043650 0.007586 0.009576
-0.042432 0.006357 0.008423
-0.041748 0.006682 -0.010736
-0.040746 0.007859 0.009438
-0.040729 0.003888 0.004973
-0.039812 0.004802 0.006201
-0.040509 0.007585 -0.011280
-0.039693 0.003642 -0.006265
-0.040010 0.004597 -0.008064
-0.042607 0.003284 0.004523
-0.040965 0.003924 -0.007151
-0.041292 0.004572 -0.008409
-0.041123 0.006813 0.008640
-0.042328 0.007447 0.009370
-0.042216 0.007740 -0.011533
-0.041967 0.003324 -0.006383
-0.044501 0.003381 -0.007229
-0.039852 0.007111 0.008707
-0.037389 0.003894 0.003977
-0.034730 0.004663 -0.006617
-0.038738 0.007879 0.009244
-0.039095 0.006391 0.007897
-0.038550 0.004826 -0.008051
-0.036912 0.006033 -0.009262
-0.037591 0.004388 -0.006974
-0.035020 0.003366 0.000306
-0.039249 0.007302 -0.010967
-0.036688 0.005165 -0.008086
-0.037912 0.003640 -0.005739
-0.036353 0.007892 0.008852
-0.036285 0.003510 0.002032
-0.036067 0.003165 -0.002625
-0.039506 0.005732 -0.009386
-0.036035 0.006915 -0.010029
-0.036070 0.006696 0.007672
-0.036662 0.003515 -0.004415
-0.035544 0.004069 0.003518
-0.034853 0.006192 -0.009074
-0.038164 0.006236 -0.009687
-0.035796 0.007842 -0.010925
-0.039426 0.003879 0.004584
-0.034907 0.005186 0.005426
-0.036105 0.004739 0.005052
-0.037484 0.006059 0.007310
-0.036139 0.004514 -0.006776
-0.037538 0.007096 -0.010454
-0.034972 0.005305 -0.007840
-0.038736 0.005370 0.006828
-0.038757 0.003459 0.003334
-0.035453 0.004009 -0.005559
-0.037599 0.007355 0.008548
-0.037511 0.005226 0.006241
-0.036163 0.005638 0.006514
-0.037603 0.003295 0.002093
-0.035177 0.003313 -0.001042
-0.038039 0.004530 0.005252
-0.039304 0.003228 -0.005060
-0.034018 0.007159 -0.009929
-0.031054 0.005138 0.004242
-0.030915 0.005632 -0.007205
-0.031137 0.004040 0.000402
-0.032379 0.004318 0.002475
-0.033988 0.006242 0.006895
-0.032286 0.006655 0.006993
-0.032526 0.005050 -0.006644
-0.034470 0.003941 -0.004629
-0.032969 0.003836 0.001192
-0.032413 0.007705 0.008001
-0.033758 0.004979 0.004759
-0.032420 0.005571 0.005336
-0.030549 0.004350 0.001530
-0.033127 0.003894 -0.003520
-0.033474 0.006315 -0.008985
-0.030189 0.004694 -0.004761
-0.031187 0.004673 0.002971
-0.034422 0.003415 -0.002237
-0.032606 0.007156 -0.009693
-0.033656 0.008049 0.008551
-0.030648 0.007107 0.007143
-0.032619 0.004639 0.003717
-0.031146 0.003984 -0.001931
-0.034321 0.007167 0.007816
-0.030748 0.006130 0.005770
-0.033208 0.005556 -0.007771
-0.033288 0.003627 -0.001580
-0.033733 0.003577 -0.000106
-0.033457 0.004371 -0.005656
-0.031163 0.007382 -0.009688
-0.032059 0.004312 -0.004492
-0.029848 0.004382 -0.003263
-0.029958 0.005112 -0.005993
-0.032384 0.003799 -0.000589
-0.034537 0.003819 0.002066
-0.029866 0.007807 -0.009905
-0.031313 0.004686 -0.005495
-0.033913 0.004327 0.003410
-0.030876 0.006413 -0.008591
-0.032194 0.006198 -0.008607
-0.029808 0.004240 -0.000725
-0.029011 0.005672 -0.006721
-0.029217 0.007078 0.006872
-0.027053 0.007913 0.007288
-0.027272 0.005069 -0.004295
-0.025256 0.008140 0.007194
-0.026394 0.007658 -0.009166
-0.027140 0.005908 0.004380
-0.026859 0.005282 0.002511
-0.025818 0.004931 -0.000528
-0.026483 0.006502 -0.007448
-0.028515 0.006470 -0.007997
-0.027694 0.005550 -0.006099
-0.028546 0.004933 -0.004614
-0.026580 0.004756 -0.002440
-0.029204 0.005152 0.003457
-0.029239 0.004363 0.000741
-0.024695 0.005776 -0.005360
-0.025115 0.008060 -0.009360
-0.029009 0.005831 0.004782
-0.025174 0.006487 0.004768
-0.028647 0.004411 -0.002013
-0.024871 0.007236 -0.008270
-0.027475 0.006538 0.005496
-0.025979 0.007319 0.006341
-0.026211 0.004911 0.000841
-0.025999 0.005543 -0.005327
-0.028524 0.004837 0.001968
-0.028010 0.007870 -0.009648
-0.025838 0.005698 0.003320
-0.025149 0.005384 0.001836
-0.028831 0.008095 0.007760
-0.027532 0.004620 -0.001288
-0.027937 0.004577 0.000269
-0.029514 0.006962 -0.008978
-0.025590 0.005213 -0.003725
-0.025351 0.004984 -0.001828
-0.020102 0.005890 -0.001455
-0.019782 0.005980 0.000511
-0.022788 0.005439 -0.000692
-0.019760 0.007291 0.004506
-0.023947 0.005215 -0.001938
-0.021440 0.005644 -0.002290
-0.020649 0.006775 -0.006206
-0.023705 0.007374 0.005784
-0.022921 0.006721 0.004489
-0.020505 0.006051 -0.003657
-0.021356 0.005685 -0.000821
-0.023576 0.006866 -0.007229
-0.023027 0.006000 -0.005138
-0.022730 0.005414 -0.002611
-0.021730 0.006269 0.002849
-0.021848 0.007732 -0.008264
-0.024083 0.005236 0.000035
-0.023488 0.005582 -0.003764
-0.024607 0.006322 -0.006568
-0.019847 0.006533 -0.005127
-0.023817 0.007814 -0.008897
-0.024086 0.006208 0.003992
-0.022335 0.005604 0.000945
-0.021258 0.006803 0.004152
-0.020358 0.007701 -0.007767
-0.022263 0.007009 -0.007100
-0.021036 0.007891 0.005858
-0.020688 0.006176 0.001905
-0.023294 0.005982 0.002766
-0.023583 0.005501 0.001328
-0.022191 0.007411 0.005401
-0.021414 0.006255 -0.005080
-0.022054 0.005838 -0.003826
-0.019059 0.008118 0.005656
-0.018774 0.006135 -0.000451
-0.018707 0.007861 -0.007558
-0.019447 0.006489 0.002233
-0.017317 0.006733 0.001804
-0.015042 0.006913 -0.003402
-0.018468 0.006810 -0.005298
-0.017727 0.006332 0.000484
-0.017326 0.007093 0.003060
-0.016031 0.007163 0.002509
-0.017473 0.006549 -0.003570
-0.014881 0.006818 0.000544
-0.017385 0.008006 -0.007426
-0.015285 0.006713 -0.001078
-0.017278 0.008079 0.005098
-0.016067 0.007159 -0.005079
-0.016056 0.007914 0.004477
-0.016091 0.006602 -0.000014
-0.018561 0.007093 0.003773
-0.016172 0.006556 -0.002737
-0.017114 0.006401 -0.001277
-0.017357 0.007164 -0.005917
-0.019128 0.006040 -0.002662
-0.155180 0.008509 -0.001192
-0.155210 0.008250 0.002443
-0.157320 0.008162 -0.000368
-0.156480 0.008278 -0.001518
-0.155970 0.008392 -0.000143
-0.156080 0.008358 0.001444
-0.150240 0.009085 -0.002951
-0.150950 0.009277 0.000994
-0.151570 0.009128 -0.001324
-0.153550 0.008196 0.003799
-0.151110 0.008535 -0.004327
-0.150040 0.008427 -0.005335
-0.151730 0.008876 0.002318
-0.153280 0.008869 0.001282
-0.154370 0.008684 0.000570
-0.150120 0.009375 -0.001360
-0.151380 0.008474 0.004151
-0.152320 0.009015 -0.000053
-0.153590 0.008781 -0.001262
-0.153190 0.008380 -0.003618
-0.152380 0.008217 -0.004658
-0.150460 0.009011 0.002623
-0.149890 0.008770 0.003974
-0.152520 0.008866 -0.002366
-0.154190 0.008501 -0.002641
-0.148490 0.009511 0.001958
-0.146210 0.009644 -0.003431
-0.146190 0.009742 0.002608
-0.147420 0.009871 0.000647
-0.146000 0.008384 0.006099
-0.148760 0.009248 -0.003284
-0.147200 0.009353 0.003473
-0.148030 0.008779 -0.005320
-0.145110 0.009608 0.003870
-0.146250 0.008326 -0.006587
-0.149130 0.008832 -0.004480
-0.145220 0.009048 0.005133
-0.147230 0.008612 0.005315
-0.145980 0.009191 -0.005115
-0.148960 0.008550 0.004913
-0.148470 0.009084 0.003680
-0.149590 0.009509 0.000994
-0.144970 0.008819 -0.006137
-0.145090 0.010226 -0.001827
-0.146110 0.010095 0.000726
-0.147370 0.009844 -0.001169
-0.148470 0.009674 -0.000234
-0.146050 0.010080 -0.000809
-0.144830 0.009588 -0.004460
-0.144840 0.010322 0.000963
-0.147440 0.009212 -0.004202
-0.147180 0.009738 -0.002557
-0.148540 0.009637 -0.001739
-0.142520 0.008642 -0.007127
-0.140280 0.010710 0.002723
-0.143370 0.009797 -0.004613
-0.141420 0.009798 -0.005565
-0.143590 0.009827 0.004005
-0.140120 0.009677 -0.006128
-0.142330 0.010408 -0.003135
-0.140180 0.010303 -0.004750
-0.140640 0.010086 0.004639
-0.143430 0.009047 0.005672
-0.140300 0.011080 0.000079
-0.143880 0.010092 -0.003281
-0.142900 0.008373 0.007037
-0.141850 0.009073 0.006092
-0.142710 0.010677 0.000399
-0.142510 0.009664 0.004850
-0.141990 0.010572 0.002131
-0.140310 0.008767 -0.007564
-0.143120 0.010204 0.002805
-0.140790 0.010959 -0.001462
-0.141510 0.010304 0.003492
-0.144510 0.010120 0.002233
-0.141470 0.010898 0.000929
-0.144210 0.010393 -0.000597
-0.140040 0.010729 -0.003380
-0.141500 0.010208 -0.004309
-0.141720 0.010829 -0.000549
-0.142720 0.010621 -0.001880
-0.140580 0.009412 0.005867
-0.142890 0.009406 -0.005768
-0.143970 0.008314 -0.007252
-0.144390 0.008506 0.006351
-0.136650 0.008564 -0.008670
-0.139250 0.011232 -0.001368
-0.135080 0.010651 -0.006001
-0.138400 0.010193 0.005118
-0.136290 0.010472 0.005250
-0.135470 0.011619 -0.003053
-0.135790 0.011841 -0.000194
-0.138010 0.009160 -0.007582
-0.134990 0.008625 -0.008890
-0.136750 0.011520 0.001882
-0.137170 0.009949 -0.006520
-0.138600 0.008618 0.007637
-0.138590 0.010804 0.003468
-0.135140 0.009546 0.007256
-0.136670 0.008369 0.008210
-0.136190 0.009845 0.006399
-0.136050 0.009716 -0.007234
-0.134780 0.011387 -0.004256
-0.137130 0.011115 0.003234
-0.139260 0.011141 0.001678
-0.139200 0.009240 0.006589
-0.136970 0.011143 -0.003797
-0.138900 0.009594 -0.006621
-0.134930 0.010785 0.005093
-0.137990 0.011440 -0.001811
-0.136900 0.010764 -0.005137
-0.138660 0.010662 -0.004432
-0.136710 0.011658 -0.001650
-0.135950 0.011111 0.004024
-0.139040 0.008570 -0.008246
-0.135500 0.011836 0.001439
-0.138780 0.011074 -0.002946
-0.137620 0.009774 0.006106
-0.138080 0.011468 0.000509
-0.135600 0.011490 0.002767
-0.137120 0.009249 0.007190
-0.132650 0.012312 0.001477
-0.130060 0.010024 -0.008397
-0.133830 0.008803 0.008241
-0.131760 0.011154 0.005383
-0.134150 0.011926 -0.002778
-0.131030 0.012550 -0.002500
-0.133630 0.009716 -0.007928
-0.131020 0.008586 -0.009606
-0.133310 0.012248 -0.001189
-0.134570 0.012042 -0.000840
-0.130330 0.011836 -0.005330
-0.133180 0.011544 0.004169
-0.130180 0.011658 0.004954
-0.134020 0.012171 0.000832
-0.130610 0.012219 -0.003862
-0.131550 0.010366 -0.007462
-0.130470 0.008217 0.009400
-0.130450 0.012154 0.003568
-0.132320 0.009669 -0.008358
-0.131660 0.011846 0.004008
-0.132790 0.010050 0.007037
-0.133490 0.011306 -0.005289
-0.130160 0.012696 0.001615
-0.134520 0.011397 0.003845
-0.131510 0.010289 0.007006
-0.130230 0.012792 -0.000446
-0.132080 0.008268 0.009085
-0.132940 0.010420 -0.006978
-0.130370 0.009619 0.007981
-0.132340 0.011139 -0.005975
-0.134230 0.010273 0.006228
-0.132750 0.012195 -0.002700
-0.131630 0.012554 -0.000628
-0.133700 0.008755 -0.008989
-0.131520 0.012207 0.002664
-0.133300 0.011894 0.002695
-0.130990 0.011179 -0.006296
-0.133210 0.011725 -0.004035
-0.131720 0.011830 -0.004542
-0.132110 0.009292 0.008027
-0.131260 0.012643 0.000692
-0.133110 0.010822 0.005576
-0.125110 0.008178 0.010033
-0.126790 0.012661 -0.004631
-0.124800 0.009547 -0.009740
-0.129550 0.012882 -0.001651
-0.126290 0.012100 0.005310
-0.128550 0.012808 0.002243
-0.128070 0.009929 -0.008826
-0.127200 0.011594 -0.006709
