ply
format ascii 1.0
element vertex 1647
property float x
property float y
property float z
end_header
-0.044151 -0.021436 0.004825
-0.041342 -0.023103 0.004798
-0.043825 -0.022552 0.004822
-0.043323 -0.024710 0.004816
-0.042038 -0.022085 -0.001660
-0.044324 -0.022939 -0.001639
-0.039949 -0.020163 -0.001679
-0.041523 -0.021203 -0.001665
-0.039824 -0.021098 -0.001681
-0.044166 -0.020562 0.004826
-0.035094 -0.022896 -0.001726
-0.035731 -0.023482 -0.001720
-0.035152 -0.021373 -0.001725
-0.035667 -0.024083 0.004744
-0.039648 -0.022157 -0.001683
-0.036376 -0.024360 -0.001715
-0.035112 -0.021268 0.004740
-0.037442 -0.023237 -0.001704
-0.036077 -0.022413 -0.001717
-0.037516 -0.020529 0.004763
-0.037946 -0.020578 -0.001698
-0.039538 -0.024022 -0.001685
-0.037826 -0.022461 -0.001700
-0.038699 -0.022037 -0.001692
-0.036157 -0.020403 0.004750
-0.039375 -0.022522 0.004780
-0.039593 -0.023099 -0.001684
-0.038983 -0.021080 0.004777
-0.039229 -0.020000 0.004780
-0.036282 -0.021272 0.004751
-0.037416 -0.024465 -0.001705
-0.035817 -0.022315 0.004746
-0.035514 -0.024757 -0.001723
-0.039519 -0.023726 0.004781
-0.036480 -0.019943 -0.001712
-0.036784 -0.024627 0.004755
-0.035232 -0.023146 0.004741
-0.035289 -0.019944 0.004743
-0.034827 -0.024194 -0.001729
-0.038477 -0.024101 0.004771
-0.037221 -0.021403 0.004760
-0.035300 -0.019981 -0.001723
-0.038513 -0.022868 0.004772
-0.038148 -0.022074 0.004769
-0.038367 -0.024262 -0.001696
-0.036571 -0.021687 -0.001712
-0.038402 -0.023198 -0.001695
-0.034907 -0.022297 0.004738
-0.038954 -0.021002 -0.001689
-0.037793 -0.024772 0.004764
-0.036757 -0.022219 0.004755
-0.037542 -0.021509 -0.001702
-0.037529 -0.023732 0.004762
-0.036271 -0.023326 0.004750
-0.034754 -0.024718 0.004736
-0.037584 -0.022792 0.004763
-0.035845 -0.020796 -0.001718
-0.029985 -0.020769 0.004692
-0.031139 -0.020185 -0.001762
-0.030607 -0.022239 0.004698
-0.030764 -0.021169 -0.001766
-0.033014 -0.022920 -0.001746
-0.032267 -0.022239 0.004713
-0.030155 -0.022864 -0.001772
-0.030736 -0.024335 0.004698
-0.033708 -0.020385 -0.001738
-0.031581 -0.021730 -0.001759
-0.034121 -0.023497 -0.001735
-0.031521 -0.021588 0.004707
-0.031966 -0.024347 0.004709
-0.033372 -0.021224 0.004724
-0.034334 -0.021150 -0.001732
-0.030758 -0.020214 0.004700
-0.034237 -0.022440 -0.001734
-0.034320 -0.023628 0.004732
-0.032980 -0.023571 0.004719
-0.030137 -0.024348 -0.001773
-0.033443 -0.021190 -0.001741
-0.032313 -0.021182 -0.001751
-0.032066 -0.020547 0.004712
-0.031549 -0.023836 -0.001760
-0.029797 -0.024035 0.004689
-0.033246 -0.024451 -0.001744
-0.031930 -0.023473 0.004709
-0.032170 -0.020044 -0.001752
-0.033726 -0.024340 0.004726
-0.033827 -0.022226 0.004728
-0.033075 -0.022648 0.004721
-0.030901 -0.023298 0.004700
-0.030957 -0.022336 -0.001765
-0.032183 -0.023208 -0.001753
-0.034566 -0.020621 0.004736
-0.029823 -0.022955 0.004690
-0.032246 -0.024409 -0.001753
-0.032419 -0.022100 -0.001751
-0.025463 -0.024616 0.003717
-0.028128 -0.022024 0.004674
-0.027055 -0.022639 0.004664
-0.027508 -0.020200 0.004669
-0.029098 -0.020429 -0.001781
-0.027919 -0.023905 -0.001794
-0.026504 -0.020903 0.004660
-0.025652 -0.021364 0.004651
-0.028997 -0.022268 0.004682
-0.025928 -0.024851 -0.001220
-0.025525 -0.024640 0.002483
-0.024989 -0.024314 -0.000933
-0.028556 -0.022646 -0.001787
-0.024778 -0.024154 -0.001824
-0.025815 -0.024796 0.000196
-0.027748 -0.023870 0.004670
-0.024907 -0.020540 -0.001821
-0.029260 -0.019875 0.004686
-0.024786 -0.020548 0.004644
-0.025643 -0.023106 -0.001815
-0.029266 -0.024454 -0.001781
-0.024962 -0.023262 0.004644
-0.026565 -0.024692 -0.001807
-0.025657 -0.024089 0.004650
-0.028437 -0.020354 0.004678
-0.027534 -0.023037 -0.001797
-0.028033 -0.021117 0.004674
-0.026138 -0.022140 0.004656
-0.029749 -0.022087 -0.001776
-0.029650 -0.021709 0.004689
-0.029533 -0.021226 -0.001778
-0.029024 -0.024656 0.004682
-0.025709 -0.022025 -0.001814
-0.026694 -0.024617 0.004660
-0.028983 -0.021149 0.004683
-0.028981 -0.023354 0.004682
-0.024784 -0.024208 0.001743
-0.027030 -0.021706 0.004664
-0.026465 -0.022742 -0.001807
-0.028130 -0.021809 -0.001791
-0.026166 -0.020827 -0.001809
-0.025780 -0.019924 -0.001812
-0.026670 -0.021769 -0.001805
-0.026191 -0.023386 0.004656
-0.026430 -0.023683 -0.001808
-0.027204 -0.021014 -0.001799
-0.028139 -0.020133 -0.001790
-0.026680 -0.020011 -0.001804
-0.025069 -0.024362 0.000004
-0.025210 -0.024448 0.000990
-0.025128 -0.022147 0.004646
-0.028295 -0.024732 -0.001791
-0.025777 -0.020441 0.004653
-0.028801 -0.023534 -0.001785
-0.023375 -0.022783 -0.001836
-0.020440 -0.021811 0.004579
-0.020074 -0.020930 0.004599
-0.024213 -0.023890 0.004137
-0.023594 -0.023512 0.000020
-0.022806 -0.023054 -0.000010
-0.022507 -0.022877 -0.001076
-0.023502 -0.021331 0.004631
-0.023138 -0.020380 -0.001837
-0.022962 -0.023151 0.001502
-0.020421 -0.021794 0.003385
-0.022067 -0.022514 -0.001848
-0.022219 -0.022730 0.003073
-0.022032 -0.022601 -0.000348
-0.020257 -0.021704 0.001786
-0.020302 -0.021716 0.000185
-0.024103 -0.023811 0.000955
-0.022801 -0.021628 -0.001841
-0.021696 -0.020700 -0.001851
-0.023515 -0.023456 -0.001160
-0.021860 -0.022526 0.002001
-0.021319 -0.022245 0.001203
-0.022844 -0.022786 0.004624
-0.021701 -0.021581 0.004614
-0.023426 -0.023434 0.004063
-0.022300 -0.022763 0.000844
-0.021458 -0.022312 0.000268
-0.021424 -0.022308 0.002778
-0.024054 -0.022851 0.004636
-0.022819 -0.021900 0.004624
-0.024376 -0.023977 0.002723
-0.020584 -0.021226 -0.001862
-0.024346 -0.022656 -0.001827
-0.024611 -0.021751 -0.001824
-0.023723 -0.021242 -0.001832
-0.022027 -0.020356 0.004618
-0.021321 -0.021748 -0.001855
-0.023988 -0.020258 0.004636
-0.021114 -0.020931 0.004609
-0.022028 -0.022629 0.004353
-0.023098 -0.023237 0.002874
-0.020538 -0.020328 -0.001862
-0.024149 -0.021900 0.004637
-0.021090 -0.022115 -0.000915
-0.021182 -0.022189 0.004166
-0.022986 -0.020573 0.004627
-0.023905 -0.023703 0.001885
-0.024341 -0.023941 0.000125
-0.024738 -0.024193 0.003462
-0.017771 -0.020428 0.002046
-0.018948 -0.021014 -0.001175
-0.016670 -0.019938 0.002465
-0.018466 -0.020764 -0.001866
-0.016730 -0.019966 0.003447
-0.017106 -0.020115 -0.001489
-0.017895 -0.020480 -0.000516
-0.016631 -0.019908 0.000189
-0.016880 -0.019876 0.004570
-0.019017 -0.021059 0.000022
-0.019467 -0.020678 -0.001872
-0.019441 -0.021286 0.002615
-0.018279 -0.020696 0.003136
-0.018426 -0.020666 0.004584
-0.019239 -0.020155 0.004592
-0.019672 -0.021391 -0.000757
-0.018630 -0.020870 0.001906
-0.017671 -0.020393 0.004166
-0.019580 -0.021366 0.003721
-0.019556 -0.021341 0.001030
-0.018034 -0.020558 0.000631
-0.017880 -0.019946 -0.001887
-0.017361 -0.020240 0.001076
-0.018769 -0.020933 0.000936
-0.017028 -0.020083 -0.000625
-0.017452 -0.020293 0.003103
-0.043909 -0.018123 -0.001641
-0.041189 -0.016159 0.004800
-0.040160 -0.016128 -0.001675
-0.041728 -0.018325 -0.001662
-0.042090 -0.015975 0.004808
-0.040174 -0.019059 0.004789
-0.043273 -0.015477 0.004819
-0.041122 -0.019470 0.004798
-0.042874 -0.017061 0.004815
-0.044135 -0.018963 -0.001639
-0.040698 -0.018244 0.004794
-0.043946 -0.016901 -0.001640
-0.044715 -0.018778 0.004832
-0.044550 -0.019666 0.004830
-0.040339 -0.016251 0.004792
-0.042890 -0.019680 0.004814
-0.041201 -0.019661 -0.001667
-0.039892 -0.017579 0.004787
-0.044160 -0.016082 0.004828
-0.043703 -0.017378 0.004823
-0.041930 -0.016166 -0.001659
-0.041806 -0.018608 0.004804
-0.042747 -0.018528 -0.001652
-0.042536 -0.015012 -0.001653
-0.041915 -0.017074 -0.001659
-0.043029 -0.016392 -0.001649
-0.040925 -0.017024 0.004797
-0.042918 -0.018304 0.004815
-0.043883 -0.015565 -0.001640
-0.043142 -0.019457 -0.001649
-0.040523 -0.017554 -0.001673
-0.043797 -0.018520 0.004823
-0.040657 -0.018587 -0.001672
-0.040424 -0.015264 0.004793
-0.041591 -0.017640 0.004803
-0.042812 -0.017671 -0.001651
-0.041274 -0.015363 -0.001665
-0.041178 -0.016603 -0.001666
-0.041985 -0.016865 0.004807
-0.044040 -0.019841 -0.001641
-0.036297 -0.014973 -0.001711
-0.037612 -0.015676 0.004766
-0.038561 -0.019713 -0.001692
-0.037047 -0.018656 -0.001706
-0.037956 -0.016815 0.004769
-0.036100 -0.016104 -0.001714
-0.034803 -0.019191 0.004738
-0.039457 -0.018527 -0.001683
-0.038231 -0.017738 0.004771
-0.035290 -0.016099 0.004744
-0.039135 -0.017164 -0.001686
-0.038012 -0.015829 -0.001696
-0.038053 -0.017543 -0.001696
-0.034936 -0.018872 -0.001726
-0.037382 -0.019555 -0.001703
-0.036526 -0.016848 -0.001710
-0.038730 -0.018067 -0.001690
-0.038200 -0.019790 0.004770
-0.035196 -0.015020 -0.001722
-0.037108 -0.016378 0.004761
-0.037152 -0.017700 -0.001705
-0.039430 -0.016093 0.004783
-0.034861 -0.017948 -0.001726
-0.038246 -0.018833 -0.001695
-0.036271 -0.015868 0.004754
-0.039412 -0.019490 -0.001684
-0.036006 -0.016717 0.004751
-0.035885 -0.018838 0.004749
-0.037279 -0.018126 0.004762
-0.035676 -0.014979 0.004748
-0.039134 -0.015246 0.004781
-0.035744 -0.019139 -0.001718
-0.039031 -0.016045 -0.001686
-0.037161 -0.019511 0.004760
-0.035821 -0.017871 -0.001717
-0.036944 -0.017239 0.004759
-0.038866 -0.014988 -0.001687
-0.039159 -0.018171 0.004780
-0.038456 -0.018716 0.004773
-0.035576 -0.016913 -0.001719
-0.036915 -0.015165 0.004760
-0.036131 -0.017763 0.004751
-0.037032 -0.015842 -0.001705
-0.035120 -0.016107 -0.001723
-0.038816 -0.016845 0.004777
-0.038427 -0.016659 -0.001692
-0.037537 -0.016729 -0.001701
-0.029781 -0.019820 -0.001775
-0.031908 -0.018336 0.004711
-0.030744 -0.015400 -0.001764
-0.031332 -0.019483 0.004706
-0.029863 -0.017451 -0.001773
-0.033713 -0.019477 -0.001737
-0.033579 -0.018184 -0.001738
-0.030599 -0.018222 -0.001766
-0.034446 -0.015027 0.004737
-0.032870 -0.016186 -0.001744
-0.031796 -0.018786 -0.001755
-0.030265 -0.019074 -0.001770
-0.031899 -0.016341 -0.001753
-0.030446 -0.016800 0.004698
-0.034563 -0.017335 0.004737
-0.031732 -0.017808 -0.001755
-0.030455 -0.015098 0.004699
-0.031604 -0.015498 -0.001756
-0.032653 -0.015481 0.004720
-0.033794 -0.017277 -0.001736
-0.030859 -0.018202 0.004702
-0.032906 -0.018611 0.004721
-0.032973 -0.017361 0.004722
-0.030368 -0.016665 -0.001768
-0.033566 -0.014877 0.004728
-0.033676 -0.016773 0.004729
-0.030394 -0.018989 0.004697
-0.034255 -0.015206 -0.001731
-0.032822 -0.017683 -0.001745
-0.031712 -0.015704 0.004711
-0.032930 -0.019841 0.004720
-0.032016 -0.014902 0.004714
-0.032604 -0.019239 -0.001748
-0.029839 -0.018153 0.004692
-0.033950 -0.016145 -0.001734
-0.034716 -0.016938 -0.001727
-0.033921 -0.015810 0.004731
-0.033775 -0.018839 0.004729
-0.030791 -0.015969 0.004702
-0.034090 -0.019776 0.004731
-0.034698 -0.018339 0.004738
-0.032818 -0.016486 0.004721
-0.033740 -0.017957 0.004729
-0.033105 -0.015331 -0.001741
-0.032063 -0.017374 0.004713
-0.031428 -0.016526 0.004708
-0.030824 -0.017396 -0.001764
-0.026744 -0.017337 -0.001802
-0.025850 -0.016034 0.004655
-0.027886 -0.016937 0.004674
-0.027381 -0.016113 -0.001796
-0.029014 -0.017337 -0.001781
-0.025282 -0.015962 -0.001815
-0.026333 -0.017359 0.004659
-0.027088 -0.018551 -0.001799
-0.025215 -0.018992 0.004648
-0.027093 -0.015603 0.004667
-0.026018 -0.016543 -0.001809
-0.029652 -0.015768 -0.001774
-0.027107 -0.016596 0.004667
-0.028540 -0.018121 -0.001786
-0.025097 -0.016801 -0.001817
-0.026137 -0.018606 0.004657
-0.028864 -0.019306 -0.001783
-0.025566 -0.014952 0.004653
-0.024843 -0.015581 0.004646
-0.029609 -0.018351 -0.001776
-0.028449 -0.016467 -0.001786
-0.024762 -0.019617 -0.001822
-0.028173 -0.019344 0.004676
-0.029076 -0.018760 0.004685
-0.027901 -0.017797 0.004674
-0.025911 -0.018003 -0.001810
-0.026011 -0.019590 0.004655
-0.029406 -0.016845 0.004689
-0.029484 -0.015413 0.004690
-0.025866 -0.015212 -0.001810
-0.025490 -0.017899 0.004651
-0.025357 -0.018655 -0.001816
-0.028414 -0.015362 0.004680
-0.026125 -0.019036 -0.001809
-0.027183 -0.019219 0.004667
-0.025216 -0.016941 0.004649
-0.027070 -0.018063 0.004666
-0.028649 -0.016358 0.004682
-0.027943 -0.017508 -0.001791
-0.028810 -0.017948 0.004682
-0.027293 -0.019422 -0.001798
-0.026795 -0.015260 -0.001801
-0.024197 -0.015015 -0.001825
-0.024247 -0.016878 -0.001825
-0.024649 -0.018098 0.004643
-0.021861 -0.015942 0.004618
-0.020846 -0.015141 -0.001857
-0.019794 -0.015510 -0.001867
-0.022162 -0.015931 -0.001845
-0.024178 -0.018533 -0.001827
-0.022701 -0.017795 0.004625
-0.023197 -0.016681 0.004630
-0.023864 -0.015389 0.004637
-0.019993 -0.017537 -0.001866
-0.020931 -0.019760 0.004608
-0.021888 -0.018372 0.004617
-0.020837 -0.018608 0.004607
-0.021134 -0.019307 -0.001856
-0.021321 -0.017737 0.004612
-0.020967 -0.014906 0.004610
-0.020009 -0.018405 -0.001866
-0.021651 -0.017981 -0.001850
-0.023177 -0.018698 -0.001836
-0.020103 -0.019461 -0.001866
-0.024356 -0.016898 0.004641
-0.021232 -0.015898 -0.001853
-0.022886 -0.014968 0.004628
-0.022006 -0.016884 0.004619
-0.022102 -0.019466 0.004619
-0.022962 -0.015815 0.004628
-0.019929 -0.018115 0.004599
-0.023256 -0.016946 -0.001835
-0.020746 -0.017032 -0.001858
-0.020204 -0.019170 0.004601
-0.020689 -0.016251 0.004607
-0.022996 -0.018741 0.004628
-0.023749 -0.018194 0.004635
-0.020745 -0.017104 0.004607
-0.023703 -0.019531 -0.001832
-0.024661 -0.019630 0.004643
-0.020370 -0.016258 -0.001862
-0.021717 -0.015055 -0.001848
-0.021861 -0.019849 -0.001849
-0.023324 -0.015579 -0.001834
-0.024542 -0.017714 -0.001823
-0.023783 -0.019339 0.004635
-0.022500 -0.018184 -0.001842
-0.022981 -0.019634 0.004627
-0.022385 -0.019028 -0.001844
-0.022196 -0.017050 -0.001845
-0.020761 -0.017967 -0.001859
-0.021966 -0.015011 0.004619
-0.023651 -0.017855 -0.001831
-0.015669 -0.019488 0.002746
-0.015474 -0.015422 0.004558
-0.016305 -0.019755 -0.001208
-0.018263 -0.015612 0.004584
-0.016485 -0.015207 0.004568
-0.017218 -0.016502 0.004574
-0.016071 -0.017939 -0.001903
-0.015611 -0.019455 0.001489
-0.018582 -0.017573 0.004587
-0.015567 -0.019446 0.004098
-0.017764 -0.017339 0.004579
-0.017859 -0.018380 -0.001886
-0.018705 -0.015333 -0.001877
-0.016634 -0.019330 -0.001898
-0.018307 -0.016933 -0.001881
-0.019427 -0.016896 -0.001871
-0.015246 -0.018973 -0.001911
-0.016007 -0.018613 0.004562
-0.018151 -0.016042 -0.001882
-0.018534 -0.019314 -0.001880
-0.016085 -0.017091 0.004563
-0.019084 -0.019206 0.004591
-0.017689 -0.018255 0.004578
-0.019646 -0.014955 0.004598
-0.017766 -0.015169 -0.001886
-0.015901 -0.016187 -0.001904
-0.016591 -0.017884 0.004568
-0.015558 -0.019421 -0.000236
-0.016923 -0.017696 -0.001895
-0.019316 -0.016980 0.004594
-0.014828 -0.016781 -0.001914
-0.017425 -0.015285 0.004577
-0.015946 -0.017081 -0.001903
-0.015321 -0.017775 0.004556
-0.016513 -0.019858 0.001123
-0.017183 -0.015817 -0.001891
-0.019011 -0.017998 -0.001875
-0.015152 -0.017746 -0.001911
-0.014985 -0.019177 0.002308
-0.015476 -0.015269 -0.001907
-0.018081 -0.019621 0.004581
-0.016130 -0.016112 0.004564
-0.015520 -0.019411 0.000615
-0.017417 -0.016930 -0.001890
-0.016356 -0.015226 -0.001899
-0.015216 -0.019262 -0.001083
-0.018980 -0.016160 0.004591
-0.019181 -0.019858 -0.001874
-0.016906 -0.018703 0.004570
-0.017485 -0.019161 -0.001890
-0.013528 -0.018519 0.002349
-0.010799 -0.017442 0.000697
-0.013958 -0.018507 -0.001923
-0.011421 -0.017694 0.002487
-0.013733 -0.015726 -0.001924
-0.012381 -0.018055 -0.000854
-0.012408 -0.016590 0.004529
-0.013565 -0.017024 0.004540
-0.012592 -0.018141 -0.000011
-0.014622 -0.015819 0.004550
-0.012979 -0.018307 0.003434
-0.013496 -0.018492 -0.000647
-0.013438 -0.016704 -0.001927
-0.010316 -0.017264 0.003217
-0.014174 -0.017391 -0.001920
-0.012986 -0.018300 0.001625
-0.014702 -0.015903 -0.001915
-0.014427 -0.015099 -0.001917
-0.009774 -0.017037 -0.000695
-0.014518 -0.018968 0.003173
-0.013673 -0.015627 0.004541
-0.012865 -0.015430 -0.001932
-0.014488 -0.018948 0.001025
-0.014437 -0.018920 0.000073
-0.012206 -0.018001 0.002833
-0.013141 -0.017960 -0.001930
-0.010283 -0.017232 -0.001763
-0.013799 -0.018649 0.004308
-0.012822 -0.015800 0.004533
-0.011176 -0.017586 -0.000146
-0.014520 -0.018078 0.004548
-0.012042 -0.017743 -0.001940
-0.014526 -0.016942 0.004549
-0.012540 -0.018110 0.004529
-0.010308 -0.017264 0.004131
-0.011217 -0.016827 -0.001948
-0.011633 -0.017578 0.004521
-0.011452 -0.017700 0.001309
-0.011261 -0.017636 0.003576
-0.009798 -0.017053 0.001041
-0.011906 -0.015257 -0.001941
-0.010447 -0.017311 0.002016
-0.011063 -0.015722 -0.001949
-0.009901 -0.016043 0.004506
-0.011414 -0.015534 0.004520
-0.014356 -0.015000 0.004548
-0.013494 -0.018495 0.000649
-0.012385 -0.018063 0.000838
-0.012578 -0.016706 -0.001935
-0.010749 -0.016470 0.004513
-0.014447 -0.018919 -0.000936
-0.010945 -0.017492 -0.000962
-0.012254 -0.018018 0.001964
-0.009943 -0.015827 -0.001959
-0.014627 -0.019024 0.004336
-0.010217 -0.014946 -0.001957
-0.010636 -0.015012 0.004513
-0.007859 -0.016357 -0.001860
-0.008391 -0.016535 -0.001106
-0.007191 -0.015989 0.004480
-0.009045 -0.016753 -0.001662
-0.008096 -0.016445 0.000477
-0.007233 -0.015775 -0.001985
-0.007059 -0.016110 0.003590
-0.005568 -0.015613 0.003996
-0.006263 -0.015723 0.004471
-0.006060 -0.015771 0.002584
-0.006532 -0.015919 -0.000918
-0.006414 -0.015539 -0.001992
-0.007352 -0.016191 -0.000994
-0.007516 -0.016257 0.002760
-0.008186 -0.016484 0.003692
-0.008519 -0.016587 0.001244
-0.005540 -0.015598 0.001666
-0.007490 -0.016246 0.001291
-0.009022 -0.016749 -0.000316
-0.006692 -0.015978 0.001166
-0.008702 -0.015942 -0.001971
-0.009182 -0.016820 0.002906
-0.005032 -0.015420 -0.000584
-0.007904 -0.015476 0.004487
-0.008860 -0.016711 0.004219
-0.008377 -0.016542 0.002447
-0.004866 -0.015319 -0.002007
-0.005782 -0.015672 0.000347
-0.008883 -0.015713 0.004496
-0.007169 -0.016133 0.000371
-0.009628 -0.016991 0.002095
-0.009034 -0.016755 0.000549
-0.005211 -0.015488 0.002661
-0.009186 -0.015173 -0.001966
-0.005580 -0.015597 -0.001562
-0.008216 -0.015233 -0.001975
-0.006774 -0.016008 0.002027
-0.004022 -0.015115 -0.000450
-0.003757 -0.015036 -0.001956
-0.004283 -0.015196 0.002626
-0.003372 -0.014942 0.001806
-0.004471 -0.015246 0.001670
-0.004156 -0.015058 0.004452
-0.003392 -0.014950 0.002834
-0.003543 -0.014996 0.003814
-0.003605 -0.015001 0.000370
-0.004489 -0.015244 -0.001220
-0.004539 -0.015263 0.000806
-0.004554 -0.015275 0.003561
-0.044543 -0.009901 0.004834
-0.044553 -0.013611 0.004832
-0.043039 -0.012506 0.004819
-0.040732 -0.010099 -0.001668
-0.044595 -0.011438 -0.001632
-0.041912 -0.010203 -0.001657
-0.043015 -0.011465 -0.001647
-0.041301 -0.012221 -0.001663
-0.042452 -0.013747 0.004812
-0.040535 -0.013391 -0.001671
-0.040181 -0.012292 -0.001674
-0.039830 -0.010365 0.004789
-0.040258 -0.012673 0.004792
-0.043747 -0.011016 -0.001640
-0.042854 -0.011475 0.004817
-0.040306 -0.011278 -0.001672
-0.044269 -0.014442 -0.001636
-0.041503 -0.011803 0.004804
-0.040627 -0.014792 -0.001671
-0.039868 -0.014613 0.004788
-0.042212 -0.012073 -0.001655
-0.044395 -0.013326 -0.001635
-0.044659 -0.012508 0.004834
-0.043507 -0.010890 0.004824
-0.041412 -0.010024 0.004804
-0.041917 -0.011011 0.004809
-0.040568 -0.010807 0.004796
-0.040432 -0.013869 0.004793
-0.043543 -0.013793 -0.001643
-0.043529 -0.012573 -0.001642
-0.044580 -0.012467 -0.001632
-0.041812 -0.013926 -0.001659
-0.042227 -0.014774 0.004810
-0.043524 -0.013368 0.004823
-0.041058 -0.014607 0.004799
-0.043010 -0.010532 -0.001646
-0.041404 -0.013395 0.004803
-0.042491 -0.010223 0.004814
-0.042999 -0.014411 0.004817
-0.044037 -0.014674 0.004827
-0.041616 -0.011253 -0.001660
-0.044375 -0.011299 0.004832
-0.041947 -0.012996 -0.001657
-0.042654 -0.013547 -0.001651
-0.041928 -0.012604 0.004808
-0.040612 -0.011832 0.004796
-0.043298 -0.014608 -0.001645
-0.034852 -0.010274 -0.001723
-0.038199 -0.012419 0.004773
-0.035653 -0.011783 0.004749
-0.037241 -0.013962 0.004763
-0.036250 -0.010500 0.004755
-0.036099 -0.010780 -0.001711
-0.038248 -0.010855 0.004774
-0.038816 -0.013132 0.004779
-0.039220 -0.012517 -0.001683
-0.038335 -0.013336 -0.001691
-0.037292 -0.011875 0.004765
-0.036897 -0.012936 0.004761
-0.039329 -0.012423 0.004784
-0.038548 -0.014590 0.004775
-0.037267 -0.014802 -0.001702
-0.037629 -0.010779 -0.001697
-0.035674 -0.011735 -0.001716
-0.035976 -0.013174 -0.001714
-0.037304 -0.011663 -0.001701
-0.036723 -0.013729 -0.001707
-0.035257 -0.012866 0.004745
-0.037321 -0.010310 0.004766
-0.037911 -0.014105 -0.001696
-0.038330 -0.012386 -0.001691
-0.035800 -0.014287 -0.001716
-0.036980 -0.012457 -0.001704
-0.035085 -0.013377 -0.001722
-0.039133 -0.013781 -0.001684
-0.039136 -0.011395 -0.001683
-0.039654 -0.013337 0.004786
-0.035012 -0.010082 0.004744
-0.035320 -0.012548 -0.001720
-0.034986 -0.011259 0.004743
-0.035331 -0.014096 0.004745
-0.036545 -0.011427 0.004758
-0.038246 -0.011405 -0.001692
-0.039052 -0.010036 0.004782
-0.039484 -0.011540 0.004786
-0.039681 -0.010342 -0.001678
-0.036311 -0.013909 0.004755
-0.038282 -0.010195 -0.001691
-0.038113 -0.013665 0.004772
-0.039729 -0.014409 -0.001679
-0.031321 -0.012316 -0.001757
-0.030278 -0.012653 0.004699
-0.033090 -0.010399 0.004726
-0.032457 -0.012893 0.004719
-0.032951 -0.014091 0.004723
-0.034472 -0.012038 0.004738
-0.032749 -0.010704 -0.001743
-0.029841 -0.010364 -0.001770
-0.032149 -0.010687 0.004717
-0.031594 -0.013540 -0.001755
-0.031302 -0.013876 0.004708
-0.030517 -0.013087 -0.001765
-0.031532 -0.010200 -0.001754
-0.032654 -0.011638 -0.001744
-0.031066 -0.011250 0.004707
-0.030401 -0.014116 0.004699
-0.030740 -0.010650 -0.001762
-0.030815 -0.011629 -0.001762
-0.033772 -0.013758 0.004731
-0.029996 -0.011322 -0.001769
-0.033668 -0.012707 0.004730
-0.033014 -0.013582 -0.001742
-0.031167 -0.012958 0.004707
-0.033300 -0.014388 -0.001739
-0.033988 -0.010780 0.004734
-0.033469 -0.012738 -0.001737
-0.034551 -0.014100 -0.001727
-0.032604 -0.011550 0.004721
-0.033918 -0.011047 -0.001732
-0.032320 -0.014427 -0.001749
-0.031743 -0.011777 0.004713
-0.033793 -0.010130 -0.001733
-0.030230 -0.014333 -0.001768
-0.034534 -0.011730 -0.001727
-0.031647 -0.011254 -0.001753
-0.032430 -0.012527 -0.001747
-0.034339 -0.012563 -0.001729
-0.031110 -0.014369 -0.001760
-0.030529 -0.010594 0.004702
-0.033573 -0.011714 0.004730
-0.030283 -0.011803 0.004699
-0.033955 -0.013493 -0.001733
-0.024792 -0.010078 0.004648
-0.025831 -0.010444 -0.001808
-0.025047 -0.011195 -0.001815
-0.029009 -0.012561 0.004687
-0.028504 -0.011585 0.004682
-0.028497 -0.014859 -0.001785
-0.028660 -0.012413 -0.001782
-0.027064 -0.013719 -0.001798
-0.027491 -0.014082 0.004672
-0.029424 -0.013389 0.004690
-0.027608 -0.014663 -0.001793
-0.027593 -0.011986 -0.001792
-0.029374 -0.011636 0.004690
-0.026331 -0.013970 0.004661
-0.025992 -0.012068 0.004659
-0.027148 -0.012811 -0.001796
-0.027397 -0.011027 0.004672
-0.026799 -0.010806 -0.001799
-0.025114 -0.013527 0.004650
-0.027959 -0.010876 -0.001788
-0.029335 -0.013399 -0.001776
-0.024952 -0.011976 0.004649
-0.027577 -0.012889 0.004673
-0.026833 -0.011882 0.004666
-0.026762 -0.010179 0.004666
-0.026367 -0.011055 0.004662
-0.028272 -0.010131 0.004681
-0.027742 -0.012007 0.004675
-0.029531 -0.012311 -0.001774
-0.026093 -0.013787 -0.001807
-0.028495 -0.013485 -0.001784
-0.026483 -0.011863 -0.001802
-0.025078 -0.010958 0.004650
-0.026547 -0.012916 0.004663
-0.028896 -0.011392 -0.001780
-0.025610 -0.012514 -0.001811
-0.028313 -0.013610 0.004680
-0.025011 -0.014207 -0.001817
-0.029438 -0.014774 -0.001776
-0.028949 -0.014414 0.004685
-0.025033 -0.010124 -0.001815
-0.028831 -0.010356 -0.001780
-0.029530 -0.010539 0.004692
-0.026837 -0.014723 0.004665
-0.022071 -0.012322 -0.001844
-0.020493 -0.010166 -0.001858
-0.023338 -0.012718 0.004633
-0.022256 -0.011330 -0.001842
-0.023034 -0.011621 0.004631
-0.023681 -0.014127 0.004636
-0.022086 -0.011231 0.004622
-0.020589 -0.010667 0.004608
-0.023862 -0.012051 0.004638
-0.020077 -0.012919 0.004602
-0.022222 -0.010238 -0.001842
-0.020384 -0.013628 -0.001860
-0.024052 -0.014000 -0.001826
-0.024640 -0.012496 -0.001820
-0.024218 -0.010880 0.004642
-0.021324 -0.013679 -0.001852
-0.023281 -0.010316 0.004634
-0.020724 -0.011706 -0.001856
-0.019766 -0.011516 -0.001865
-0.024265 -0.013367 0.004642
-0.021391 -0.010415 -0.001850
-0.021532 -0.013876 0.004616
-0.023191 -0.012376 -0.001833
-0.022099 -0.012632 0.004622
-0.023213 -0.010018 -0.001832
-0.024099 -0.010902 -0.001824
-0.022166 -0.013295 -0.001843
-0.024519 -0.014488 0.004644
-0.023175 -0.013515 -0.001834
-0.022572 -0.013843 0.004626
-0.023828 -0.012969 -0.001828
-0.020992 -0.012034 0.004612
-0.024023 -0.011915 -0.001826
-0.020602 -0.013854 0.004607
-0.023009 -0.010894 -0.001835
-0.020799 -0.012690 -0.001856
-0.023239 -0.014557 -0.001834
-0.022161 -0.010357 0.004623
-0.021037 -0.013005 0.004612
-0.022271 -0.014150 -0.001843
-0.016851 -0.014280 -0.001894
-0.017639 -0.010915 -0.001885
-0.018537 -0.013129 -0.001877
-0.016370 -0.010604 0.004569
-0.015635 -0.011561 0.004561
-0.017941 -0.014239 -0.001884
-0.019417 -0.013031 -0.001869
-0.015113 -0.013943 -0.001910
-0.015380 -0.012491 -0.001907
-0.016342 -0.012175 -0.001898
-0.016321 -0.010598 -0.001897
-0.014921 -0.014031 0.004554
-0.015191 -0.010423 0.004558
-0.017179 -0.012637 0.004575
-0.015906 -0.013321 -0.001902
-0.019430 -0.014362 -0.001870
-0.017220 -0.010535 0.004577
-0.015746 -0.011521 -0.001903
-0.018231 -0.012201 0.004585
-0.015320 -0.012507 0.004558
-0.018527 -0.011113 0.004589
-0.018048 -0.014618 0.004583
-0.017125 -0.011399 0.004575
-0.018164 -0.011790 -0.001880
-0.016190 -0.014357 0.004565
-0.019069 -0.012557 0.004593
-0.017130 -0.012473 -0.001890
-0.015455 -0.013373 0.004559
-0.019060 -0.014261 0.004592
-0.015860 -0.014426 -0.001903
-0.018091 -0.010373 0.004585
-0.019421 -0.010393 0.004597
-0.017236 -0.013348 -0.001890
-0.018213 -0.010118 -0.001879
-0.015381 -0.010490 -0.001906
-0.016984 -0.013469 0.004573
-0.019525 -0.011558 0.004598
-0.019013 -0.012006 -0.001873
-0.019018 -0.011102 -0.001872
-0.018103 -0.013765 0.004584
-0.016926 -0.011430 -0.001892
-0.016207 -0.012924 0.004566
-0.016342 -0.012037 0.004568
-0.014345 -0.013355 0.004548
-0.011987 -0.013204 -0.001939
-0.012672 -0.010328 -0.001932
-0.010387 -0.013024 0.004511
-0.010756 -0.013288 -0.001951
-0.013390 -0.012668 -0.001926
-0.013771 -0.014315 -0.001923
-0.014363 -0.011887 0.004549
-0.010073 -0.012011 -0.001957
-0.012138 -0.011108 -0.001937
-0.013864 -0.011888 -0.001921
-0.013308 -0.012744 0.004539
-0.011220 -0.014255 0.004519
-0.012099 -0.014567 0.004527
-0.013499 -0.014409 0.004540
-0.012112 -0.010214 0.004529
-0.011233 -0.010031 0.004521
-0.014308 -0.010904 0.004549
-0.014707 -0.013114 -0.001914
-0.014636 -0.011464 -0.001914
-0.012572 -0.014086 -0.001934
-0.010659 -0.010942 -0.001951
-0.011013 -0.011938 0.004518
-0.011378 -0.011010 0.004521
-0.011242 -0.010282 -0.001945
-0.014574 -0.010041 -0.001914
-0.011912 -0.012057 0.004526
-0.012023 -0.012067 -0.001938
-0.010209 -0.010778 0.004511
-0.011059 -0.014726 -0.001949
-0.010412 -0.013936 0.004511
-0.013080 -0.010631 0.004538
-0.012984 -0.011897 -0.001929
-0.012993 -0.011952 0.004536
-0.012176 -0.013182 0.004528
-0.011170 -0.012513 -0.001947
-0.013700 -0.010704 -0.001922
-0.011418 -0.012746 0.004521
-0.013723 -0.010030 0.004544
-0.011453 -0.013951 -0.001945
-0.010052 -0.012132 0.004509
-0.007469 -0.012677 0.004484
-0.009748 -0.014729 0.004505
-0.005152 -0.010351 -0.002002
-0.007664 -0.013766 -0.001980
-0.007298 -0.014667 0.004482
-0.007546 -0.011509 -0.001980
-0.006901 -0.010362 0.004480
-0.004953 -0.012042 -0.002005
-0.006150 -0.014260 0.004471
-0.009255 -0.013461 -0.001965
-0.006674 -0.011901 -0.001988
-0.008848 -0.014656 0.004496
-0.008969 -0.012587 0.004498
-0.004835 -0.013590 -0.002007
-0.006396 -0.011433 0.004475
-0.005713 -0.013980 -0.001998
-0.008651 -0.012353 -0.001970
-0.006527 -0.013080 0.004475
-0.005153 -0.011884 0.004463
-0.005579 -0.010843 0.004467
-0.009575 -0.013321 0.004504
-0.005850 -0.012585 -0.001997
-0.006677 -0.013087 -0.001989
-0.007323 -0.013773 0.004482
-0.008063 -0.010163 -0.001975
-0.008478 -0.010956 0.004494
-0.005129 -0.014492 0.004461
-0.006020 -0.010733 -0.001994
-0.008751 -0.014315 -0.001970
-0.006723 -0.010181 -0.001987
-0.007469 -0.012760 -0.001981
-0.004844 -0.009889 0.004461
-0.006430 -0.014557 -0.001992
-0.006013 -0.010107 0.004471
-0.008272 -0.013887 0.004491
-0.008933 -0.010153 -0.001967
-0.008876 -0.011505 -0.001968
-0.007539 -0.014686 -0.001982
-0.009621 -0.014255 -0.001962
-0.006101 -0.012316 0.004471
-0.007884 -0.011657 0.004488
-0.005626 -0.013153 0.004467
-0.005815 -0.011596 -0.001996
-0.009456 -0.011381 0.004503
-0.009104 -0.009902 0.004501
-0.009731 -0.010532 -0.001959
-0.001490 -0.014413 0.000144
-0.000950 -0.014271 0.002334
-0.001190 -0.014341 0.003362
-0.000432 -0.014092 0.004417
-0.003012 -0.014141 -0.002024
-0.003436 -0.013310 0.004446
-0.001642 -0.012210 0.004430
-0.001531 -0.014205 0.004428
-0.000043 -0.011993 0.004415
-0.001986 -0.014550 -0.000538
-0.001730 -0.010670 0.004431
-0.004588 -0.012856 0.004457
-0.002968 -0.012986 -0.002024
-0.002658 -0.014736 0.000178
-0.000537 -0.014145 -0.001468
-0.002749 -0.014565 0.004439
-0.004399 -0.012835 -0.002010
-0.004072 -0.010402 -0.002012
-0.003276 -0.011548 -0.002020
-0.000305 -0.014094 0.002939
-0.002198 -0.014613 0.001307
-0.004166 -0.011472 -0.002012
-0.003162 -0.010456 -0.002021
-0.002074 -0.013783 -0.002033
-0.002227 -0.011266 -0.002030
-0.000060 -0.010553 0.004415
0.000192 -0.014014 0.001621
-0.002320 -0.014653 0.003255
0.000002 -0.012963 0.004414
-0.000627 -0.011248 0.004420
-0.001159 -0.014320 -0.000767
-0.003130 -0.014864 -0.001156
0.000006 -0.013793 -0.002052
-0.001999 -0.012815 -0.002033
-0.002638 -0.012867 0.004439
-0.000525 -0.014148 0.000857
-0.003972 -0.012151 0.004451
-0.000664 -0.011948 -0.002045
-0.001664 -0.011924 -0.002036
-0.002464 -0.011701 0.004438
-0.000285 -0.014079 -0.000179
-0.004489 -0.010854 0.004457
-0.003974 -0.009947 0.004452
-0.001178 -0.011175 -0.002040
-0.000825 -0.013557 -0.002044
-0.001286 -0.013270 0.004426
-0.000210 -0.012738 -0.002050
-0.002513 -0.010094 0.004439
-0.002848 -0.010919 0.004441
-0.001083 -0.010066 0.004425
-0.000350 -0.010810 -0.002048
-0.003961 -0.014124 0.004451
-0.002116 -0.014584 -0.001684
-0.003566 -0.011387 0.004448
-0.002503 -0.013729 0.004437
-0.001388 -0.014389 0.001436
-0.002120 -0.014595 0.002156
-0.004062 -0.014031 -0.002014
-0.001033 -0.010281 -0.002041
0.000507 -0.013847 0.004409
0.004805 -0.013988 -0.000191
0.003592 -0.011261 -0.002085
0.005073 -0.013987 0.000658
0.001005 -0.013633 -0.002061
0.001995 -0.014005 0.004143
0.001639 -0.014006 0.002381
0.004468 -0.013991 0.002252
0.000769 -0.012458 -0.002059
0.004594 -0.013480 -0.002095
0.002752 -0.014001 0.002708
0.004301 -0.013993 0.003608
0.004360 -0.010622 0.004374
0.002526 -0.014001 0.001000
0.001129 -0.014009 0.001283
0.003767 -0.013995 0.001156
0.001032 -0.012875 0.004404
0.002620 -0.012642 -0.002076
0.001644 -0.011557 -0.002067
0.004409 -0.010709 -0.002092
0.001759 -0.012489 -0.002068
0.002554 -0.014001 0.001856
0.000665 -0.014012 0.003013
0.002524 -0.011514 -0.002075
0.003494 -0.013331 0.004381
0.004945 -0.009985 -0.002097
0.000525 -0.014011 -0.001192
0.000510 -0.010807 -0.002056
0.001779 -0.014004 -0.001925
0.002599 -0.012365 0.004390
0.003137 -0.010171 0.004385
0.004535 -0.013382 0.004371
0.004089 -0.013992 0.000267
0.003496 -0.011835 0.004381
0.000887 -0.010055 0.004407
0.000986 -0.011769 0.004405
0.003318 -0.013995 -0.001973
0.002364 -0.013241 0.004391
0.003492 -0.010963 0.004382
0.002836 -0.013998 -0.001112
0.003985 -0.013992 -0.001192
0.003048 -0.013998 0.000128
0.002253 -0.014002 -0.000370
0.001748 -0.012172 0.004398
0.001215 -0.014008 -0.000137
0.003130 -0.013999 0.003593
0.001327 -0.010175 -0.002063
0.000323 -0.014013 0.000709
0.002299 -0.010548 0.004393
0.002198 -0.010458 -0.002071
0.005003 -0.011246 0.004368
0.003017 -0.010219 -0.002079
0.001352 -0.010990 0.004402
0.004077 -0.012056 -0.002090
0.003783 -0.013995 0.002813
0.005148 -0.013988 0.003377
0.003621 -0.012925 -0.002086
0.005018 -0.012229 0.004367
0.001677 -0.014005 -0.001005
0.004967 -0.013987 -0.001086
0.004740 -0.012614 -0.002096
0.000305 -0.011726 -0.002054
0.001350 -0.014009 0.003552
0.004834 -0.011618 -0.002097
0.009626 -0.011901 -0.002142
0.006279 -0.012300 0.004355
0.006648 -0.010232 0.004352
0.009859 -0.010481 0.004322
0.005713 -0.013065 0.004360
0.005835 -0.013983 -0.000163
0.005629 -0.012434 -0.002104
0.010017 -0.010201 -0.002145
0.009572 -0.013049 -0.002142
0.006749 -0.012432 -0.002115
0.008511 -0.013970 0.002589
0.006541 -0.013981 0.003681
0.008457 -0.011923 0.004335
0.008465 -0.013969 0.000856
0.010169 -0.013960 0.001286
0.007839 -0.010499 0.004341
0.007325 -0.011799 -0.002120
0.008015 -0.013607 -0.002127
0.008674 -0.013968 -0.000245
0.007518 -0.013973 -0.000950
0.005457 -0.013987 0.004299
0.006553 -0.011218 0.004353
0.007429 -0.010664 -0.002121
0.009718 -0.012265 0.004323
0.005876 -0.010058 -0.002106
0.007342 -0.013976 0.002642
0.007381 -0.012782 0.004345
0.008827 -0.013940 -0.002135
0.005835 -0.013982 -0.001268
0.009647 -0.013964 0.003237
0.009453 -0.013963 -0.001423
0.009625 -0.013963 -0.000191
0.005587 -0.013916 -0.002105
0.007952 -0.013972 0.001663
0.006894 -0.013399 -0.002117
0.007050 -0.013977 0.001428
0.005602 -0.011144 -0.002104
0.008879 -0.010721 -0.002134
0.007556 -0.011898 0.004343
0.008574 -0.013970 0.003941
0.006460 -0.013981 0.002458
0.008641 -0.010876 0.004333
0.006323 -0.013981 0.000675
0.009597 -0.013953 0.004323
0.008123 -0.011445 -0.002127
0.009609 -0.013964 0.002320
0.006676 -0.013978 -0.001096
0.005564 -0.013985 0.001871
0.006826 -0.013978 -0.000052
0.009353 -0.013964 0.000634
0.006795 -0.013520 0.004350
0.008159 -0.012541 -0.002128
0.006691 -0.011076 -0.002114
0.008812 -0.012886 0.004331
0.007626 -0.013724 0.004342
0.007879 -0.013974 0.003372
0.007582 -0.013974 0.000533
0.008367 -0.013969 -0.001061
0.009011 -0.013967 0.001551
0.005760 -0.010602 0.004361
0.006776 -0.010119 -0.002114
0.012145 -0.013514 0.004299
0.012478 -0.013947 0.000132
0.013717 -0.013941 0.001049
0.014759 -0.013936 0.001322
0.010304 -0.013336 0.004317
0.014896 -0.013936 0.003084
0.014206 -0.013938 -0.001185
0.013264 -0.013945 0.002880
0.010452 -0.011120 0.004316
0.010639 -0.013958 0.002360
0.010901 -0.013956 0.000462
0.010657 -0.013956 -0.002101
0.010642 -0.013026 -0.002152
0.015177 -0.012014 0.004271
0.011767 -0.013951 -0.001059
0.011292 -0.011172 -0.002157
0.012420 -0.012639 0.004297
0.014572 -0.011200 -0.002188
0.013436 -0.010110 -0.002177
0.012716 -0.009980 0.004295
0.011994 -0.013472 -0.002165
0.010925 -0.013955 -0.001267
0.012735 -0.011801 -0.002171
0.013365 -0.013945 0.004002
0.012357 -0.013950 0.003186
0.014081 -0.013940 0.002517
0.011450 -0.012659 -0.002159
0.014807 -0.013895 0.004274
0.013570 -0.013941 -0.001754
0.014100 -0.010688 0.004282
0.012109 -0.010623 -0.002165
0.012670 -0.012737 -0.002171
0.014845 -0.013622 -0.002192
0.013901 -0.012961 -0.002182
0.010424 -0.011586 -0.002149
0.013805 -0.011887 -0.002181
0.011496 -0.013954 0.002079
0.011107 -0.013957 0.004291
0.010392 -0.013960 0.003689
0.011996 -0.011898 0.004302
0.011489 -0.010514 0.004307
0.013414 -0.013942 -0.000338
0.011374 -0.013953 -0.000254
0.012997 -0.011991 0.004292
0.013262 -0.011055 0.004290
0.014896 -0.012044 -0.002191
0.014274 -0.013938 -0.000315
0.012830 -0.013946 0.001430
0.013523 -0.013104 0.004287
0.014833 -0.011210 0.004275
0.014402 -0.012909 0.004278
0.012410 -0.010797 0.004298
0.011097 -0.010321 -0.002155
0.011455 -0.013954 0.002978
0.012538 -0.013948 0.002294
0.011126 -0.011755 0.004310
0.014087 -0.012040 0.004282
0.014996 -0.010068 0.004274
0.011041 -0.012778 0.004310
0.014651 -0.013936 0.000469
0.011726 -0.013952 0.001014
0.012732 -0.013945 -0.001613
0.014928 -0.013935 0.002217
0.013741 -0.011000 -0.002180
0.018401 -0.012732 0.004241
0.019104 -0.011519 0.004235
0.019294 -0.011646 -0.002232
0.019535 -0.013648 0.004230
0.016911 -0.013925 0.002571
0.019123 -0.013911 -0.001477
0.018804 -0.013913 -0.000293
0.019896 -0.009966 0.004228
0.017122 -0.013063 0.004253
0.019215 -0.010020 -0.002231
0.016567 -0.013925 -0.002130
0.019693 -0.013305 -0.002237
0.017876 -0.012019 -0.002219
0.015656 -0.013932 0.004143
0.019024 -0.013913 0.001850
0.017623 -0.013370 -0.002218
0.016783 -0.013924 -0.000395
0.016796 -0.011810 0.004256
0.018834 -0.013437 -0.002229
0.020213 -0.013906 0.000632
0.015439 -0.010656 -0.002196
0.018979 -0.012548 -0.002230
0.015769 -0.010458 0.004267
0.015955 -0.009880 -0.002200
0.017214 -0.013921 -0.001421
0.019921 -0.010985 0.004227
0.017587 -0.010361 -0.002216
0.018399 -0.013917 0.003393
0.016729 -0.010629 -0.002208
0.016544 -0.013927 0.003979
0.018577 -0.013841 0.004239
0.017433 -0.013921 0.000622
0.019015 -0.009900 0.004236
0.019506 -0.013911 0.003100
0.019850 -0.012657 0.004227
0.017401 -0.010932 0.004251
0.019800 -0.013908 -0.000800
0.016119 -0.012450 0.004262
0.015789 -0.013930 0.000160
0.018955 -0.013913 0.000809
0.018077 -0.013918 0.002144
0.015749 -0.013929 -0.000887
0.017786 -0.010002 0.004248
0.018470 -0.010821 0.004241
0.016044 -0.011409 0.004264
0.015521 -0.013930 -0.001746
0.015703 -0.013217 -0.002199
0.015283 -0.013120 0.004270
0.016038 -0.013929 0.002280
0.018500 -0.010886 -0.002225
0.019911 -0.013908 0.001443
0.016910 -0.012755 -0.002211
0.017094 -0.011630 -0.002212
0.017945 -0.011663 0.004246
0.016207 -0.012192 -0.002204
0.017161 -0.013923 0.001479
0.016182 -0.011312 -0.002203
0.016188 -0.013928 0.001138
0.017832 -0.013919 -0.000519
0.017517 -0.013848 0.004249
0.017249 -0.013923 0.003437
0.018214 -0.013916 -0.001439
0.015947 -0.013930 0.003218
0.022733 -0.011310 0.004201
0.021955 -0.013898 0.001887
0.020752 -0.011307 -0.002246
0.024610 -0.010874 -0.002282
0.020696 -0.013904 0.002010
0.022057 -0.010192 0.004208
0.023138 -0.010518 -0.002268
0.023237 -0.012141 0.004196
0.021682 -0.011220 0.004211
0.022432 -0.013091 0.004203
0.022051 -0.013896 0.000404
0.021680 -0.013897 -0.001858
0.020417 -0.013904 -0.002102
0.024202 -0.011077 0.004187
0.025025 -0.013880 -0.001272
0.023206 -0.013892 0.004104
0.022505 -0.009921 -0.002262
0.021321 -0.013007 -0.002252
0.022445 -0.013666 -0.002263
0.025056 -0.010118 0.004179
0.022605 -0.013895 0.003003
0.023362 -0.012994 0.004194
0.024204 -0.013885 0.001733
0.020388 -0.010486 -0.002242
0.023026 -0.013891 0.000904
0.021636 -0.010092 -0.002254
0.021554 -0.013900 0.002822
0.021017 -0.013902 -0.000066
0.021460 -0.012633 0.004212
0.020676 -0.013903 -0.001230
0.020489 -0.013906 0.003372
0.025153 -0.013881 0.002768
0.024986 -0.013880 -0.000170
0.020316 -0.011859 0.004223
0.024358 -0.012403 -0.002280
0.024862 -0.013044 0.004180
0.024150 -0.013887 0.003519
0.023260 -0.013889 -0.000742
0.024098 -0.013885 -0.001032
0.024973 -0.013392 -0.002287
0.021587 -0.013900 0.004211
0.025216 -0.013861 0.004176
0.020408 -0.012316 -0.002243
0.024117 -0.013884 -0.002152
0.022099 -0.012662 -0.002259
0.021704 -0.011692 -0.002255
0.023933 -0.011411 -0.002276
0.022946 -0.012091 -0.002267
0.023112 -0.013890 -0.001646
0.023154 -0.013891 0.001790
0.025236 -0.011980 0.004177
0.022307 -0.012148 0.004204
0.020707 -0.010242 0.004220
0.023242 -0.013174 -0.002270
0.023942 -0.013887 0.002614
0.022080 -0.010862 -0.002258
0.020666 -0.013753 0.004219
0.024227 -0.012151 0.004186
0.024584 -0.013883 0.000735
0.024545 -0.009986 -0.002281
0.022212 -0.013895 -0.000594
0.023208 -0.010329 0.004197
0.024077 -0.010240 0.004189
0.023600 -0.013888 0.000262
0.025185 -0.013880 0.001887
0.020948 -0.013903 0.001138
0.026955 -0.013731 -0.002305
0.025890 -0.013875 -0.000799
0.026305 -0.013630 0.004166
0.027904 -0.013584 -0.002314
0.025838 -0.010593 -0.002294
0.027478 -0.010517 0.004157
0.027428 -0.013867 -0.000943
0.029441 -0.011176 -0.002328
0.028554 -0.013862 0.001803
0.028110 -0.012592 0.004150
0.029960 -0.012646 0.004132
0.027662 -0.013867 0.001555
0.026208 -0.013875 0.002228
0.029833 -0.013856 0.002687
0.029591 -0.013856 -0.000704
0.027818 -0.012515 -0.002313
0.028938 -0.012351 0.004142
0.028508 -0.010633 -0.002319
0.028444 -0.013863 0.002828
0.028988 -0.013859 0.000062
0.026362 -0.013872 -0.001614
0.028786 -0.013859 -0.002241
0.027244 -0.013458 0.004157
0.026526 -0.010009 0.004166
0.026846 -0.010254 -0.002303
0.029396 -0.013797 0.004137
0.025749 -0.012599 -0.002294
0.026180 -0.012644 0.004168
0.025427 -0.013879 0.001045
0.027294 -0.011678 -0.002308
0.025739 -0.013878 0.003422
0.029639 -0.013855 -0.001929
0.028386 -0.010023 0.004148
0.026913 -0.011379 0.004161
0.027590 -0.013868 0.002415
0.030110 -0.013853 0.000299
0.027139 -0.012571 0.004159
0.025904 -0.013609 -0.002295
0.028593 -0.013315 0.004145
0.026388 -0.013874 0.001185
0.029826 -0.009990 0.004135
0.026041 -0.011002 0.004170
0.026244 -0.011648 -0.002298
0.027628 -0.010599 -0.002310
0.028504 -0.011709 -0.002319
0.026890 -0.013872 0.003472
0.025868 -0.013876 0.000125
0.029643 -0.011427 0.004136
0.028761 -0.010926 0.004144
0.025323 -0.011555 -0.002289
0.027844 -0.011544 0.004153
0.028750 -0.012906 -0.002322
0.029880 -0.013855 0.001303
0.029809 -0.012569 -0.002332
0.028460 -0.013862 -0.000737
0.026689 -0.012695 -0.002302
0.029526 -0.010256 -0.002328
0.027933 -0.013865 0.000639
0.027821 -0.013867 0.003558
0.028063 -0.013863 -0.001503
0.026887 -0.013870 -0.000071
0.033213 -0.011445 0.004102
0.034453 -0.013830 0.000570
0.030292 -0.013854 0.003646
0.035031 -0.013828 0.002526
0.034183 -0.011376 0.004093
0.032690 -0.010761 0.004107
0.035191 -0.011109 0.004084
0.031785 -0.011727 0.004116
0.030723 -0.013293 0.004125
0.033860 -0.013834 0.001282
0.031868 -0.010477 0.004115
0.033976 -0.013831 -0.002253
0.030976 -0.010127 -0.002342
0.033958 -0.013834 0.003196
0.030404 -0.013851 -0.001431
0.030649 -0.012728 -0.002340
0.032857 -0.013838 -0.000060
0.033222 -0.013838 0.002565
0.032194 -0.013635 -0.002355
0.035175 -0.013825 -0.001290
0.033817 -0.012188 0.004096
0.030747 -0.012175 0.004125
0.032951 -0.013839 0.001472
0.034961 -0.013828 0.001411
0.032098 -0.013844 0.003205
0.031161 -0.013849 0.003583
0.033130 -0.012916 -0.002363
0.033155 -0.013836 -0.001378
0.034691 -0.012857 0.004088
0.034706 -0.010170 0.004089
0.033655 -0.013656 0.004097
0.034813 -0.013485 -0.002379
0.032341 -0.011199 -0.002355
0.032491 -0.012836 0.004108
0.033887 -0.013833 -0.000095
0.035124 -0.011710 -0.002381
0.031350 -0.013846 -0.001840
0.034664 -0.013831 0.003880
0.030677 -0.010265 0.004126
0.031470 -0.013847 0.002449
0.030962 -0.011205 0.004124
0.032971 -0.013839 0.003589
0.033531 -0.011173 -0.002366
0.034218 -0.013832 0.002200
0.030334 -0.011783 -0.002336
0.034445 -0.010101 -0.002374
0.031184 -0.013848 0.000698
0.033076 -0.013836 -0.002314
0.031262 -0.013847 -0.000599
0.031825 -0.013714 0.004114
0.033998 -0.013832 -0.000994
0.030566 -0.013852 0.001964
0.032297 -0.013841 -0.001114
0.032003 -0.013844 0.001623
0.030496 -0.013850 -0.002317
0.031541 -0.012878 0.004117
0.031991 -0.013843 0.000414
0.034308 -0.012458 -0.002374
0.034530 -0.011017 -0.002376
0.031628 -0.010681 -0.002348
0.032326 -0.012135 -0.002355
0.033566 -0.010120 0.004099
0.031407 -0.012317 -0.002347
0.032976 -0.010260 -0.002361
0.030670 -0.010945 -0.002339
0.036300 -0.012644 0.004073
0.037686 -0.010085 0.004061
0.040043 -0.011484 -0.002427
0.040239 -0.012698 -0.002430
0.037596 -0.013813 0.000910
0.037124 -0.011749 -0.002400
0.040100 -0.012763 0.004037
0.035643 -0.013362 0.004079
0.035418 -0.012375 0.004081
0.040146 -0.010192 0.004038
0.039425 -0.013802 -0.002393
0.035617 -0.010500 -0.002385
0.037416 -0.013814 -0.000199
0.039654 -0.009980 -0.002423
0.037705 -0.009972 -0.002405
0.036170 -0.013820 -0.000776
0.040202 -0.013801 0.003623
0.036452 -0.013821 0.003681
0.037637 -0.013812 -0.002160
0.036397 -0.012387 -0.002394
0.038025 -0.011956 -0.002409
0.040182 -0.013799 -0.000603
0.039513 -0.013804 0.002679
0.039294 -0.013805 0.001734
0.040235 -0.011896 0.004036
0.037763 -0.013814 0.003776
0.035862 -0.013221 -0.002389
0.039293 -0.013804 -0.000502
0.037016 -0.013816 -0.001251
0.039201 -0.012981 -0.002420
0.038772 -0.013807 0.000482
0.036528 -0.013819 0.001114
0.035950 -0.013823 0.002397
0.036848 -0.013818 0.002186
0.039101 -0.011040 0.004047
0.036151 -0.013820 -0.001783
0.039863 -0.013801 0.000525
0.037999 -0.012449 0.004057
0.036568 -0.013819 0.000049
0.040189 -0.013798 -0.002012
0.035399 -0.013826 0.003360
0.038450 -0.013809 0.001277
0.036783 -0.013419 -0.002398
0.038607 -0.010249 0.004052
0.038615 -0.011746 0.004051
0.039417 -0.012133 0.004044
0.035626 -0.013824 0.000892
0.036280 -0.010915 0.004074
0.037023 -0.011425 0.004066
0.038079 -0.013811 0.002263
0.038345 -0.013809 -0.000313
0.039105 -0.012035 -0.002419
0.035943 -0.011490 -0.002389
0.039264 -0.013803 -0.001474
0.035627 -0.010238 0.004080
0.035358 -0.013825 0.000005
0.038474 -0.013671 -0.002414
0.036468 -0.010698 -0.002394
0.038728 -0.010607 -0.002415
0.037740 -0.011044 -0.002406
0.038353 -0.013808 -0.001519
0.039044 -0.013447 0.004047
0.037840 -0.010919 0.004059
0.038727 -0.013808 0.003088
0.037509 -0.012734 -0.002404
0.036195 -0.011777 0.004074
0.040122 -0.013800 0.001486
0.037414 -0.013815 0.002850
0.037118 -0.012393 0.004065
0.042880 -0.013786 0.003394
0.040655 -0.013798 0.002870
0.042697 -0.013786 0.000956
0.044251 -0.013778 0.001447
0.043133 -0.011486 0.004009
0.041453 -0.013793 0.000517
0.044967 -0.010499 -0.002473
0.042616 -0.010206 0.004014
0.044350 -0.013776 -0.001868
0.042266 -0.013789 0.001936
0.041743 -0.013321 0.004021
0.041089 -0.013794 -0.000904
0.041418 -0.012403 0.004025
0.041161 -0.013796 0.003565
0.042029 -0.012693 -0.002447
0.044754 -0.013776 0.002789
0.043462 -0.011319 -0.002460
0.045196 -0.013773 0.001901
0.041570 -0.011052 -0.002442
0.044953 -0.013414 0.003991
0.042909 -0.012609 0.004011
0.040772 -0.011212 0.004031
0.042268 -0.013788 0.000026
0.043823 -0.013401 0.004002
0.043756 -0.013781 0.003034
0.043208 -0.013784 0.002177
0.042578 -0.010699 -0.002451
0.041557 -0.013791 -0.002204
0.043900 -0.012962 -0.002464
0.044028 -0.012390 0.004000
0.043586 -0.013781 0.000891
0.041111 -0.013795 0.001423
0.041984 -0.009916 -0.002445
0.043745 -0.010042 0.004004
0.042194 -0.011572 0.004018
0.043805 -0.010012 -0.002462
0.041406 -0.010041 0.004026
0.044353 -0.011479 0.003998
0.042897 -0.012346 -0.002455
0.044645 -0.009955 0.003995
0.043976 -0.012094 -0.002465
0.044118 -0.013778 -0.000013
0.042704 -0.013635 -0.002453
0.044817 -0.012361 -0.002473
0.042972 -0.013784 -0.000634
0.040813 -0.013380 -0.002436
0.044702 -0.011352 -0.002471
0.042363 -0.011650 -0.002449
0.041505 -0.011961 -0.002441
0.044219 -0.013777 -0.000957
0.043394 -0.013781 -0.001520
0.040318 -0.010652 -0.002430
0.041601 -0.013793 0.002505
0.042285 -0.013787 -0.001379
0.047120 -0.013761 -0.001955
0.049472 -0.013750 0.001491
0.049986 -0.010371 -0.002520
0.048312 -0.013241 -0.002506
0.050041 -0.011060 0.003944
0.048051 -0.013756 -0.001771
0.049198 -0.013751 0.000002
0.049734 -0.013705 -0.002519
0.046907 -0.010308 0.003974
0.048757 -0.010393 0.003956
0.045482 -0.013771 -0.000665
0.049939 -0.013749 0.003335
0.046410 -0.013766 0.001297
0.048243 -0.013756 0.000547
0.048047 -0.010517 -0.002502
0.049331 -0.013749 -0.001774
0.048200 -0.013758 0.003433
0.049390 -0.012916 -0.002516
0.049204 -0.011676 0.003952
0.046181 -0.011103 0.003981
0.047833 -0.013759 0.001616
0.046390 -0.012961 -0.002488
0.045316 -0.013772 0.000821
0.050089 -0.013746 0.000074
0.045701 -0.011287 -0.002481
0.046529 -0.013766 0.002248
0.048996 -0.013753 0.002981
0.045915 -0.010060 0.003983
0.048087 -0.012217 0.003962
0.049804 -0.011882 -0.002519
0.046102 -0.013769 0.003578
0.047432 -0.013760 -0.000629
0.046329 -0.013766 -0.000964
0.046380 -0.012769 0.003978
0.046766 -0.011987 0.003975
0.046905 -0.013643 0.003973
0.047732 -0.011220 0.003966
0.047460 -0.013012 -0.002498
0.047631 -0.013063 0.003966
0.048262 -0.013757 0.002529
0.048572 -0.013155 0.003957
0.049400 -0.013749 -0.000833
0.049651 -0.013750 0.002440
0.047348 -0.013762 0.003190
0.049175 -0.010123 -0.002513
0.045544 -0.013662 -0.002480
0.046792 -0.013764 0.000436
0.045409 -0.012504 0.003987
0.049403 -0.013337 0.003949
0.045433 -0.013770 -0.001579
0.048931 -0.011188 -0.002511
0.049728 -0.012408 0.003947
0.046674 -0.011794 -0.002490
0.048024 -0.011834 -0.002503
0.048550 -0.013754 -0.000809
0.045837 -0.012311 -0.002482
0.047381 -0.011146 -0.002496
0.046308 -0.010693 -0.002486
0.047116 -0.010232 -0.002493
0.045359 -0.010725 0.003988
0.045644 -0.013771 0.002766
0.048906 -0.012136 -0.002511
0.052977 -0.013731 0.000932
0.050783 -0.013425 0.003936
0.050809 -0.013743 0.002220
0.051952 -0.013245 -0.002540
0.050841 -0.013196 -0.002530
0.054003 -0.013727 0.003698
