ply
format ascii 1.0
element vertex 87
property float x
property float y
property float z
end_header
0.063390 46.526451 10.847500
-0.369790 50.261909 10.864600
0.420608 51.605602 11.970600
0.218382 49.558640 10.230300
-0.182739 47.921741 9.937920
-0.364999 50.210003 11.948500
0.221744 53.661381 10.191000
0.058372 48.194412 12.118400
-0.001243 45.878761 10.920900
-0.292398 48.913193 12.058200
-0.332308 49.558640 11.433800
0.052907 47.206970 12.053100
-0.113697 47.050762 10.284400
-0.281675 48.801430 11.547700
-0.367833 51.627052 10.002900
-0.135767 47.280769 11.394500
-0.119832 47.114700 10.864200
0.307644 49.072071 10.842500
-0.608385 53.312481 10.432900
-0.413789 50.840641 11.054800
0.552656 52.733982 11.686100
0.773241 53.193981 10.755900
-0.673528 53.269180 11.530200
-0.004660 45.914371 10.346600
-0.172911 47.667892 10.458000
0.023520 50.686790 9.856420
0.712298 53.258583 11.424300
0.561155 51.940502 11.395800
0.702718 52.575783 11.212500
0.354792 49.650723 11.961500
-0.060294 46.494194 11.738200
0.482731 52.853180 10.274200
-0.346991 49.482151 12.102400
0.191383 47.860401 10.781700
-0.048173 46.379761 10.046400
-0.351711 49.531353 10.268000
0.281721 51.650063 10.002600
0.304497 49.039272 10.110400
-0.672860 52.706482 11.491200
0.424316 51.129532 11.639900
0.666635 52.455181 10.616000
-0.143485 52.493183 11.941100
-0.366337 50.185673 11.412300
-0.363868 50.277390 10.090000
0.302481 49.018261 11.504100
0.365878 50.240540 10.038000
0.310965 49.106689 12.141300
-0.293968 48.929543 10.097000
-0.812902 53.603783 11.154000
0.254059 48.513611 10.327800
0.029577 52.569481 10.086800
-0.499457 51.639832 10.508900
0.356921 49.831039 11.256600
0.056994 49.839890 9.824920
-0.110923 51.381691 12.102200
-0.289667 50.708824 12.154500
0.413790 51.032352 10.043800
-0.355134 49.643173 10.877200
-0.592250 51.908512 11.072100
-0.458954 51.762913 11.934300
-0.296463 48.955551 10.627700
0.342924 52.169193 11.942600
-0.571417 52.233181 11.713400
0.591654 51.905163 10.864000
-0.422645 50.946781 11.576200
-0.734870 52.731384 10.918500
-0.392326 50.695694 10.553400
-0.581591 52.611881 10.421500
-0.231145 48.274803 10.547300
0.379330 50.437313 10.624300
0.496649 51.442032 10.638600
0.378717 50.708420 11.947100
-0.428253 52.135883 10.121500
-0.489016 51.373230 11.106600
0.089399 50.262772 12.196600
-0.016846 46.041374 11.434200
-0.237291 48.338852 11.202800
0.062693 47.437561 9.971990
0.399000 50.712822 11.236800
0.362921 50.177921 11.714400
-0.186697 47.811562 11.770900
0.176660 53.033581 11.883700
-0.390039 50.944504 10.073800
0.357430 49.876930 10.622500
-0.154840 53.193882 10.156800
0.230804 48.271252 11.440600
0.086707 46.769463 11.315700
