ply
format ascii 1.0
element vertex 1700
property float x
property float y
property float z
end_header
0.035627 -0.047784 -0.001951
0.033438 -0.046271 0.003247
0.033029 -0.045153 0.005043
0.035370 -0.044696 -0.000178
0.034642 -0.043685 0.004455
0.037797 -0.047299 -0.001625
0.037349 -0.048013 0.006659
0.033569 -0.043558 0.001265
0.036633 -0.047271 0.006657
0.034395 -0.044770 0.000425
0.035886 -0.043647 -0.001960
0.034402 -0.043258 -0.001528
0.034460 -0.048148 -0.001636
0.035895 -0.045699 -0.000616
0.037416 -0.045676 -0.001768
0.034397 -0.046462 0.006204
0.037491 -0.043903 0.004510
0.033840 -0.045414 0.005844
0.036971 -0.043445 -0.000104
0.034772 -0.046708 0.000072
0.035525 -0.046625 -0.001945
0.035013 -0.043604 -0.000009
0.034006 -0.044638 -0.001275
0.035000 -0.043606 0.006398
0.035622 -0.046830 -0.000613
0.033402 -0.046065 0.001470
0.033422 -0.045165 0.003067
0.033473 -0.044065 0.005485
0.037654 -0.046215 0.005299
0.033965 -0.045944 0.000457
0.033411 -0.045478 -0.000818
0.034063 -0.047246 0.004393
0.034275 -0.047074 -0.001538
0.037849 -0.048122 0.000628
0.034761 -0.048018 0.000040
0.033634 -0.045242 0.002046
0.036789 -0.046872 -0.000475
0.036107 -0.048024 -0.000268
0.034887 -0.046321 0.004678
0.037756 -0.044877 -0.000145
0.037969 -0.047768 0.003735
0.033188 -0.047219 0.005308
0.036858 -0.045347 -0.000119
0.037062 -0.043754 0.006659
0.033572 -0.047307 0.002968
0.035952 -0.047900 0.005276
0.033934 -0.047140 0.000440
0.037531 -0.046757 0.004391
0.034608 -0.044923 0.006293
0.033685 -0.044065 0.003687
0.033639 -0.044160 0.002309
0.036951 -0.045144 0.006657
0.035952 -0.045580 -0.001969
0.033180 -0.046133 0.005255
0.035852 -0.045226 0.006620
0.036372 -0.044438 0.005280
0.033553 -0.047584 -0.001002
0.034283 -0.045275 0.004521
0.036273 -0.046273 0.004938
0.035245 -0.044542 0.004785
0.035435 -0.043391 0.005154
0.034225 -0.045885 -0.001496
0.037668 -0.045959 -0.000171
0.035985 -0.046289 0.006653
0.035025 -0.044860 -0.001822
0.036114 -0.044069 0.006650
0.037088 -0.046240 0.006660
0.034941 -0.047727 0.004719
0.036808 -0.045340 0.005288
0.033217 -0.046452 -0.000618
0.037797 -0.047038 -0.000071
0.036926 -0.046974 0.005289
0.040628 -0.047247 0.001603
0.038092 -0.043547 0.000715
0.042698 -0.047269 0.006691
0.038654 -0.046851 0.001804
0.041819 -0.047468 0.000627
0.038105 -0.043204 0.006663
0.039383 -0.044438 0.003931
0.039601 -0.044689 0.001130
0.042752 -0.043225 0.006690
0.039255 -0.045607 0.006672
0.038300 -0.044302 0.003767
0.039384 -0.046143 0.003942
0.041080 -0.045962 0.000390
0.042057 -0.047184 0.004351
0.039148 -0.047831 0.005322
0.038697 -0.047563 0.006667
0.041265 -0.044240 0.002184
0.039175 -0.046102 0.005320
0.041815 -0.044945 0.005358
0.039105 -0.043611 0.000841
0.042236 -0.046528 0.000734
0.040358 -0.047416 0.006676
0.042769 -0.047734 0.005371
0.041922 -0.044122 0.000618
0.038617 -0.044137 0.006666
0.038521 -0.046917 0.003813
0.042607 -0.045248 0.000811
0.041734 -0.045727 0.004294
0.042908 -0.045560 0.006691
0.042667 -0.047631 0.002146
0.040462 -0.045580 0.001510
0.038000 -0.047826 0.005307
0.040458 -0.047128 0.000181
0.040094 -0.046380 0.006674
0.039461 -0.046352 -0.000460
0.040074 -0.045033 -0.000060
0.041340 -0.046732 0.006684
0.041940 -0.044025 0.006686
0.042421 -0.045907 0.002368
0.039557 -0.043464 0.001919
0.040819 -0.046370 0.002127
0.040840 -0.047296 0.004171
0.040574 -0.044582 0.004111
0.042468 -0.044095 0.002366
0.040041 -0.045003 0.006673
0.039288 -0.045045 0.005322
0.038471 -0.043670 0.001703
0.040731 -0.043929 0.006680
0.039871 -0.047938 -0.000120
0.042139 -0.046165 0.005363
0.040698 -0.046257 0.004140
0.039678 -0.046196 0.001958
0.041312 -0.044809 0.006683
0.041035 -0.044186 0.005344
0.038617 -0.046853 0.000541
0.042868 -0.045068 0.005372
0.039437 -0.043458 0.006671
0.038686 -0.046309 -0.001123
0.038060 -0.045969 0.006662
0.039283 -0.047685 0.001029
0.039834 -0.047239 0.004014
0.041842 -0.046821 0.002287
0.040464 -0.047711 0.005339
0.038463 -0.045238 -0.001327
0.040993 -0.048151 0.000390
0.042192 -0.048145 0.006688
0.039544 -0.047381 0.001944
0.041565 -0.047984 0.005355
0.038273 -0.047881 0.001549
0.042716 -0.045433 0.004439
0.040988 -0.044769 0.000349
0.039586 -0.048150 0.006674
0.040518 -0.044427 0.001516
0.038985 -0.044181 -0.000948
0.042138 -0.043651 0.005361
0.038911 -0.047666 -0.000889
0.038033 -0.045732 0.000758
0.038569 -0.044680 0.000410
0.042137 -0.044524 0.004345
0.041692 -0.045154 0.002253
0.038393 -0.044866 0.001528
0.041834 -0.045839 0.006686
0.038392 -0.045846 0.001734
0.039281 -0.046176 0.000996
0.039149 -0.043354 0.003887
0.040592 -0.046710 0.005340
0.040762 -0.045197 0.005344
0.039475 -0.043835 0.005322
0.038150 -0.044209 -0.001515
0.040346 -0.044051 0.000065
0.038430 -0.043949 0.005308
0.045185 -0.046831 0.002791
0.044526 -0.043875 0.006699
0.047699 -0.044381 0.002456
0.044004 -0.045790 0.002605
0.046320 -0.046119 0.005428
0.046977 -0.045285 0.005083
0.046311 -0.044543 0.002487
0.047087 -0.043930 0.005089
0.045216 -0.047784 0.006707
0.044641 -0.044608 0.001087
0.044634 -0.046297 0.004736
0.046629 -0.047242 0.003010
0.046028 -0.047765 0.005423
0.046089 -0.045948 0.006723
0.047201 -0.047948 0.006780
0.046724 -0.043622 0.003006
0.046665 -0.047057 0.006740
0.046169 -0.043816 0.006720
0.045229 -0.044950 0.002454
0.043570 -0.044546 0.000962
0.045681 -0.046882 0.006709
0.045166 -0.045566 0.006701
0.044219 -0.044627 0.002360
0.046172 -0.044681 0.004955
0.045920 -0.047399 0.001197
0.043204 -0.046212 0.000916
0.043509 -0.043686 0.002263
0.047146 -0.045529 0.002471
0.044378 -0.044268 0.005390
0.047215 -0.045784 0.006770
0.047203 -0.048037 0.002467
0.043190 -0.044111 0.004502
0.045572 -0.043890 0.001176
0.044577 -0.047060 0.001091
0.047198 -0.047844 0.001156
0.045819 -0.046128 0.002488
0.044316 -0.047342 0.006701
0.045762 -0.046828 0.004908
0.043314 -0.044349 0.006691
0.044833 -0.043779 0.002418
0.044963 -0.047888 0.002444
0.047875 -0.047899 0.003204
0.047808 -0.044639 0.001139
0.045689 -0.043436 0.004876
0.044520 -0.047290 0.004722
0.044177 -0.045620 0.001043
0.043742 -0.045393 0.004595
0.047399 -0.044750 0.006790
0.044161 -0.045586 0.006698
0.045647 -0.045586 0.004885
0.043556 -0.047380 0.000973
0.043106 -0.046602 0.005376
0.046747 -0.043635 0.001174
0.043048 -0.045084 0.002459
0.046331 -0.044845 0.001185
0.047647 -0.046933 0.001141
0.043869 -0.046910 0.002333
0.045331 -0.045943 0.001161
0.044237 -0.043208 0.005389
0.046259 -0.044841 0.006727
0.047839 -0.047190 0.002448
0.047885 -0.044601 0.005216
0.044628 -0.045332 0.005396
0.046402 -0.046473 0.001182
0.047104 -0.045745 0.001161
0.043149 -0.047323 0.004516
0.047094 -0.047686 0.005115
0.043435 -0.046535 0.006694
0.051460 -0.044475 0.003725
0.048421 -0.046951 0.007161
0.049107 -0.044767 0.001096
0.049531 -0.045194 0.003441
0.052577 -0.043562 0.004282
0.048797 -0.043343 0.005344
0.051116 -0.047506 0.005723
0.048269 -0.046126 0.001122
0.048183 -0.047598 0.005770
0.048990 -0.045679 0.002403
0.048950 -0.044411 0.002406
0.050382 -0.044517 0.003562
0.051442 -0.045974 0.005761
0.050492 -0.043929 0.005606
0.050254 -0.043356 0.003534
0.050153 -0.046221 0.003539
0.052177 -0.047532 0.005865
0.048190 -0.043262 0.002441
0.048804 -0.044063 0.006569
0.049957 -0.045034 0.005529
0.048791 -0.047115 0.003339
0.052480 -0.045155 0.004491
0.052330 -0.045708 0.005336
0.048424 -0.045230 0.005818
0.050257 -0.046868 0.005589
0.051173 -0.047710 0.003701
0.051444 -0.043646 0.005747
0.048031 -0.046606 0.005708
0.049063 -0.043229 0.003353
0.048404 -0.045812 0.007190
0.049036 -0.043674 0.001102
0.049992 -0.048156 0.005553
0.052464 -0.046711 0.004209
0.049042 -0.046595 0.001797
0.052094 -0.044766 0.005854
0.051328 -0.045789 0.003713
0.049132 -0.045914 0.005410
0.049150 -0.047129 0.005423
0.048656 -0.047375 0.001105
0.052401 -0.043651 0.005434
0.048390 -0.044867 0.003261
0.049712 -0.047598 0.003479
0.051012 -0.045000 0.005690
0.048549 -0.046101 0.003297
0.048883 -0.044363 0.005364
0.048380 -0.044789 0.007103
0.032924 -0.041252 0.004658
0.032366 -0.040522 0.001529
0.032520 -0.040138 0.003646
0.032294 -0.041589 0.001670
0.032400 -0.041464 0.003394
0.032334 -0.039901 0.002642
0.032640 -0.042833 0.000467
0.032626 -0.039587 0.000771
0.032659 -0.041322 0.000561
0.032281 -0.041029 0.002503
0.032847 -0.038280 0.004277
0.032437 -0.042704 0.003721
0.032211 -0.042656 0.002363
0.032453 -0.038566 0.003140
0.032361 -0.038430 0.001964
0.032778 -0.039343 0.004226
0.033721 -0.041171 0.003479
0.037826 -0.040884 0.006661
0.037546 -0.038568 0.004635
0.034034 -0.042724 0.000526
0.037928 -0.042776 -0.000098
0.034440 -0.040191 -0.001485
0.034177 -0.039404 0.001017
0.033753 -0.041676 0.001052
0.037959 -0.038988 0.000387
0.036611 -0.040016 -0.000252
0.035101 -0.040133 -0.000326
0.035389 -0.039843 -0.001895
0.034514 -0.041159 0.000456
0.033562 -0.038828 0.002185
0.037911 -0.043134 -0.001640
0.035274 -0.040545 0.006432
0.035222 -0.038468 -0.000011
0.036955 -0.042764 0.006656
0.037472 -0.040638 -0.001813
0.037176 -0.041656 -0.001866
0.033319 -0.040141 0.005143
0.035918 -0.042108 -0.001960
0.033464 -0.041495 0.002312
0.037407 -0.040912 0.004672
0.036915 -0.041688 0.006657
0.034481 -0.040703 0.004200
0.036201 -0.040479 -0.001973
0.034144 -0.041859 0.005938
0.035078 -0.038860 0.004914
0.033574 -0.039802 0.002770
0.036983 -0.038924 0.006652
0.034988 -0.042416 0.004655
0.034196 -0.042356 0.004001
0.034755 -0.042573 -0.000150
0.033728 -0.042748 0.002088
0.034736 -0.041333 -0.001638
0.033595 -0.038600 -0.000707
0.037508 -0.042509 0.004541
0.034298 -0.040743 0.006003
0.036309 -0.042891 0.004935
0.036826 -0.038851 -0.000542
0.035186 -0.041261 0.004714
0.033446 -0.041957 -0.000686
0.037400 -0.039461 -0.001841
0.035757 -0.039587 0.004900
0.033460 -0.042463 0.005397
0.035861 -0.038965 -0.001945
0.033944 -0.040528 0.001467
0.035957 -0.042712 0.006619
0.036317 -0.040893 0.005278
0.034776 -0.038849 -0.001614
0.035926 -0.041522 -0.000613
0.036267 -0.040568 0.006650
0.036970 -0.041442 -0.000142
0.033740 -0.040951 -0.000937
0.034212 -0.038572 0.005899
0.035952 -0.042605 -0.000306
0.034721 -0.039831 0.004720
0.037217 -0.039613 0.004761
0.034531 -0.039610 0.006116
0.037052 -0.041935 0.005288
0.034419 -0.042831 0.006129
0.035184 -0.041997 0.006424
0.035632 -0.039602 0.006509
0.033663 -0.039882 -0.000839
0.033775 -0.042231 0.002983
0.033012 -0.040588 -0.000053
0.034901 -0.042342 -0.001730
0.034465 -0.038960 0.004128
0.033110 -0.039469 -0.000121
0.033890 -0.039778 0.003735
0.036812 -0.042912 -0.001920
0.035774 -0.039347 -0.000229
0.037841 -0.040185 0.005296
0.033403 -0.039038 0.005186
0.034574 -0.039376 0.000068
0.038254 -0.041252 0.005304
0.038742 -0.042193 0.000481
0.039604 -0.039569 0.001029
0.039324 -0.040338 -0.000785
0.039073 -0.039623 0.003852
0.041852 -0.042837 0.000580
0.041152 -0.043133 0.004189
0.040103 -0.041064 0.006673
0.038308 -0.042810 0.005307
0.040939 -0.041496 0.000279
0.041351 -0.041335 0.006680
0.039284 -0.039764 0.006668
0.038655 -0.041296 0.001770
0.039264 -0.041542 -0.000794
0.039833 -0.038209 0.005323
0.038379 -0.040087 0.000117
0.040641 -0.038238 0.004081
0.040834 -0.042015 0.004135
0.041909 -0.038956 0.004277
0.039260 -0.043187 -0.000739
0.042100 -0.039724 0.005357
0.038178 -0.041820 -0.001552
0.040951 -0.038283 0.000235
0.041759 -0.040966 0.000532
0.038101 -0.041318 0.003880
0.041031 -0.043000 0.001682
0.042263 -0.040724 0.006685
0.042128 -0.042726 0.002304
0.039919 -0.042456 0.006674
0.038563 -0.039377 0.005308
0.041937 -0.042235 0.006684
0.038554 -0.039205 0.001170
0.040026 -0.040720 0.001973
0.041577 -0.041023 0.001824
0.039017 -0.040707 0.003851
0.040098 -0.043055 0.004029
0.042639 -0.041226 0.002092
0.038119 -0.039999 0.003955
0.040598 -0.042911 0.000167
0.038009 -0.039857 0.006660
0.040059 -0.040447 0.004009
0.040691 -0.039503 0.001505
0.042525 -0.040915 0.004384
0.038287 -0.042552 0.003751
0.038501 -0.042673 0.001650
0.041718 -0.039938 0.004255
0.042016 -0.041825 0.005358
0.040159 -0.042213 0.001336
0.039363 -0.038518 0.000871
0.039916 -0.040623 0.005326
0.040232 -0.039155 0.004026
0.038398 -0.040788 -0.001458
0.041042 -0.039623 0.000292
0.040260 -0.042880 0.005331
0.039037 -0.041926 0.005318
0.041125 -0.041016 0.004173
0.042898 -0.041051 0.005368
0.040114 -0.038623 0.001972
0.038398 -0.038720 -0.001503
0.042598 -0.039535 0.006687
0.040061 -0.040665 -0.000186
0.038258 -0.038520 0.006663
0.039667 -0.041811 0.003957
0.040693 -0.041744 0.002080
0.039822 -0.038728 0.006669
0.038670 -0.038625 0.003786
0.040875 -0.042731 0.006679
0.041318 -0.038378 0.002157
0.042119 -0.039762 0.000624
0.038621 -0.042259 0.006663
0.041809 -0.038712 0.000518
0.040818 -0.039456 0.006679
0.039785 -0.042263 -0.000325
0.038607 -0.040293 0.001706
0.039750 -0.039366 -0.000456
0.041995 -0.042567 0.004312
0.041080 -0.041078 0.005344
0.039763 -0.039220 0.005323
0.042896 -0.041635 0.000838
0.042304 -0.039500 0.001999
0.041037 -0.042244 0.005343
0.042316 -0.038402 0.006687
0.042299 -0.038686 0.005358
0.041038 -0.038399 0.005342
0.038818 -0.040658 0.006665
0.039392 -0.041463 0.000952
0.041048 -0.039887 0.005340
0.038193 -0.041177 0.000722
0.047279 -0.038275 0.002474
0.043121 -0.041478 0.006690
0.047295 -0.042116 0.005112
0.046262 -0.038458 0.006717
0.045607 -0.042789 0.002829
0.047981 -0.041544 0.005634
0.044514 -0.039029 0.001047
0.047295 -0.038669 0.006749
0.044888 -0.041332 0.004741
0.044596 -0.041791 0.001071
0.045236 -0.042412 0.004800
0.047222 -0.039202 0.001165
0.046881 -0.042759 0.002482
0.047048 -0.040924 0.003035
0.046225 -0.042125 0.005421
0.047198 -0.040466 0.006752
0.046612 -0.041196 0.005427
0.043708 -0.039407 0.002522
0.047267 -0.041368 0.001160
0.043862 -0.040564 0.000975
0.047945 -0.042690 0.001135
0.045202 -0.042591 0.006702
0.046097 -0.039635 0.004915
0.043206 -0.041996 0.004495
0.045411 -0.040299 0.005403
0.043461 -0.038408 0.002223
0.046823 -0.041771 0.006741
0.044967 -0.040985 0.002420
0.044641 -0.041314 0.006699
0.045823 -0.041043 0.006708
0.047691 -0.038311 0.001149
0.046544 -0.040590 0.001185
0.043181 -0.039619 0.000870
0.046209 -0.040364 0.002490
0.047233 -0.039519 0.005084
0.044876 -0.039272 0.004728
0.047993 -0.041574 0.002448
0.043748 -0.039122 0.006693
0.047746 -0.039190 0.002460
0.046155 -0.040003 0.006717
0.045704 -0.038602 0.002469
0.046362 -0.041894 0.001187
0.044144 -0.039489 0.005386
0.043061 -0.042940 0.005372
0.044506 -0.042801 0.002382
0.045429 -0.040952 0.001149
0.043894 -0.041011 0.002301
0.044220 -0.042447 0.004649
0.044550 -0.043049 0.001074
0.047774 -0.039617 0.006819
0.045607 -0.042810 0.001174
0.045181 -0.039965 0.002432
0.043707 -0.042082 0.002540
0.044144 -0.041757 0.005387
0.043432 -0.038676 0.005376
0.046930 -0.039448 0.003012
0.047670 -0.042711 0.003142
0.047578 -0.040378 0.001149
0.044465 -0.038472 0.002629
0.043374 -0.040479 0.006691
0.044962 -0.039754 0.006701
0.046325 -0.041703 0.002488
0.043049 -0.040165 0.002160
0.045451 -0.039754 0.001147
0.047023 -0.043175 0.006749
0.043520 -0.043003 0.000949
0.047767 -0.043101 0.005188
0.044609 -0.040295 0.004692
0.043998 -0.042591 0.006698
0.043084 -0.038219 0.004450
0.043237 -0.039251 0.004478
0.043162 -0.038605 0.000861
0.043346 -0.040322 0.004504
0.043879 -0.040584 0.005383
0.046668 -0.042944 0.005025
0.050657 -0.038494 0.005595
0.050413 -0.041569 0.005581
0.048504 -0.039092 0.005275
0.049477 -0.039826 0.005429
0.050539 -0.040456 0.005589
0.049027 -0.040118 0.006423
0.049249 -0.042239 0.001122
0.048090 -0.040278 0.002445
0.049482 -0.042610 0.005444
0.052051 -0.042756 0.005832
0.051051 -0.042515 0.005681
0.051503 -0.042964 0.003721
0.049618 -0.042249 0.003432
0.052572 -0.039524 0.005390
0.048029 -0.043022 0.006911
0.051672 -0.038494 0.003719
0.051441 -0.041453 0.005733
0.050156 -0.040409 0.003504
0.048645 -0.041065 0.001116
0.049373 -0.038773 0.001441
0.052754 -0.038337 0.004493
0.048720 -0.038557 0.007224
0.052139 -0.040698 0.003804
0.048064 -0.040566 0.005218
0.048730 -0.039568 0.001113
0.051487 -0.039303 0.005727
0.049219 -0.038786 0.006115
0.052166 -0.041873 0.003815
0.050717 -0.041352 0.003594
0.048461 -0.040706 0.007045
0.052033 -0.040620 0.005817
0.049026 -0.041856 0.006276
0.052780 -0.039689 0.003965
0.048889 -0.041166 0.005347
0.049303 -0.040097 0.001754
0.048159 -0.041784 0.006931
0.049142 -0.042698 0.002402
0.050353 -0.038647 0.003524
0.051230 -0.039486 0.003660
0.052591 -0.040550 0.004979
0.049449 -0.041161 0.003400
0.048438 -0.039572 0.003237
0.049244 -0.041145 0.002050
0.048443 -0.041185 0.003249
0.048875 -0.038496 0.002421
0.052565 -0.042568 0.004620
0.049476 -0.039308 0.003392
0.052541 -0.041650 0.005036
0.032431 -0.036756 0.002022
0.032607 -0.036151 0.001228
0.032484 -0.036943 0.003012
0.032811 -0.037905 0.000523
0.032924 -0.037040 0.004333
0.032589 -0.034972 0.003113
0.032893 -0.034860 0.000609
0.032573 -0.033439 0.002227
0.032660 -0.035932 0.003537
0.032791 -0.033323 0.003637
0.032747 -0.033704 0.001029
0.032504 -0.034993 0.001933
0.032904 -0.034900 0.004124
0.036804 -0.033951 -0.001985
0.036012 -0.033556 0.005186
0.033189 -0.036617 -0.000079
0.034562 -0.037484 0.006084
0.036073 -0.037027 -0.000613
0.033826 -0.036297 0.005531
0.033728 -0.033514 -0.000615
0.037124 -0.034216 0.004863
0.034128 -0.035098 0.003813
0.036996 -0.036109 0.006653
0.035715 -0.034748 -0.001925
0.034527 -0.033255 0.003971
0.037511 -0.034501 -0.000407
0.033994 -0.035784 0.002177
0.034939 -0.034028 0.004710
0.035639 -0.033417 0.006451
0.035248 -0.036374 -0.000325
0.036166 -0.036377 0.005237
0.034420 -0.034029 -0.001270
0.034652 -0.037203 0.000079
0.033078 -0.035929 0.004545
0.036264 -0.035372 0.006622
0.036042 -0.034769 -0.000615
0.036359 -0.038082 0.004935
0.033850 -0.035011 0.001430
0.035384 -0.033435 0.000011
0.037382 -0.034704 0.006656
0.037452 -0.037737 0.006656
0.035026 -0.034691 0.006293
0.034775 -0.034272 0.000068
0.034242 -0.036313 0.003736
0.035156 -0.036150 -0.001733
0.034636 -0.035332 0.000177
0.034690 -0.033552 0.006066
0.033922 -0.036908 0.001095
0.033936 -0.035695 -0.000930
0.033535 -0.037535 0.005263
0.034622 -0.036296 0.000566
0.037948 -0.036949 -0.001710
0.035220 -0.036746 0.004943
0.036300 -0.033797 -0.000307
0.036997 -0.035451 -0.000536
0.034373 -0.037843 0.000799
0.035332 -0.035415 0.004678
0.035389 -0.033705 -0.001790
0.033754 -0.033808 0.005339
0.033814 -0.036698 -0.000862
0.037695 -0.038037 -0.001779
0.036542 -0.037893 -0.000269
0.036269 -0.037114 0.006640
0.035359 -0.037777 0.004725
0.033159 -0.034033 0.004547
0.037943 -0.036035 0.004402
0.033599 -0.034923 0.005219
0.034480 -0.035610 0.005992
0.037470 -0.035766 0.005287
0.037273 -0.036467 -0.000099
0.033684 -0.036951 0.002754
0.037649 -0.033645 0.006655
0.035263 -0.036149 0.006386
0.034729 -0.035187 -0.001530
0.036353 -0.036254 -0.001974
0.033867 -0.034319 0.003108
0.034069 -0.033386 0.002332
0.037085 -0.036848 0.005283
0.035169 -0.037328 -0.001757
0.037806 -0.034477 -0.001787
0.033894 -0.033890 0.001426
0.033995 -0.038041 0.003226
0.033406 -0.034683 -0.000258
0.037081 -0.035554 -0.001923
0.035549 -0.037886 0.006474
0.034306 -0.037743 0.004253
0.037749 -0.037463 0.004509
0.036685 -0.037819 -0.001978
0.034230 -0.037677 -0.001232
0.036016 -0.034642 0.005195
0.037664 -0.037617 -0.000315
0.033973 -0.037983 0.001711
0.036034 -0.035823 -0.000611
0.040300 -0.035968 0.005331
0.038499 -0.034263 0.006660
0.038709 -0.037687 0.001698
0.038233 -0.035625 -0.001635
0.039959 -0.034499 0.003956
0.038566 -0.037547 0.003763
0.038558 -0.035170 0.003749
0.042912 -0.036990 0.004418
0.041496 -0.034801 0.006680
0.038317 -0.035269 0.006660
0.041540 -0.037538 0.005347
0.038922 -0.036227 0.001777
0.039836 -0.036976 -0.000462
0.038562 -0.036957 0.000161
0.040431 -0.034739 -0.000097
0.039952 -0.033924 -0.000469
0.041718 -0.037243 0.004238
0.040251 -0.034047 0.006670
0.039052 -0.034072 0.003816
0.042329 -0.034429 0.002284
0.042438 -0.034099 0.005360
0.042317 -0.035285 0.000630
0.040455 -0.037398 0.005333
0.040901 -0.036567 0.002083
0.042091 -0.034029 0.000545
0.039652 -0.038079 -0.000578
0.042687 -0.035954 0.006684
0.040762 -0.034491 0.001456
0.039901 -0.033941 0.001058
0.038851 -0.036485 0.003801
0.038758 -0.034289 0.005305
0.038799 -0.035092 0.001630
0.041932 -0.037356 0.006683
0.039138 -0.036899 0.005314
0.038580 -0.033737 -0.001508
0.040461 -0.033899 0.005330
0.040682 -0.035488 0.004070
0.041172 -0.033759 0.002103
0.038292 -0.034082 0.000495
0.039716 -0.036069 0.006670
0.040689 -0.035384 0.006672
0.040997 -0.037139 0.000235
0.038153 -0.034309 0.004289
0.039739 -0.035045 0.006666
0.038602 -0.038176 0.005306
0.038892 -0.035538 0.005311
0.040714 -0.037550 0.001482
0.038941 -0.036961 -0.001217
0.038498 -0.035688 0.000070
0.041490 -0.036148 0.005345
0.039892 -0.034777 0.005323
0.041921 -0.037457 0.000534
0.039697 -0.034943 0.000978
0.038186 -0.036808 0.006661
0.039351 -0.036752 0.000825
0.041035 -0.038101 0.006677
0.039800 -0.036065 0.003941
0.042099 -0.034564 0.004281
0.041431 -0.033468 0.004171
0.041124 -0.035273 0.002104
0.039225 -0.035878 -0.001032
0.039605 -0.037188 0.001889
0.042347 -0.036433 0.001978
0.041620 -0.036117 0.004218
0.038143 -0.036695 0.005298
0.040568 -0.037041 0.004063
0.039517 -0.038069 0.003912
0.039819 -0.034529 0.001906
0.041896 -0.035215 0.005351
0.039235 -0.034704 -0.001059
0.038657 -0.038143 0.000272
0.042575 -0.036091 0.005361
0.040201 -0.036302 0.001248
0.040624 -0.035769 0.000032
0.042403 -0.037693 0.002317
0.042349 -0.036521 0.000654
0.042946 -0.037322 0.000816
0.042265 -0.035392 0.001949
0.040162 -0.033525 0.003980
0.039878 -0.035566 0.001921
0.039485 -0.037673 0.006669
0.041643 -0.036223 0.006681
0.042797 -0.035863 0.004394
0.040741 -0.036786 0.006677
0.041062 -0.034426 0.004121
0.045011 -0.035638 0.002405
0.044831 -0.036942 0.002676
0.045610 -0.037195 0.001154
0.046111 -0.035215 0.006709
0.044086 -0.033542 0.002541
0.044878 -0.036461 0.001076
0.044183 -0.033284 0.004584
0.045532 -0.033390 0.004790
0.045701 -0.038055 0.004846
0.047481 -0.034442 0.003063
0.045741 -0.037364 0.006706
0.046550 -0.033404 0.002913
0.046940 -0.036475 0.005431
0.047790 -0.036127 0.002460
0.047422 -0.035014 0.005085
0.043141 -0.037405 0.005372
0.044459 -0.036931 0.004652
0.046423 -0.036158 0.001193
0.047586 -0.034539 0.001159
0.045081 -0.033220 0.001085
0.046482 -0.034249 0.006720
0.045523 -0.035518 0.001139
0.043181 -0.034692 0.004440
0.046497 -0.036160 0.006721
0.043889 -0.036559 0.000961
0.045585 -0.033665 0.006702
0.045831 -0.038181 0.001180
0.047683 -0.036340 0.006782
0.045725 -0.035248 0.005406
0.046956 -0.037474 0.003000
0.046910 -0.038050 0.005431
0.044599 -0.037962 0.001052
0.043376 -0.033416 0.005372
0.046642 -0.034107 0.001190
0.044674 -0.035198 0.004670
0.044079 -0.035894 0.005383
0.047628 -0.033567 0.002468
0.046751 -0.035510 0.002485
0.047108 -0.036897 0.001169
0.046148 -0.036113 0.004901
0.044608 -0.034415 0.006696
0.043577 -0.034419 0.000900
0.047660 -0.035985 0.001153
0.044584 -0.035001 0.001037
0.044971 -0.034482 0.005394
0.046729 -0.033679 0.005421
0.047398 -0.035355 0.006748
0.043295 -0.037138 0.006689
0.045518 -0.034456 0.002441
0.043865 -0.034631 0.002517
0.047002 -0.036454 0.003002
0.047737 -0.034057 0.006779
0.047074 -0.037381 0.006742
0.043964 -0.035636 0.006693
0.043072 -0.034655 0.006686
0.043619 -0.037086 0.002494
0.046008 -0.037010 0.002854
0.044828 -0.037774 0.006699
0.047905 -0.033578 0.001146
0.044276 -0.037933 0.005384
0.044967 -0.035442 0.006699
0.043180 -0.035299 0.005371
0.043421 -0.035598 0.000883
0.045194 -0.033393 0.002410
0.043452 -0.035656 0.002463
0.046427 -0.034536 0.004930
0.043793 -0.034439 0.005374
0.043446 -0.038153 0.006692
0.043670 -0.033477 0.006690
0.046032 -0.037287 0.005410
0.044558 -0.036597 0.006695
0.045218 -0.036225 0.005397
0.046620 -0.035168 0.001189
0.052812 -0.037334 0.004368
0.051293 -0.035950 0.005677
0.048857 -0.036154 0.002421
0.048006 -0.037318 0.005592
0.048699 -0.037447 0.001119
0.050195 -0.033782 0.005496
0.050947 -0.034488 0.005613
0.052107 -0.036425 0.003775
0.048319 -0.034520 0.005218
0.051624 -0.038066 0.005740
0.049363 -0.038000 0.005399
0.051254 -0.037224 0.003649
0.048544 -0.037557 0.007023
0.049998 -0.036538 0.003453
0.052836 -0.033703 0.005181
0.048836 -0.034545 0.002427
0.048609 -0.036382 0.001121
0.048158 -0.037461 0.002448
0.052747 -0.035074 0.005395
0.050247 -0.037614 0.003501
0.052701 -0.033259 0.003842
0.050313 -0.037543 0.005538
0.050866 -0.033821 0.003567
0.052650 -0.037355 0.005450
0.049392 -0.033685 0.006185
0.052647 -0.036381 0.005716
0.049289 -0.037115 0.006110
0.052836 -0.036044 0.004563
0.049963 -0.035152 0.005473
0.050388 -0.035576 0.003509
0.052110 -0.035371 0.003768
0.052034 -0.033667 0.005774
0.049194 -0.037423 0.002409
0.048620 -0.034813 0.007006
0.049497 -0.034567 0.003370
0.049541 -0.034352 0.001626
0.048702 -0.034700 0.001122
0.049040 -0.035051 0.005898
0.051874 -0.034348 0.003726
0.048518 -0.036245 0.005730
0.048721 -0.035979 0.007088
0.049711 -0.036349 0.005440
0.049336 -0.035635 0.003347
0.048784 -0.037961 0.003279
0.048733 -0.033840 0.003248
0.051263 -0.036994 0.005678
0.048283 -0.036601 0.003197
0.049502 -0.035548 0.001487
0.053006 -0.034256 0.003917
0.032715 -0.030605 0.002909
0.032814 -0.029165 0.003084
0.032778 -0.030407 0.001509
0.032617 -0.032219 0.001923
0.032735 -0.029371 0.001893
0.032725 -0.031579 0.003112
0.032982 -0.031284 0.000718
0.032910 -0.032378 0.003941
0.037150 -0.029660 0.004916
0.037735 -0.029949 0.006655
0.033207 -0.028610 0.000474
0.037683 -0.032919 0.004691
0.034598 -0.032273 0.005979
0.037226 -0.029278 -0.001945
0.036443 -0.031721 -0.000615
0.036225 -0.032717 -0.001956
0.037495 -0.032728 -0.001874
0.036178 -0.029187 0.006539
0.034522 -0.028589 0.005843
0.034259 -0.031335 0.001584
0.037850 -0.029846 -0.001206
0.035956 -0.030895 0.005155
0.035312 -0.031771 -0.000243
0.037749 -0.031558 0.006655
0.036149 -0.031210 -0.002656
0.037103 -0.030733 -0.001645
0.034006 -0.029040 0.002786
0.035761 -0.030931 0.006457
0.033920 -0.031185 0.002803
0.033926 -0.030127 0.005369
0.034153 -0.032292 0.002746
0.034252 -0.030220 0.001934
0.033404 -0.032258 0.004883
0.035887 -0.032317 0.005154
0.037004 -0.031694 -0.001965
0.036532 -0.028744 -0.000307
0.034326 -0.030280 0.000832
0.035338 -0.028759 0.004837
0.037629 -0.031880 -0.000403
0.035433 -0.028461 0.006354
0.034502 -0.028384 0.003567
0.036048 -0.029809 0.005162
0.033513 -0.031003 0.004950
0.033020 -0.030702 0.004020
0.037262 -0.028680 -0.002826
0.034486 -0.028827 0.001291
0.033494 -0.029096 0.004813
0.033033 -0.032899 0.000479
0.035608 -0.032192 0.006431
0.033604 -0.030657 -0.000306
0.034207 -0.031272 0.005719
0.036553 -0.033015 0.006649
0.034316 -0.030814 0.003841
0.035058 -0.030035 0.004666
0.037412 -0.032104 0.005287
0.033952 -0.032203 -0.000831
0.037678 -0.030655 -0.000403
0.037378 -0.028478 0.005284
0.034523 -0.032886 0.000416
0.035012 -0.029523 0.000417
0.036928 -0.030918 0.006651
0.035225 -0.032464 -0.001700
0.034363 -0.031769 0.000645
0.033636 -0.029311 -0.000280
0.037244 -0.029076 0.006652
0.036160 -0.030377 -0.001943
0.036454 -0.028876 0.004935
0.037101 -0.032853 -0.000536
0.037013 -0.029841 -0.000584
0.036337 -0.030614 -0.000617
0.036714 -0.032003 0.006650
0.033933 -0.032472 0.001530
0.035318 -0.029856 0.006337
0.033993 -0.028211 0.002236
0.035025 -0.031723 0.004703
0.034794 -0.029204 0.004067
0.033128 -0.029914 0.000527
0.037977 -0.028455 -0.001005
0.036973 -0.030952 0.004933
0.034716 -0.031253 -0.001418
0.037899 -0.030138 -0.002199
0.034178 -0.029751 0.003477
0.035184 -0.032980 0.004847
0.034396 -0.031931 0.003670
0.040184 -0.032911 0.006671
0.042168 -0.028381 0.004252
0.040538 -0.030963 -0.000697
0.038433 -0.028831 0.005299
0.038423 -0.028432 0.004263
0.042806 -0.030467 -0.000230
0.041703 -0.032630 0.002177
0.040431 -0.030881 0.005329
0.039138 -0.029844 0.006660
0.042325 -0.033137 0.006681
0.042846 -0.031823 0.000738
0.039168 -0.029891 0.001778
0.038932 -0.031788 0.000286
0.038441 -0.031413 0.003997
0.039155 -0.030140 0.000411
0.038335 -0.028509 0.000347
0.042042 -0.029604 0.000480
0.042162 -0.031627 0.001887
0.040573 -0.031398 0.004029
0.039136 -0.033050 0.003821
0.039842 -0.031422 0.000976
0.039059 -0.028885 0.001689
0.039582 -0.031966 -0.000853
0.040594 -0.031824 0.006672
0.039801 -0.032111 0.005317
0.039929 -0.032306 0.003937
0.041425 -0.031646 0.000311
0.041918 -0.028561 0.001776
0.042448 -0.031984 0.004315
0.038597 -0.031975 -0.001539
0.040996 -0.032981 0.000166
0.042405 -0.031572 0.006684
0.041992 -0.032899 0.000505
0.040011 -0.030238 0.001039
0.040601 -0.029976 -0.000114
0.038785 -0.030639 -0.001035
0.040391 -0.029593 0.006671
0.038944 -0.031284 0.006664
0.042031 -0.028549 0.000466
0.042508 -0.032654 0.005357
0.038898 -0.030986 0.001273
0.038862 -0.033112 0.001539
0.041165 -0.033195 0.006677
0.042535 -0.029812 0.004315
0.038657 -0.032721 0.006663
0.038431 -0.029921 0.004140
0.041856 -0.030855 0.004218
0.041369 -0.029142 0.005338
0.041246 -0.032245 0.004137
0.041538 -0.032977 0.005344
0.039407 -0.033194 -0.000969
0.038505 -0.029201 -0.002064
0.039887 -0.030872 0.001893
0.039797 -0.032064 0.001888
0.041736 -0.030053 0.006678
0.042574 -0.030272 0.005356
0.038036 -0.031104 -0.001834
0.038917 -0.030624 0.005305
0.039658 -0.028441 0.006666
0.042359 -0.030947 0.000586
0.040415 -0.032965 0.001984
0.041527 -0.031006 -0.000495
0.042087 -0.030434 0.001849
0.039624 -0.029764 -0.000733
0.039297 -0.033125 0.005312
0.040532 -0.032089 -0.000100
0.040104 -0.028520 0.001053
0.042949 -0.032704 0.002365
0.042682 -0.033071 0.004357
0.041146 -0.030850 0.002082
0.040282 -0.030650 0.006668
0.038992 -0.028484 -0.000734
0.041452 -0.030397 0.000304
0.039377 -0.030602 0.003844
0.041492 -0.029525 -0.000832
0.038353 -0.032702 0.000502
0.038409 -0.028826 0.006661
0.040130 -0.029089 -0.001372
0.041435 -0.029358 0.004146
0.039346 -0.028364 0.005310
0.040963 -0.029708 0.001461
0.040364 -0.030315 0.003988
0.041097 -0.028986 0.000135
0.040420 -0.029039 0.003991
0.040850 -0.028598 0.002022
0.038369 -0.032391 0.005299
0.042817 -0.029176 -0.000349
0.040170 -0.028652 -0.000459
0.040845 -0.031864 0.001449
0.042089 -0.031209 0.005350
0.038306 -0.029893 -0.000176
0.039332 -0.032849 0.000685
0.041393 -0.031113 0.006675
0.042923 -0.028845 0.005361
0.041066 -0.031723 0.005338
0.042578 -0.029645 0.002292
0.038037 -0.031204 0.005292
0.039198 -0.029031 0.003808
0.039694 -0.029477 0.005315
0.042095 -0.028370 0.006680
0.039216 -0.029092 0.000430
0.038866 -0.032110 0.001340
0.041360 -0.029052 0.006677
0.038586 -0.030892 0.000006
0.038086 -0.029895 0.005293
0.044667 -0.030246 0.005385
0.046734 -0.030964 0.006721
0.047962 -0.029228 0.005132
0.047150 -0.031549 0.002994
0.045682 -0.031240 0.006702
0.043140 -0.028520 0.006687
0.046061 -0.030593 0.001169
0.044305 -0.029078 0.006692
0.047510 -0.029294 0.006744
0.043223 -0.029746 0.006685
0.046645 -0.030865 0.005419
0.046455 -0.029353 0.006712
0.045797 -0.032435 0.006705
0.046610 -0.029516 0.002485
0.047879 -0.032596 0.002465
0.046774 -0.032009 0.001185
0.045934 -0.029192 0.001151
0.047061 -0.029562 0.005425
0.045263 -0.029539 0.002402
0.044383 -0.030995 0.006693
0.047176 -0.029225 0.001178
0.044211 -0.029895 0.002538
0.047577 -0.030311 0.001160
0.043671 -0.033034 0.000905
0.044504 -0.032774 0.006696
0.044359 -0.031340 0.002312
0.045332 -0.028551 0.006699
0.046388 -0.032475 0.005412
0.047458 -0.031565 0.005437
0.045169 -0.029893 0.006699
0.043710 -0.028861 0.002457
0.043265 -0.031196 0.004434
0.047892 -0.029455 0.002466
0.047392 -0.030589 0.002478
0.043859 -0.028477 0.004508
0.044061 -0.032314 0.002531
0.046630 -0.033048 0.006723
0.044436 -0.028263 0.000985
0.045272 -0.031956 0.002413
0.045211 -0.032115 0.005396
0.046263 -0.033018 0.001197
0.047863 -0.030479 0.006775
0.043331 -0.030668 0.000837
0.044287 -0.031663 0.004590
0.044164 -0.032410 0.005381
0.045561 -0.032024 0.001129
0.045776 -0.031506 0.004816
0.045339 -0.030620 0.002413
0.043947 -0.029724 0.000929
0.046403 -0.028325 0.006707
0.047757 -0.031292 0.001155
0.045983 -0.028630 0.004828
0.043940 -0.029216 0.005373
0.046803 -0.028393 0.005419
0.043470 -0.032037 0.006688
0.047939 -0.032899 0.006800
0.046364 -0.030053 0.004895
0.043457 -0.030734 0.002429
0.046280 -0.031747 0.002479
0.044869 -0.028421 0.002631
0.045286 -0.029701 0.004732
0.044668 -0.031000 0.001028
0.043453 -0.031586 0.005370
0.045107 -0.028466 0.005392
0.047600 -0.032753 0.005100
0.047360 -0.028368 0.003005
0.043830 -0.029880 0.004510
0.043278 -0.028510 0.000812
0.043325 -0.030872 0.006688
0.044130 -0.031947 0.000965
0.046924 -0.032002 0.006730
0.046465 -0.030661 0.002882
0.043613 -0.030514 0.005372
0.043252 -0.031734 0.002137
0.045181 -0.030066 0.001079
0.047966 -0.031697 0.006798
0.043453 -0.032443 0.004471
0.052374 -0.032116 0.005816
0.048766 -0.028456 0.003220
0.048968 -0.030306 0.007115
0.049739 -0.030023 0.003374
0.051986 -0.030776 0.005751
0.052914 -0.032411 0.004999
0.049320 -0.031615 0.006525
0.050190 -0.029893 0.005472
0.049476 -0.030894 0.002408
0.048688 -0.030178 0.003219
0.048895 -0.029439 0.001122
0.049474 -0.028537 0.002407
0.052277 -0.028794 0.003752
0.049059 -0.033186 0.001109
0.050442 -0.028716 0.005505
0.052819 -0.030215 0.005871
0.049620 -0.032356 0.001638
0.048463 -0.031690 0.002445
0.052680 -0.030423 0.003823
0.048627 -0.030719 0.005242
0.049311 -0.032387 0.005356
0.051111 -0.033102 0.005630
0.048938 -0.032999 0.007220
0.049320 -0.028419 0.001107
0.048493 -0.032167 0.001130
0.050937 -0.028270 0.003543
0.049181 -0.031377 0.001108
0.051341 -0.030530 0.003620
0.051181 -0.032446 0.003606
0.052227 -0.028313 0.005770
0.049916 -0.031567 0.003411
0.049938 -0.031294 0.005441
0.049163 -0.029352 0.005314
0.049730 -0.029376 0.001807
0.050951 -0.031709 0.005600
0.051590 -0.029595 0.005681
0.049720 -0.028221 0.003361
0.049506 -0.030476 0.006209
0.048251 -0.028231 0.001143
0.049364 -0.032957 0.002407
0.051580 -0.031501 0.003664
0.050167 -0.032667 0.003457
0.048771 -0.032543 0.003244
0.049045 -0.029166 0.007156
0.052949 -0.031390 0.005039
0.048470 -0.031811 0.005223
0.050625 -0.029218 0.003505
0.048866 -0.031255 0.003252
0.048535 -0.032959 0.005688
0.049570 -0.028629 0.006236
0.049621 -0.030188 0.001096
0.048580 -0.028609 0.005656
0.050867 -0.030631 0.005579
0.053105 -0.031755 0.003896
0.053027 -0.029053 0.005121
0.053021 -0.030251 0.004869
0.032952 -0.026327 0.003173
0.032848 -0.026789 0.001849
0.032950 -0.027855 0.001174
0.032789 -0.028010 0.002188
0.032907 -0.025787 0.001764
0.032924 -0.024629 0.002204
0.032888 -0.028006 0.003185
0.037371 -0.024135 0.004915
0.034073 -0.027121 0.002688
0.037838 -0.023764 -0.003123
0.037730 -0.026624 -0.001752
0.034311 -0.027560 0.005677
0.035077 -0.026337 0.000088
0.037643 -0.023586 0.006653
0.033169 -0.027647 0.004074
0.034525 -0.025011 0.001554
0.033660 -0.026600 0.004916
0.037885 -0.027474 0.005288
0.036423 -0.027235 -0.001956
0.034399 -0.027503 0.000904
0.034376 -0.024785 -0.001556
0.036160 -0.023282 0.005133
0.036394 -0.023280 -0.001944
0.037749 -0.027553 -0.000419
0.033634 -0.027751 -0.000196
0.035008 -0.025324 -0.002307
0.034671 -0.025411 0.000583
0.037460 -0.026516 -0.000514
0.033583 -0.023943 0.004590
0.037059 -0.025895 0.006648
0.034393 -0.025781 0.003640
0.033359 -0.023955 0.000544
0.034498 -0.027138 -0.001809
0.037073 -0.028024 0.006651
0.035472 -0.023843 -0.001197
0.037528 -0.026901 -0.002940
0.033278 -0.026900 0.000469
0.035459 -0.027277 0.000130
0.036019 -0.025790 0.006467
0.033266 -0.025878 0.000579
0.035958 -0.024355 0.006441
0.036022 -0.027306 0.006485
0.037192 -0.025517 -0.000953
0.035768 -0.024176 0.004672
0.036879 -0.023376 -0.000298
0.035808 -0.026067 0.004716
0.036849 -0.024557 -0.000294
0.033076 -0.024925 0.001130
0.036157 -0.025245 -0.001930
0.034504 -0.023199 0.005700
0.034680 -0.026013 0.005877
0.033396 -0.025773 0.004363
0.037981 -0.026701 0.006656
0.035274 -0.026357 -0.001482
0.035166 -0.025423 0.004269
0.034373 -0.027059 0.003698
0.034966 -0.024421 0.006009
0.037336 -0.028109 -0.001933
0.035383 -0.025098 -0.000105
0.036662 -0.027751 -0.000298
0.036884 -0.026043 -0.001812
0.034215 -0.026069 0.001405
0.035473 -0.027530 0.004881
0.036271 -0.026971 0.005182
0.033003 -0.023707 0.001702
0.034485 -0.024559 0.003711
0.036679 -0.025016 0.005245
0.036522 -0.026121 -0.000286
0.033076 -0.024465 0.003376
0.035003 -0.024218 0.000695
0.037180 -0.026098 0.005278
0.033086 -0.023477 0.003246
0.034581 -0.023645 0.003246
0.034896 -0.026534 0.004392
0.034471 -0.023899 0.002167
0.033801 -0.024990 0.005003
0.037122 -0.024523 0.006650
0.034139 -0.025494 0.002708
0.037968 -0.024554 -0.000001
0.035099 -0.027072 0.006154
0.035305 -0.025256 -0.001359
0.035113 -0.024255 -0.002042
0.039099 -0.025130 -0.001418
0.042222 -0.023513 -0.000888
0.039026 -0.026029 -0.002165
0.041958 -0.026347 -0.000860
0.040761 -0.024701 0.001289
0.039637 -0.027938 0.001836
0.042808 -0.025604 0.000659
0.041542 -0.025698 0.005341
0.038854 -0.023306 0.000637
0.039640 -0.025761 0.006666
0.042415 -0.026315 0.004275
0.042772 -0.023294 0.000095
0.040958 -0.028131 0.006672
0.038916 -0.025733 0.000878
0.038724 -0.026917 0.000663
0.041680 -0.023844 0.006675
0.039963 -0.028096 0.003915
0.039743 -0.027263 -0.000880
0.042688 -0.027582 0.000645
0.039752 -0.025607 0.001842
0.038035 -0.024271 -0.001148
0.038624 -0.027118 -0.000731
0.042722 -0.028186 0.002302
0.039125 -0.026180 -0.001050
0.041710 -0.023878 0.005340
0.042217 -0.026397 0.000493
0.040576 -0.024087 -0.001263
0.038356 -0.025434 -0.000691
0.038683 -0.026705 0.003883
0.039500 -0.024768 0.000534
0.040204 -0.024998 -0.001665
0.041120 -0.027333 0.004085
0.042736 -0.024160 0.004312
0.039416 -0.023683 -0.001258
0.038562 -0.027726 0.006661
0.040664 -0.023812 0.006667
0.041084 -0.024706 0.005332
0.038705 -0.027801 -0.001571
0.042682 -0.027786 0.005358
0.039195 -0.026505 0.001761
0.038850 -0.024359 0.006658
0.041878 -0.023282 0.002146
0.040611 -0.024530 -0.000301
0.041208 -0.025705 -0.000538
0.040064 -0.027633 0.005319
0.041753 -0.027871 -0.000215
0.038189 -0.025235 -0.002737
0.038445 -0.023614 0.005292
0.038220 -0.026104 0.000178
0.042867 -0.025550 0.005357
0.040542 -0.026836 0.001228
0.042514 -0.024567 0.000025
0.041243 -0.026958 -0.000294
0.039651 -0.027637 0.000783
0.042921 -0.024329 0.001998
0.038184 -0.026299 0.005292
0.042969 -0.026294 -0.000446
0.041142 -0.023502 0.001432
0.041238 -0.027757 -0.001066
0.042053 -0.025727 0.001779
0.041537 -0.027012 0.006676
0.039598 -0.024240 0.005307
0.040451 -0.025987 0.003978
0.038512 -0.025708 0.006658
0.040500 -0.027676 -0.000241
0.040248 -0.026700 0.006668
0.042246 -0.026792 0.001853
0.038860 -0.027163 0.005303
0.038185 -0.024895 0.005290
0.039712 -0.025371 -0.000452
0.039704 -0.028026 -0.001631
0.040999 -0.027341 0.002037
0.040808 -0.025419 0.001996
0.039267 -0.025204 0.005306
0.042053 -0.024729 -0.000902
0.040252 -0.025541 0.005319
0.042679 -0.027602 -0.000496
0.041442 -0.024870 0.000216
0.042360 -0.024669 0.005351
0.040054 -0.026307 -0.000637
0.041969 -0.025127 0.004202
0.039641 -0.026418 0.000732
0.038634 -0.023435 -0.000541
0.041845 -0.024660 0.002148
0.039942 -0.026560 -0.001662
0.041915 -0.025687 0.006676
0.041119 -0.024936 0.006671
0.041243 -0.026864 0.005334
0.038394 -0.023404 -0.002324
0.039580 -0.026460 0.005310
0.040143 -0.023812 0.000976
0.039847 -0.024773 0.006667
0.039934 -0.023515 -0.000355
0.041485 -0.027951 0.005341
0.041533 -0.024021 -0.000366
0.039879 -0.027078 0.003898
0.042872 -0.023554 0.005356
0.039212 -0.024008 -0.002239
0.042733 -0.023991 0.006680
0.039808 -0.023251 0.006664
0.042380 -0.026551 0.005350
0.040441 -0.023518 0.005319
0.039199 -0.024330 -0.000476
0.040951 -0.026335 -0.001267
0.038223 -0.025529 -0.001771
0.038467 -0.027204 -0.002353
0.043046 -0.026473 0.006684
0.046752 -0.027277 0.006717
0.044940 -0.024796 0.006697
0.043322 -0.023279 0.004394
0.044964 -0.023570 0.006695
0.046850 -0.023766 0.006715
0.046616 -0.023874 0.001195
0.045315 -0.026493 0.001077
0.046794 -0.027420 0.004942
0.043258 -0.025528 0.004400
0.047186 -0.024162 0.002954
0.046122 -0.025128 0.005402
0.047250 -0.027507 0.002482
0.044472 -0.027399 0.006694
0.045050 -0.027375 0.002374
0.047456 -0.023304 0.002479
0.047647 -0.027679 0.005435
0.046098 -0.026482 0.006704
0.043828 -0.026304 0.000889
0.046863 -0.024829 0.006718
0.047775 -0.026320 0.005086
0.047793 -0.024898 0.005080
0.045503 -0.026069 0.005394
0.044825 -0.024760 0.002336
0.047810 -0.025329 0.003054
0.045118 -0.025435 0.001054
0.045223 -0.027558 0.004709
0.046587 -0.025139 0.002870
0.047379 -0.026269 0.002997
0.043969 -0.023636 0.002206
0.045543 -0.023798 0.004734
0.043419 -0.027470 0.006686
0.044452 -0.027306 0.005382
0.044244 -0.025826 0.005378
0.045831 -0.027909 0.001137
0.046204 -0.024987 0.001161
0.047698 -0.024621 0.001166
0.045044 -0.026104 0.002364
0.046007 -0.024437 0.002445
0.047901 -0.025526 0.006754
0.046834 -0.023605 0.004924
0.045428 -0.023882 0.001078
0.043512 -0.024481 0.005366
0.043464 -0.026719 0.005368
0.045129 -0.026086 0.006695
0.045083 -0.023828 0.002635
0.043344 -0.025251 0.002102
0.045004 -0.024677 0.005387
0.043955 -0.024217 0.006690
0.047344 -0.027386 0.001173
0.047027 -0.025801 0.001183
0.044006 -0.025824 0.006689
0.046719 -0.026395 0.004926
0.047808 -0.023764 0.005075
0.044487 -0.026684 0.004593
0.047126 -0.026210 0.006729
0.043199 -0.027140 0.002090
0.044504 -0.023825 0.004573
0.046006 -0.028193 0.002460
0.045902 -0.025438 0.006700
0.043550 -0.024540 0.000831
0.043012 -0.027646 0.004372
0.043966 -0.027890 0.002490
0.046252 -0.026799 0.002829
0.043200 -0.025278 -0.000235
0.044959 -0.025592 0.004654
0.043309 -0.024056 -0.000397
0.043933 -0.027358 0.000912
0.045895 -0.024342 0.006701
0.043322 -0.025000 0.006684
0.044413 -0.023919 0.000962
0.043989 -0.026424 0.002233
0.046475 -0.026659 0.001191
0.047856 -0.024454 0.006749
0.047878 -0.027607 0.006759
0.049764 -0.026811 0.003359
0.049195 -0.024210 0.002428
0.048156 -0.028025 0.002460
0.048353 -0.026505 0.003143
0.049445 -0.025475 0.003304
0.049517 -0.024107 0.001107
0.052656 -0.023560 0.005805
0.049839 -0.026995 0.001545
0.049667 -0.026031 0.006005
0.049465 -0.025045 0.005332
0.049259 -0.027933 0.005320
0.052011 -0.024938 0.005717
0.051320 -0.026077 0.003590
0.052123 -0.027130 0.003718
0.050837 -0.023829 0.003505
0.050313 -0.024870 0.003429
0.051959 -0.024715 0.003679
0.049328 -0.023587 0.007223
0.048396 -0.025690 0.005573
0.052103 -0.023204 0.003690
0.050745 -0.026315 0.005532
0.050205 -0.024311 0.005439
0.048985 -0.027311 0.001120
0.049684 -0.026815 0.005377
0.049569 -0.025400 0.001101
0.050398 -0.027612 0.005486
0.048054 -0.024277 0.002464
0.048362 -0.026369 0.001141
0.050972 -0.025226 0.005562
0.049456 -0.027281 0.006605
0.048602 -0.025148 0.002450
0.052806 -0.027850 0.003825
0.049858 -0.025496 0.002263
0.049185 -0.023594 0.003252
0.049512 -0.024600 0.006723
0.051342 -0.027135 0.005631
0.051846 -0.026142 0.005699
0.049799 -0.023341 0.002406
0.051392 -0.023702 0.005616
0.048788 -0.023558 0.005221
0.048889 -0.027443 0.003232
0.048558 -0.027019 0.005629
0.048938 -0.026041 0.006988
0.048557 -0.025324 0.001138
0.048551 -0.024494 0.005599
0.052544 -0.025696 0.003771
0.048943 -0.028169 0.007032
0.049401 -0.026475 0.002415
0.049785 -0.023719 0.006194
0.053288 -0.024221 0.004716
0.053045 -0.027412 0.005454
0.053188 -0.026433 0.004769
0.053082 -0.025560 0.005692
0.053115 -0.024471 0.005762
0.053312 -0.025147 0.004288
0.053415 -0.023374 0.004083
0.053068 -0.026827 0.003857
0.035726 -0.018330 -0.001273
0.037412 -0.021033 -0.001056
0.036559 -0.022112 0.004936
0.037710 -0.021691 0.006651
0.035783 -0.020747 -0.004932
0.034495 -0.022533 -0.004745
0.035091 -0.020514 -0.001049
0.034124 -0.021061 -0.001300
0.033065 -0.021775 0.002771
0.033813 -0.019874 0.004717
0.035120 -0.019667 -0.005538
0.036084 -0.019294 -0.001254
0.034867 -0.022917 0.000941
0.037428 -0.018733 -0.001984
0.036724 -0.018570 0.004934
0.033556 -0.020926 0.004299
0.035774 -0.020749 0.004897
0.037639 -0.022517 -0.002853
0.034426 -0.019231 0.005434
0.034655 -0.019490 0.002131
0.034616 -0.018806 -0.005292
0.035194 -0.021212 0.006069
0.035470 -0.018219 0.004281
0.033870 -0.022507 -0.001476
0.036317 -0.018576 -0.004785
0.034510 -0.018366 0.001466
0.036233 -0.018688 0.006452
0.034419 -0.020949 0.001404
0.034823 -0.019891 0.003945
0.034537 -0.021975 0.001063
0.033289 -0.018732 0.001309
0.036036 -0.019565 0.004703
0.035210 -0.021414 0.004159
0.036794 -0.020248 -0.004260
0.035063 -0.021324 0.000327
0.033558 -0.019370 0.000510
0.033321 -0.020052 0.003631
0.033394 -0.018562 0.003681
0.034336 -0.020626 0.005401
0.033383 -0.019548 -0.001994
0.034658 -0.021031 -0.004923
0.034362 -0.023191 -0.000866
0.036117 -0.021017 -0.001888
0.035938 -0.023152 0.006421
0.034441 -0.019739 -0.001716
0.037449 -0.019216 -0.003359
0.033143 -0.019389 0.002409
0.036086 -0.020913 0.006434
0.033437 -0.021669 0.000573
0.035718 -0.021846 -0.001009
0.035006 -0.021636 -0.001732
0.034134 -0.020106 -0.005423
0.033010 -0.022783 0.002480
0.034141 -0.018472 -0.001685
0.035131 -0.018708 0.005971
0.035158 -0.021800 -0.004494
0.034651 -0.020647 0.003105
0.035165 -0.022764 -0.001807
0.036836 -0.020205 -0.001967
0.033112 -0.021717 0.001566
0.035274 -0.020312 0.000136
0.037806 -0.022906 -0.001089
0.033222 -0.022505 0.003628
0.036640 -0.022260 -0.001957
0.037773 -0.021313 -0.002922
0.037111 -0.020067 -0.000675
0.033183 -0.018329 0.002368
0.035008 -0.019178 0.000485
0.036437 -0.019698 0.006508
0.037541 -0.020562 0.004908
0.037848 -0.018531 0.005284
0.035024 -0.019015 -0.000982
0.037221 -0.019572 0.004933
0.034636 -0.022268 0.003804
0.037720 -0.022556 0.004818
0.036611 -0.021799 0.006572
0.034388 -0.021944 0.005515
0.037779 -0.021573 0.005283
0.035544 -0.022143 0.006304
0.035253 -0.023093 0.004262
0.036231 -0.020547 -0.000154
0.036693 -0.021151 0.005218
0.036266 -0.022728 -0.000960
0.037892 -0.020159 -0.003432
0.036477 -0.021357 -0.003750
0.033092 -0.020336 0.002047
0.033786 -0.022491 0.004866
0.034268 -0.018768 -0.006289
0.033935 -0.018512 -0.000109
0.036920 -0.022829 0.006650
0.034311 -0.021865 0.002945
0.034223 -0.022569 0.002051
0.034721 -0.018209 0.002813
0.034585 -0.019024 0.003406
0.034586 -0.019918 0.001125
0.033418 -0.022947 0.000506
0.033569 -0.019440 -0.005910
0.035380 -0.019909 0.006150
0.037172 -0.019081 -0.000996
0.037517 -0.019471 0.006652
0.037139 -0.020750 0.006646
0.036516 -0.019284 -0.003992
0.039553 -0.019379 0.006659
0.039472 -0.021939 -0.001887
0.042939 -0.023192 0.001993
0.041928 -0.022029 0.002146
0.041720 -0.020778 0.006676
0.039473 -0.018247 0.000280
0.039587 -0.022559 -0.000640
0.041826 -0.020432 0.004148
0.040843 -0.018415 -0.000144
0.038113 -0.019601 -0.001859
0.042449 -0.019826 0.001830
0.039549 -0.020398 -0.000548
0.038101 -0.020244 -0.000021
0.040068 -0.020120 0.005313
0.038080 -0.020378 0.006655
0.039405 -0.020928 -0.002009
0.038479 -0.020390 0.005292
0.041296 -0.021284 0.000080
0.040069 -0.022401 0.000906
0.039629 -0.018477 0.005306
0.040385 -0.023155 -0.001698
0.040822 -0.021660 -0.001594
0.041027 -0.019488 0.001991
0.041747 -0.022838 0.005337
0.040349 -0.021591 0.006666
0.039145 -0.019260 0.000062
0.039021 -0.019354 0.005300
0.040360 -0.020035 0.003927
0.041514 -0.023151 0.000214
0.040703 -0.018568 0.006666
0.038284 -0.020616 -0.001815
0.039399 -0.022012 0.006661
0.039939 -0.018419 -0.001022
0.038880 -0.022880 0.006661
0.038893 -0.022487 -0.002554
0.041064 -0.019130 0.005325
0.042657 -0.022368 0.000572
0.042612 -0.021803 -0.000633
0.042497 -0.018247 0.006679
0.038095 -0.019415 -0.000808
0.041986 -0.020419 -0.000162
0.042984 -0.019263 0.004318
0.040668 -0.021113 0.005323
0.038784 -0.021625 0.005298
0.041371 -0.021858 0.006671
0.038284 -0.021208 -0.000333
0.042497 -0.019277 0.000489
0.040941 -0.020111 0.006670
0.042807 -0.021392 0.005353
0.040744 -0.022753 0.006669
0.042214 -0.018884 0.002169
0.042216 -0.023171 0.004228
0.041716 -0.019217 -0.000201
0.040243 -0.019650 -0.000430
0.038922 -0.022855 -0.001563
0.042877 -0.019231 0.005353
0.041812 -0.018437 0.004136
0.042162 -0.020864 0.001754
0.038095 -0.021663 -0.001847
0.038353 -0.018547 0.006655
0.040902 -0.020705 0.001280
0.041096 -0.022246 0.001395
0.039673 -0.020033 0.000520
0.039537 -0.021098 0.000433
0.038778 -0.021453 -0.002721
0.040804 -0.020488 -0.001432
0.041890 -0.021891 0.004170
0.039254 -0.018561 -0.002290
0.040420 -0.019270 0.001024
0.041842 -0.021246 -0.001154
0.041816 -0.020151 -0.001216
0.038714 -0.019717 -0.002898
0.040616 -0.019492 -0.001555
0.041503 -0.020499 0.005336
0.042852 -0.019664 0.006678
0.042888 -0.021875 0.004320
