ply
format ascii 1.0
comment PCL generated
element vertex 1297
property float x
property float y
property float z
element camera 0
property float view_px
property float view_py
property float view_pz
property float x_axisx
property float x_axisy
property float x_axisz
property float y_axisx
property float y_axisy
property float y_axisz
property float z_axisx
property float z_axisy
property float z_axisz
property float focal
property float scalex
property float scaley
property float centerx
property float centery
property int viewportx
property int viewporty
property float k1
property float k2
end_header
0.080012798 0.067348003 -2.4518802e-06
0.026939917 0.026709698 6.1179321e-06
0.11103912 0.11419629 0.010469818
0.084984742 0.07332018 -2.1276614e-06
0.050650626 0.054028485 0.010471325
0.070853792 0.038830992 0.010474655
0.11480981 0.065719552 4.9174014e-07
0.12660332 0.097571865 -6.9495964e-06
0.095692337 0.068867438 -4.1012149e-06
0.034158744 0.01528556 0.0095410105
0.050519094 0.05967791 0.010470212
0.047403548 0.10360845 0.010470854
0.10370459 0.097188242 0.010470163
0.052017193 0.019457646 0.010470997
0.070582204 0.070566386 0.01047031
0.082615569 0.055252641 0.010470379
0.037662309 0.065844581 0.010474227
0.12552032 0.06248872 0.01047029
0.062629409 0.0056409142 0.0091176247
0.0406918 0.054681785 6.5291709e-07
0.10891448 0.027488505 0.010474293
0.10538657 0.092446223 1.2025557e-06
0.059900116 0.12729296 8.6225185e-07
0.0098444112 0.041694079 0.0015301905
0.06285172 0.017153721 0.01047641
0.076425746 0.1290013 -9.9822137e-06
0.12490182 0.089152768 0.0104741
0.073474668 0.10337732 -8.3525983e-06
0.082136966 0.041113261 0.01047582
0.057388276 0.073413655 -2.0920743e-06
0.054997951 0.13624841 0.0051796795
0.11817619 0.076136902 0.010474714
0.12602086 0.09551309 -4.1472772e-06
0.012120817 0.080425061 0.010477409
0.066414334 0.13090068 -8.3195464e-06
0.049754169 0.13043787 -6.92704e-06
0.0073342719 0.046740409 0.0057422197
0.013819048 0.034630314 0.0086467005
0.042231318 0.12425935 -4.1685976e-06
0.066895954 0.020399204 -2.1943194e-06
0.057964887 0.1368416 0.0055220723
0.05994004 0.09542802 -4.8246584e-06
0.0527214 0.048541225 0.01047669
0.12340432 0.088492438 5.6075589e-07
0.024120387 0.02237683 0.0047728168
0.082902253 0.067589775 0.010469788
0.03832715 0.084652647 0.010470962
0.10978027 0.12385742 0.0056865294
0.081661902 0.12008108 0.01047441
0.0040712412 0.057568859 0.0063054063
0.12352274 0.10943018 0.0025294691
0.026907274 0.024529818 9.2895989e-06
0.0028447486 0.076561533 0.0072656306
0.025676718 0.023370443 7.885151e-05
0.053644687 0.050729871 0.010477073
0.13043772 0.096835196 0.0019605597
0.061303575 0.087910652 0.010481123
0.032651853 0.077728033 -5.4455149e-06
0.046482142 0.053943444 -2.1182727e-06
0.1354786 0.074893102 0.0042694015
0.047635119 0.090960547 6.0402334e-07
0.054480009 0.070268482 0.010473311
0.071949296 0.13496408 3.9644583e-05
0.10895847 0.080301836 0.010470764
0.062559091 0.049415316 0.010477891
0.10348267 0.062414043 -6.5400723e-06
0.065264665 0.13720742 0.0095153563
0.029645843 0.031868052 -3.6078063e-07
0.076975517 0.081560664 0.010476858
0.023092046 0.02687851 0.01047912
0.021164488 0.037808679 1.4513721e-06
0.12555093 0.060249567 0.010473303
0.029036295 0.11482942 -7.5673638e-06
0.073412642 0.12546638 -1.3474984e-06
0.043290757 0.12040004 1.1459466e-06
0.075229637 0.024420541 0.010470645
0.086302482 0.05938099 0.010470611
0.11538993 0.11777026 0.00052027853
0.053810608 0.074930198 -7.6988681e-07
0.10922978 0.085385635 0.01047908
0.075239658 0.015194129 1.3746333e-06
0.052020412 0.030381309 0.010472305
0.10032985 0.087030753 7.4914709e-07
0.048698135 0.019510843 -1.4790862e-05
0.088936411 0.047070868 0.010470483
0.0044980063 0.084770069 0.0096149296
0.033646256 0.083141401 0.010470639
0.021290274 0.064064667 -2.4433541e-06
0.016267482 0.030959811 0.0053268452
0.093742549 0.085820399 1.2984684e-06
0.0039370097 0.06187728 0.0011053114
0.066276483 0.08871419 0.010480409
0.01445165 0.080885835 0.01048193
0.056995284 0.0067679463 0.00042969466
0.073846392 0.088299721 0.010470764
0.11599335 0.025444711 0.009655511
0.12564981 0.090913787 -2.3678035e-06
0.035643071 0.06019485 6.0332951e-07
0.10840096 0.055513378 7.7058883e-07
0.016794365 0.073519677 0.01047253
0.057336852 0.10152233 5.9584949e-07
0.040490396 0.10045698 0.010475412
0.030993987 0.01835037 0.00052340399
0.063434772 0.12560232 0.010470789
0.041936282 0.075639576 -1.1896134e-10
0.071202755 0.0057725902 0.00026260485
0.10429616 0.0532526 0.010484812
0.027854649 0.03377334 1.324059e-06
0.122687 0.043567847 0.010471368
0.050011188 0.020859959 -1.3947575e-05
0.0091896607 0.094979286 0.010438028
0.047120873 0.052013688 0.010470535
0.089764178 0.12884487 -6.7105912e-06
0.097925618 0.12847823 0.010370994
0.086322688 0.081496626 -3.9104702e-06
0.033792615 0.12760837 0.0083413078
0.10703029 0.022250263 -2.2536771e-07
0.0077719549 0.059161231 0.010475697
0.1177889 0.037719563 0.010471751
0.048249934 0.07210201 0.010478422
0.061138328 0.13210167 -1.3874963e-07
0.061494086 0.12597777 0.010470626
0.13261656 0.051671255 0.0084313368
0.11394881 0.066829361 0.010470904
0.078832254 0.11808644 0.01047402
0.083358698 0.043969914 0.010474853
0.089396425 0.10928611 6.6789829e-07
0.11149479 0.072387546 -6.3629154e-06
0.033473372 0.019570006 0.010478972
0.13228771 0.091025457 0.009439351
0.097804204 0.11997557 -4.2048759e-06
0.072605878 0.12842464 -2.1191681e-06
0.016321814 0.07024695 -2.9118989e-06
0.11237042 0.11735909 -9.0149542e-06
0.038800117 0.070078142 0.010480986
0.013841184 0.10759018 0.0096642999
0.042725455 0.060322426 0.010470227
0.061072838 0.12793301 0.010471268
0.071752675 0.12422235 -4.4836734e-06
0.11055899 0.03078321 0.010473444
0.085848033 0.022390194 0.010471216
0.049039438 0.11926845 0.01047099
0.087560788 0.035529595 0.010470868
0.090888582 0.037758563 -4.3851164e-06
0.039829515 0.020796597 -8.116952e-07
0.037848599 0.12997654 0.0042301258
0.11712898 0.027991647 6.92914e-06
0.026248388 0.020496413 0.0065921084
0.09005028 0.068834148 0.010472483
0.044879802 0.029882146 -7.8996669e-07
0.0088308975 0.08278092 0.010470698
0.046036851 0.080620006 -5.4821767e-06
0.018463716 0.11437292 0.0038856554
0.051248822 0.1059508 -2.4198891e-06
0.07942488 0.040022295 8.9111523e-07
0.094173431 0.076204717 0.010479202
0.10154564 0.093096234 0.010470482
0.08657556 0.12554686 -2.5008617e-07
0.1284593 0.041398145 0.0060550398
0.12976742 0.067315429 0.010471467
0.075621314 0.082888208 0.010473955
0.083049931 0.056168191 8.3219226e-07
0.080323905 0.11678925 0.01047051
0.10203944 0.11378598 0.010469841
0.082669295 0.11578958 -1.017742e-06
0.10456505 0.070904493 0.010470221
0.13402106 0.057106085 0.0045869439
0.10863831 0.069660105 0.010472574
0.068585433 0.12594201 -6.920608e-06
0.049799129 0.041523237 9.0759022e-07
0.079641871 0.12640102 -8.0867121e-06
0.050578497 0.070045181 -9.1128965e-07
0.042558368 0.092289604 0.010470966
0.1069774 0.099684291 0.0104709
0.015594942 0.11048709 0.0090383869
0.072227105 0.078090139 0.010474668
0.10402553 0.072887011 0.010470726
0.1108411 0.10193241 0.010471363
0.042981777 0.10455005 0.010475964
0.1251691 0.091100685 0.010477794
0.056039158 0.031162899 0.010476305
0.020700345 0.062250424 -3.943823e-08
0.086628988 0.12933159 -4.1039771e-06
0.030935509 0.058440629 0.010480368
0.042644724 0.13227966 0.0026227359
0.050424848 0.010520709 0.010469671
0.055541709 0.01438502 -1.0804548e-05
0.030258663 0.076073371 -3.0224285e-06
0.074325033 0.13102566 -7.8245394e-06
0.13351677 0.074796461 0.010438981
0.051142178 0.11826839 -6.5452505e-06
0.094738282 0.010412613 0.0013210132
0.0028107511 0.066403151 0.0042109201
0.037590034 0.045632802 0.010481279
0.025326787 0.12133213 0.0064066462
0.035639115 0.035797462 -2.39522e-07
0.077562504 0.12022319 0.010477856
0.095712356 0.055162657 -1.9575432e-06
0.099511638 0.012696897 0.00088191638
0.094610766 0.11868876 -1.0332556e-05
0.045246687 0.020685473 -1.3964601e-05
0.016484151 0.071469463 0.010476693
0.09266746 0.013817623 0.010482642
0.09910129 0.083946802 -5.4993211e-07
0.068024017 0.0098089464 0.010476265
0.10722682 0.033072043 9.3058833e-07
0.051355168 0.10855393 0.010471233
0.040125001 0.035449434 -4.6821197e-06
0.12571082 0.10607307 0.002605401
0.11142496 0.097004823 0.010474796
0.023330322 0.049138088 0.010471366
0.047011435 0.043272823 4.4370225e-07
0.035359234 0.12839946 0.0012529066
0.092962816 0.082497947 -8.2817314e-06
0.027710477 0.047769416 0.010477662
0.088719085 0.059649207 0.010470573
0.07038597 0.0049384092 0.0090002399
0.071997352 0.015943876 1.0201834e-06
0.11054397 0.12034269 3.490987e-05
0.045910183 0.087737925 0.010476265
0.040054001 0.13109407 0.0019714115
0.031546738 0.071249925 0.010478671
0.10878493 0.018322831 0.00091982546
0.096525848 0.026623221 -1.2814266e-06
0.093605228 0.0612006 0.010476394
0.085561521 0.050515782 0.010470953
0.11858875 0.088694125 0.010475276
0.055856712 0.045473702 0.010471274
0.038306557 0.12704314 4.0262414e-05
0.13005044 0.075100772 -6.4917976e-06
0.063573517 0.047227569 0.010476015
0.13180941 0.08470466 0.010489893
0.058337178 0.044207856 0.010472363
0.049972113 0.13390541 0.00073413335
0.10943186 0.01847142 0.0025419213
0.030501802 0.038234115 0.01047271
0.026985923 0.056357484 0.010480385
0.05684549 0.10799139 -4.2659549e-06
0.051756844 0.12378293 8.0731013e-07
0.10689189 0.118168 -5.0912322e-06
0.095685616 0.047369678 0.010470906
0.036272578 0.050317507 0.010471623
0.091730766 0.022326533 -8.7740327e-06
0.0094600795 0.093009718 3.7963337e-06
0.0099787842 0.1012527 0.0083174212
0.020947894 0.082358576 -1.9443808e-06
0.093175448 0.02963699 1.727538e-06
0.091658369 0.11576933 2.9642504e-07
0.093912669 0.065655507 -2.6355683e-06
0.082515337 0.071327604 0.010474474
0.013428952 0.085024133 0.010472164
0.06837821 0.056748722 0.010469892
0.067320831 0.12735067 0.010470458
0.12924904 0.087148957 -3.5434859e-06
0.08368627 0.092905335 -4.6558384e-07
0.019174255 0.11492983 0.0015613945
0.1065577 0.059132751 0.010477358
0.012190178 0.075931974 8.3908861e-07
0.095349647 0.10634982 0.01047277
0.11293235 0.12116616 0.0080767125
0.078930981 0.019983128 0.010475428
0.059154212 0.098022051 2.359814e-07
0.046876691 0.12073237 0.010471892
0.10019236 0.04798957 0.010471542
0.044426315 0.050096229 7.7283499e-07
0.1324701 0.051147956 0.0024723592
0.03951316 0.10859593 0.010470371
0.11400457 0.055786252 0.01047215
0.047817811 0.13339354 0.00049404334
0.055676106 0.11063518 -4.1911553e-06
0.034037802 0.12718678 0.00093111256
0.036192276 0.11230596 0.01047081
0.059970994 0.035730932 0.010471593
0.10162338 0.021176683 0.010470616
0.13541271 0.075940259 0.0080622267
0.11377694 0.092583507 0.010470739
0.098598838 0.014359286 -1.1922014e-05
0.096046157 0.036811169 -3.1303554e-07
0.099933192 0.044264842 -4.2912492e-07
0.11003444 0.083634667 0.010477641
0.045829866 0.033881258 -1.482866e-06
0.078055784 0.052904379 -1.3212456e-06
0.10031877 0.012635645 0.006291064
0.082996026 0.048552897 0.010471831
0.020290989 0.044227183 6.5155405e-07
0.0026667237 0.070275135 0.0089659933
0.098596938 0.13088866 0.0081528928
0.10644623 0.07762669 0.010471887
0.13381693 0.05673632 0.0087770848
0.071511485 0.068258107 0.010473543
0.058130246 0.13631415 0.001269254
0.1241552 0.034051947 0.0061536734
0.017630097 0.083167315 0.010478335
0.055287931 0.047670428 0.010471504
0.02892275 0.035297707 0.010471762
0.091369785 0.12746182 0.01047389
0.062376782 0.12056686 0.010470744
0.083605461 0.13423619 7.8255805e-05
0.093054764 0.040514633 0.010474332
0.014547852 0.043214809 0.010472311
0.069932267 0.022041906 0.010472618
0.095331579 0.12565249 1.1714941e-06
0.027908739 0.11166564 -1.0909995e-05
0.029392468 0.036315653 1.0576282e-07
0.041971911 0.034057651 -4.0145901e-06
0.1109524 0.066791929 0.010470736
0.089345455 0.10575609 -8.743561e-06
0.047406435 0.0293417 0.010470591
0.12941219 0.099258587 0.0027030082
0.11907927 0.040179297 0.010470448
0.057989236 0.080950409 0.010477679
0.12219011 0.052071769 -5.3419012e-07
0.052731995 0.073757887 0.010470447
0.10729545 0.10371352 4.9889616e-07
0.040619399 0.091078915 1.2287501e-06
0.032852802 0.12382479 -9.6759359e-06
0.045383781 0.090991713 0.010470539
0.10856544 0.047684364 1.1157395e-06
0.087695494 0.13248694 0.010424564
0.017504308 0.072629109 -9.5524374e-06
0.065979794 0.0049005272 0.0068182582
0.063538253 0.1151567 -5.3314116e-06
0.021523952 0.024938524 0.0077622612
0.097742416 0.12693809 -5.788203e-06
0.082332 0.10713876 0.010474489
0.10813152 0.072816499 0.010473917
0.03622333 0.064359531 -2.483167e-06
0.0091496957 0.046614084 0.010477492
0.061043698 0.074267544 -9.1657384e-06
0.049470861 0.056240648 -5.7878074e-06
0.046616029 0.075706333 -4.102656e-06
0.065354876 0.065877259 0.010477232
0.051535673 0.092610702 0.010476121
0.066505983 0.069041952 1.2415757e-06
0.075335898 0.021639491 0.010473888
0.02800623 0.064898446 -3.9923593e-06
0.088105917 0.049859088 0.010471188
0.090922609 0.082979791 0.010478014
0.056962054 0.13665956 0.0034677431
0.027158963 0.11876646 1.5160008e-06
0.074355133 0.084079772 0.010471845
0.050189998 0.12620975 -1.5344216e-06
0.050222352 0.016105171 0.010475271
0.041730653 0.11809512 0.010477368
0.096218094 0.014841605 -1.5113045e-06
0.057161309 0.029323768 -9.8170021e-06
0.037498623 0.080864362 -8.7511244e-06
0.058920447 0.033414543 -5.2933206e-06
0.11503814 0.11936093 0.0075329081
0.091108531 0.096830964 7.636644e-08
0.12663998 0.043711785 0.010359164
0.067961492 0.086091414 0.010479313
0.11779314 0.092759602 0.010471014
0.10978945 0.075828269 -8.5898449e-07
0.0030571723 0.063842341 0.0034470323
0.063638955 0.064504273 0.010477891
0.10371081 0.048807681 0.010480625
0.064109258 0.042539615 0.010471825
0.13367382 0.055668171 0.0070806546
0.087315388 0.021318654 0.010471063
0.019490585 0.027078299 0.0042639882
0.046500899 0.042460378 0.010474739
0.11012052 0.032202888 5.0534635e-07
0.0047933557 0.070785895 8.5382169e-05
0.068393745 0.074213289 0.010473129
0.039206687 0.018295178 6.9919753e-07
0.12121028 0.076111726 -5.6919555e-07
0.038942751 0.040931996 0.010481597
0.094908327 0.10513487 -1.7339867e-06
0.11202826 0.026751185 0.010472238
0.067706242 0.08188916 8.1352295e-07
0.08232864 0.0061744559 0.0074961474
0.088545464 0.1296083 0.010476814
0.11183175 0.088041671 0.0104789
0.05036062 0.023772504 0.010470347
0.073256865 0.10416634 0.010471679
0.079472996 0.11211681 -2.4590613e-06
0.080084078 0.085387491 -1.3174181e-06
0.10616489 0.11251245 0.010469065
0.062959991 0.094836317 -7.7786872e-06
0.12224469 0.086358599 6.3529478e-07
0.087132782 0.0080573503 0.0096732313
0.043368395 0.063898757 -1.317998e-06
0.029871732 0.039546389 -3.3280156e-07
0.080412671 0.064364269 -8.9128079e-08
0.12208197 0.11142553 0.0063991547
0.033147812 0.085980028 -8.631595e-08
0.036617905 0.11568361 -4.6713685e-06
0.057420898 0.12225764 0.010469938
0.090966828 0.091207065 0.010472477
0.056023385 0.11746125 -1.3835981e-06
0.019505173 0.11055433 -1.7150782e-06
0.04244547 0.08068388 0.010475684
0.095568784 0.12864378 -2.1287706e-06
0.058499776 0.064361833 0.010478694
0.073557802 0.0059190746 0.0095907571
0.08012452 0.0057696006 0.0037760655
0.061997272 0.04203131 0.010473998
0.040205941 0.10755997 6.3361807e-07
0.13106948 0.078219466 -9.6528015e-07
0.054906879 0.08650355 4.5332573e-07
0.11556217 0.09014149 0.010470246
0.0754494 0.012272494 0.010470969
0.11621499 0.043547157 0.01047089
0.027972471 0.065530725 0.01047122
0.0063752439 0.092043214 0.00080611138
0.099416927 0.081254564 0.010470604
0.11137216 0.093352944 -7.1582537e-07
0.10217933 0.041873783 0.010470917
0.080700256 0.048984565 -2.9573828e-06
0.12032472 0.079881839 -2.8502799e-07
0.11763071 0.11632544 0.0012598233
0.029283619 0.11121871 0.010475187
0.025187848 0.089612156 1.4496339e-06
0.12775078 0.10257767 0.0058215456
0.065852538 0.038500778 -4.9659552e-06
0.10225117 0.033623647 0.010469738
0.050434165 0.12269196 2.3367173e-07
0.10039404 0.078087769 -1.0162811e-05
0.068573862 0.047403518 0.010480638
0.072584048 0.083445162 0.010470344
0.045299284 0.048518471 9.7570955e-07
0.016765576 0.033457421 3.2607168e-05
0.077496201 0.06102496 0.010470901
0.035942741 0.11944795 0.01047597
0.037519041 0.090827532 9.8626549e-07
0.049525525 0.09629757 -9.7971579e-06
0.048763685 0.084580466 9.0740912e-07
0.042883497 0.10414125 -4.966189e-06
0.10210252 0.061355222 -3.4624559e-06
0.073044941 0.035958271 -3.6280119e-06
0.092930026 0.13231198 4.8292317e-05
0.10126253 0.013162668 0.0076607149
0.020040203 0.068094045 0.010483467
0.091196716 0.025870746 1.3049396e-06
0.081506543 0.126302 -1.6101745e-06
0.12373019 0.10917145 0.0070861597
0.050272834 0.13505051 0.0027151096
0.048153393 0.064397998 -9.0728281e-06
0.044019479 0.11467952 3.8160515e-08
0.086616963 0.05209291 2.5566433e-07
0.0090602627 0.07816647 -3.9376081e-07
0.043323349 0.051738359 7.683704e-07
0.056605738 0.085763447 4.4567551e-07
0.05341034 0.11309204 0.010474451
0.12039865 0.089310266 1.1962888e-06
0.054066759 0.087632045 0.010473196
0.1023173 0.03577432 0.010469905
0.12750454 0.077495597 -1.9409408e-06
0.054083731 0.037472267 -3.8495054e-06
0.072153836 0.040458992 2.6328101e-07
0.015509248 0.034778103 1.9908679e-05
0.12427047 0.10592531 0.00010822316
0.045147441 0.067315049 0.010470386
0.032832827 0.053507123 0.010471467
0.091572978 0.010344673 0.010458692
0.043463849 0.053486295 0.010471961
0.08262334 0.031741243 0.010470938
0.080200329 0.12456763 -7.3265578e-06
0.12811051 0.093095519 0.010487504
0.049565975 0.13485265 0.0062488755
0.12337648 0.10758179 0.00032718258
0.0037109875 0.059434466 0.0063836589
0.098411605 0.023797654 0.010472476
0.11878996 0.053332228 0.010470504
0.02765456 0.11607702 0.010478895
0.028505001 0.072003558 0.01047882
0.062818795 0.038813047 0.010475424
0.10262142 0.056790508 0.010482225
0.06688147 0.0534974 0.010470335
0.084909424 0.078601599 -2.0977984e-06
0.11794573 0.026358468 0.0021897466
0.025335282 0.11062697 0.010478944
0.07090766 0.08066459 0.010470365
0.080756038 0.0058673117 0.0057659424
0.064953089 0.056934848 -6.6767552e-07
0.091569707 0.10371217 -7.4293612e-06
0.1267997 0.10433052 0.0062792138
0.023914589 0.069051102 -3.1322261e-06
0.1321089 0.064909771 0.01045979
0.096502304 0.02992586 0.010470466
0.087165169 0.029257093 8.5756881e-07
0.082813874 0.0090987515 0.01048079
0.12730756 0.10340878 0.004287831
0.05718381 0.089230306 7.2027302e-07
0.020243561 0.026416257 0.0021919189
0.10184477 0.05994007 0.010474692
0.063965023 0.022642663 0.010478607
0.12622753 0.037311297 0.0073439535
0.0072340802 0.091435142 0.0098371198
0.0708979 0.048102032 -7.84858e-06
0.065276727 0.08243788 3.307056e-07
0.051782861 0.051946741 0.010475438
0.080364205 0.06974972 1.0227593e-06
0.047922067 0.12330354 -4.2788747e-07
0.049743269 0.052500322 0.010470528
0.059056595 0.030995229 -1.046631e-05
0.11761787 0.099471964 0.010470654
0.021730041 0.11762238 0.0019802689
0.10301787 0.10765561 0.010472068
0.04324251 0.055194251 9.3085015e-07
0.071553804 0.090744756 -1.2951028e-05
0.028443739 0.020338327 0.010405029
0.019020462 0.0417482 9.062565e-07
0.030759649 0.034768391 1.2877875e-06
0.11337338 0.063254133 0.010472267
0.099513225 0.070915617 0.010470529
0.041347772 0.041826952 0.010482192
0.033893082 0.096355818 5.2443579e-07
0.027202003 0.05871981 5.6549999e-07
0.02798786 0.075639725 -6.9463636e-07
0.017070988 0.041256458 9.460606e-07
0.041059323 0.062002961 0.010470882
0.027084572 0.097450912 -1.1519292e-06
0.11011451 0.097884789 -3.9415153e-07
0.028213447 0.11846934 0.010477478
0.06623739 0.1005652 0.010471353
0.10391869 0.034928124 0.010470385
0.077999055 0.08313214 0.010479105
0.080626771 0.13488753 0.010448614
0.12523411 0.062243648 -7.9466927e-06
0.11213142 0.10573974 -4.827707e-06
0.052832481 0.025515918 -4.9608134e-06
0.13293333 0.079427913 0.010415588
0.11883751 0.06567876 -3.8031388e-08
0.13522775 0.07811489 0.0037020268
0.044816021 0.10409375 -6.3657631e-06
0.017661793 0.035336424 -4.5269549e-06
0.11741532 0.068260632 -9.2038817e-07
0.02289989 0.023600124 0.002161481
0.10827655 0.066154763 0.010470577
0.041833654 0.044684727 0.010472828
0.12355055 0.039696991 -1.1473248e-05
0.044687636 0.068128176 -4.4549247e-06
0.078005873 0.11235726 0.010470934
0.068809114 0.13437539 0.010465441
0.025251061 0.050640188 0.010470398
0.022820473 0.10598928 1.5869337e-07
0.084537849 0.011119835 0.010477806
0.05438241 0.079041786 0.010472196
0.045774132 0.12323666 2.7147112e-07
0.05082003 0.065639272 -8.09422e-06
0.094975643 0.13254297 0.0064891572
0.069548808 0.13778535 0.0057097976
0.051801067 0.0078040767 0.010166893
0.071755312 0.065046042 0.010472379
0.07219518 0.11694866 -4.3170894e-06
0.010769391 0.10316177 0.005448814
0.078971431 0.097876959 0.010475592
0.042143892 0.012725838 0.00015107713
0.11238743 0.12057252 0.00042661396
0.046011243 0.059196472 0.010470593
0.10869279 0.11880882 -5.4529592e-06
0.025696754 0.059550606 7.0045485e-07
0.01427429 0.066290364 0.010480802
0.072137751 0.099794492 0.010477183
0.072636493 0.092299849 0.010478093
0.1045577 0.048975702 1.0588545e-06
0.048030935 0.08073087 0.010472423
0.086975917 0.060468372 -2.1427477e-06
0.077188015 0.0053457133 0.0027067685
0.076358289 0.13737307 0.0048885369
0.094424918 0.049915496 0.010471512
0.055440139 0.10927358 0.010474612
0.10160436 0.080864109 0.010470781
0.070567913 0.10966432 0.010471795
0.089292854 0.084151335 -5.9388053e-06
0.03500089 0.12067762 -2.0026314e-06
0.06789989 0.039337754 -1.4181518e-06
0.034363396 0.063517883 -6.6380875e-07
0.036779534 0.08722271 7.7620393e-07
0.10004085 0.018657891 0.010475274
0.11244603 0.064677283 9.6553219e-07
0.067181177 0.053686023 -1.5700676e-06
0.010804086 0.07020843 0.010474895
0.025612362 0.045738239 0.010472254
0.04113796 0.078183815 -2.6558041e-06
0.024204249 0.025730785 5.1957895e-06
0.039299149 0.043167997 0.010482467
0.066344105 0.075884528 0.010471249
0.053630371 0.099222444 0.010477764
0.091875732 0.048077896 -2.5461202e-07
0.10331506 0.12095749 -3.322951e-06
0.076151468 0.134674 1.6509355e-05
0.11920893 0.11442822 0.0088124955
0.096237667 0.05807158 0.010476077
0.010885878 0.071303956 -1.1178097e-06
0.080553405 0.05288218 0.010470667
0.06552504 0.11310263 -2.474337e-06
0.085195154 0.071283184 0.010471469
0.099978082 0.12000293 0.010479377
0.098010652 0.10897288 -1.5410413e-06
0.053663362 0.11175216 -7.2079592e-06
0.045978382 0.091574624 -2.684166e-06
0.11799764 0.079460397 0.010471136
0.080503285 0.05723159 9.9932777e-07
0.02953111 0.12473936 0.0083260732
0.093056381 0.11697267 0.010470347
0.074259885 0.0050421115 0.0061241072
0.027105888 0.053881597 -5.6635977e-06
0.035759412 0.12882024 0.0045232573
0.0934522 0.011181292 0.010368514
0.10795841 0.11822054 0.010472124
0.010952543 0.056227319 0.010471886
0.056209113 0.047066666 1.3259888e-06
0.10422833 0.038377881 0.010470696
0.10545887 0.025093697 0.010476338
0.034637041 0.07865347 -7.4233708e-06
0.062507175 0.11725971 -3.5181031e-06
0.10121751 0.055366732 0.01047631
0.010292936 0.040289957 0.0084983017
0.076944068 0.099487163 0.010476184
0.02432497 0.035687089 2.5176058e-07
0.1130382 0.051813923 -8.7801373e-06
0.13141572 0.067897812 -6.7193305e-06
0.041745987 0.11017608 0.010470729
0.050135333 0.020199494 0.010471753
0.1158957 0.10720368 -4.0914802e-06
0.1178321 0.055254728 -8.9783443e-06
0.11519049 0.03001545 -9.7743069e-08
0.090474546 0.05648829 0.010470618
0.056617189 0.01196756 0.01047169
0.030019661 0.047030229 -2.6030016e-06
0.088137209 0.1239391 0.010470319
0.066844359 0.0050245412 0.0087037357
0.11002833 0.038390335 0.010474817
0.12703279 0.090578742 0.01047926
0.092602827 0.061148465 -6.1601863e-06
0.04819639 0.038855515 0.010471239
0.093745083 0.093672909 -2.8853044e-06
0.034444757 0.12802164 0.0056525646
0.065317579 0.12774125 -5.6523054e-06
0.043836124 0.022465933 0.010475907
0.064014412 0.13758953 0.0034905192
0.058928553 0.091102861 0.010475116
0.078682795 0.10159803 0.010470668
0.012527369 0.060356058 -7.6223992e-06
0.11397947 0.061127108 1.1965885e-06
0.053807717 0.0076907794 0.010338478
0.080220029 0.053561553 -1.1712937e-06
0.060671497 0.047540471 6.6932927e-07
0.083649367 0.052957006 5.1505134e-07
0.05793786 0.070437714 -6.0539423e-07
0.011277616 0.072424136 0.01047212
0.13087498 0.047226585 0.0086928466
0.037624411 0.012757693 0.0046966351
0.069837816 0.1214706 -1.1447699e-05
0.10224524 0.08720044 0.010472166
0.041102588 0.054075003 0.010471119
0.022107586 0.068096332 0.01048225
0.12595443 0.087566026 0.010474877
0.044605806 0.096054465 -1.3317899e-05
0.074678078 0.05862492 -3.252567e-06
0.076366469 0.11657059 -3.4812174e-07
0.10197432 0.049547181 0.01047531
0.063740343 0.010046328 0.010472649
0.077967241 0.074866734 8.1785169e-07
0.11182287 0.097747698 -1.1184181e-06
0.078063853 0.034110159 0.010471354
0.10543685 0.02448489 6.7571108e-07
0.12200236 0.031061392 0.0054250583
0.029727643 0.10422886 0.010471823
0.11548837 0.056600027 -1.071969e-05
0.010134197 0.051533487 0.01047827
0.034501594 0.10792895 -2.1919702e-06
0.056093797 0.01968443 -3.9192892e-06
0.10862558 0.12112875 -8.0974141e-06
0.015180437 0.051684208 -5.9007116e-06
0.077626452 0.041568231 4.0253644e-07
0.052291363 0.062592305 0.010469784
0.11673751 0.052168183 -1.2290409e-05
0.03461498 0.071014076 -7.0318242e-06
0.08436925 0.1226079 0.01047051
0.12325799 0.057100538 1.2063936e-06
0.0097962087 0.053565152 -6.0111852e-06
0.070423827 0.13736381 0.0012722922
0.0500677 0.12570764 0.010470172
0.12150478 0.034618597 1.3465795e-05
0.12781231 0.058829125 -4.6162831e-06
0.081788942 0.065054774 0.010472274
0.075627856 0.091984615 -8.723574e-06
0.041838679 0.028025489 -7.3766623e-06
0.12984195 0.090432495 0.010470761
0.033511993 0.041134894 9.3722787e-07
0.076791711 0.0052949204 0.0071425443
0.028586505 0.018609952 0.0074319155
0.021771846 0.086313233 0.010471038
0.11552715 0.097676843 0.010470546
0.084063627 0.11088409 0.010477016
0.063517526 0.10796153 0.01047186
0.037839338 0.073478505 -7.9465572e-06
0.013131302 0.042079918 0.010451024
0.067944475 0.087253392 -1.1044424e-05
0.02908255 0.048947271 0.010481779
0.077708714 0.13361755 -3.8938888e-06
0.034219902 0.10576683 0.010473356
0.0096000042 0.051589176 -1.5942617e-06
0.097402215 0.076562367 -5.8974883e-06
0.13340554 0.05446063 0.0056842589
0.036728457 0.013521646 0.0016327462
0.020644613 0.09605895 0.010480721
0.10974335 0.071852826 -6.6642715e-06
0.10245121 0.069890119 0.010469832
0.13331656 0.061627999 0.010412283
0.13553953 0.069660775 0.0037862158
0.05333269 0.083741613 0.010475518
0.065379314 0.041241143 -4.3602236e-06
0.032713614 0.02244528 1.5013011e-06
0.10653152 0.093597911 0.010476428
0.12096236 0.040368095 0.01047489
0.022368278 0.11847381 0.0082491701
0.10016928 0.023466844 0.010477432
0.053384289 0.072153233 0.010470139
0.11769173 0.067635164 0.010480123
0.089590319 0.11039089 0.010480932
0.0092485212 0.072615564 0.010472314
0.10100754 0.10436872 -1.0844972e-06
0.016364854 0.10155384 0.010475455
0.10183983 0.096844219 7.1207512e-07
0.027157281 0.12288353 0.0057207877
0.095323876 0.11440654 -9.6043959e-06
0.068189055 0.11762669 0.010473783
0.065788835 0.036245912 -5.8776936e-06
0.07728003 0.12147462 -1.1545637e-06
0.090541281 0.034858629 0.010470333
0.040679403 0.0112188 0.0072263032
0.070463695 0.015185164 4.6424239e-07
0.065799497 0.094086565 -1.0615163e-05
0.080055535 0.098772503 -4.7725343e-06
0.03166718 0.054150552 2.4302639e-07
0.088024579 0.082361124 -6.8748204e-06
0.10309153 0.064536147 0.010470894
0.03642793 0.021296952 0.010474204
0.053489421 0.039297201 -1.6695775e-06
0.036251668 0.045911007 -3.9718515e-08
0.02379116 0.10612057 0.01047169
0.12641567 0.071168251 -8.8064218e-07
0.020507434 0.093304969 0.010475199
0.073835865 0.10559007 -8.539605e-06
0.053075541 0.06845805 -8.6855516e-06
0.068539433 0.066272885 0.010473616
0.12107442 0.11232498 0.0087158643
0.019297976 0.038104881 1.3761004e-06
0.12926102 0.073603973 -5.0463705e-06
0.060031548 0.12037624 -8.0801419e-07
0.064131871 0.0067293686 6.4121746e-06
0.021916047 0.10744398 0.010470062
0.081721567 0.015416953 0.010473779
0.0146833 0.07304731 0.010471604
0.0085196998 0.043938823 0.0043128906
0.014766436 0.094978325 -3.965018e-07
0.083424583 0.13610907 0.0090482421
0.076771021 0.076831512 -1.213117e-06
0.091142982 0.041839603 1.6974073e-07
0.083430067 0.0063993526 0.0057274303
0.1068138 0.029833166 0.010473112
0.038332809 0.082390115 0.010475997
0.089442715 0.039532352 -5.8986132e-07
0.047387484 0.095408067 0.010477087
0.053099699 0.01635731 -8.4039893e-06
0.056025311 0.058874287 -9.5625328e-06
0.13390948 0.068738505 2.1929822e-05
0.12325959 0.059121437 -2.8653069e-06
0.041805986 0.02593719 -9.6556541e-06
0.055381563 0.044686519 6.2873664e-07
0.028586887 0.042332914 -2.4603688e-07
0.084543623 0.13582888 0.0077029807
0.11057769 0.11733763 0.010471089
0.11911512 0.090779379 9.8487317e-07
0.11588124 0.070039719 7.5923128e-07
0.031919103 0.092476778 -2.8382979e-06
0.1297583 0.058539134 0.010473639
0.042366058 0.071274914 0.010475718
0.086567827 0.089918032 -1.621434e-06
0.046649996 0.021643199 -1.4532546e-05
0.098572649 0.04204841 -7.7122786e-07
0.11865374 0.10357955 -4.8510797e-06
0.058028441 0.037630089 0.010472907
0.065361083 0.027152551 -2.9036614e-06
0.095725544 0.041293923 0.010469877
0.055418268 0.093631826 0.010473212
0.11404158 0.099828973 -2.0310692e-06
0.11191294 0.11138386 0.010472152
0.050013419 0.032293826 -7.727017e-07
0.030266007 0.028100016 1.2354488e-06
0.037190903 0.055106398 0.010470523
0.10461152 0.068519674 -2.799758e-06
0.076832987 0.0077373553 0.010452691
0.066765808 0.083794951 -9.4719383e-07
0.06801559 0.12138035 0.010473687
0.10033435 0.12998474 0.0057768775
0.074081019 0.036494799 0.01047731
0.074526794 0.12868938 -4.9419236e-06
0.09989281 0.078382112 0.010470541
0.028215494 0.032002233 0.010470278
0.057106331 0.060524996 -8.2606402e-06
0.084205277 0.1150172 -5.0030508e-07
0.036889963 0.094277546 6.9646126e-07
0.076422743 0.019092444 0.010481226
0.1284229 0.046470731 1.8596778e-05
0.017191704 0.051791634 -2.0610914e-06
0.0042540319 0.085920952 0.0067952336
0.024539145 0.087838538 0.010473927
0.027301237 0.021661349 0.010482047
0.11724208 0.11296304 0.010472433
0.034051854 0.10014041 5.844127e-07
0.057014797 0.13277075 -1.1436202e-06
0.066117287 0.0090715839 0.010478694
0.066290013 0.062684253 -8.3389968e-06
0.11027915 0.029411124 -1.2972961e-06
0.1014097 0.03565016 -2.241379e-06
0.069135077 0.064077936 0.010472026
0.089931816 0.13087277 0.010480478
0.009125988 0.06119686 -1.8380256e-06
0.082013682 0.02969102 0.010471085
0.045878928 0.035883777 -1.3047678e-07
0.059506703 0.042658053 -5.1823162e-07
0.078812838 0.12342499 -3.9433821e-06
0.087585442 0.11585832 1.7010254e-07
0.063789077 0.043267816 -4.2804904e-06
0.03594717 0.12703913 0.00015100357
0.12992564 0.058845673 -5.1423535e-06
0.045874596 0.039387446 -4.6446723e-07
0.019587189 0.10260074 -1.1701395e-06
0.099488437 0.087672621 0.010472982
0.022067554 0.067763731 -1.4496717e-06
0.096577592 0.012509456 0.00031245363
0.082804084 0.082014367 -9.3535658e-07
0.11009269 0.12314073 0.009647497
0.052231759 0.078407109 -2.1724762e-07
0.1019064 0.12908012 0.007748466
0.1250567 0.071249835 0.010470789
0.061996534 0.060970102 0.010476685
0.023154996 0.08291401 0.010484323
0.051088993 0.1205444 -4.6163336e-06
0.085578866 0.099027805 -4.0209079e-06
0.04833724 0.02995907 1.053992e-06
0.070660181 0.029095499 0.010474343
0.019165633 0.11517484 0.0063590189
0.034718204 0.044492014 5.5632756e-07
0.077075668 0.094896317 0.010479284
0.050279882 0.083546318 9.762789e-07
0.13515818 0.078669176 0.0057767611
0.12684517 0.048478864 0.010469794
0.08376243 0.087715514 1.2549601e-06
0.067551963 0.13292614 0.010475037
0.086978436 0.038639735 7.6210051e-07
0.12120717 0.10925601 8.4471147e-05
0.0060019689 0.092270061 0.0081660897
0.033702876 0.094192326 0.010472189
0.045639627 0.10377236 0.010472328
0.0047798366 0.054848433 0.0075256466
0.023566458 0.11419085 -4.4746025e-06
0.073703229 0.11243659 -1.5772661e-06
0.012087849 0.038225863 0.00073669152
0.014759938 0.083223626 0.010476751
0.088401638 0.066510059 0.010470578
0.1166539 0.11775839 0.0031519949
0.047114503 0.092124268 0.01047406
0.11498214 0.031781059 0.010472681
0.098329626 0.033651877 0.01047033
0.12248497 0.10106947 0.010477078
0.10687956 0.01744457 0.00069310167
0.056276783 0.072871163 0.010472454
0.11470492 0.035879899 0.010478483
0.010906568 0.10342571 0.007773804
0.10588397 0.040571488 0.010470239
0.069327258 0.11752039 -1.0778544e-05
0.10415276 0.093571126 0.010471165
0.052859429 0.11472177 0.010475867
0.056487229 0.017663866 -6.5309914e-06
0.025805224 0.031143971 0.010469568
0.077147588 0.056496773 8.7809451e-07
0.12527406 0.035762846 0.0032110147
0.020054957 0.099071868 0.010479214
0.031548157 0.018465787 0.010399941
0.026534863 0.069916137 0.01047409
0.042299487 0.10164446 -8.2485885e-06
0.080764048 0.10129756 0.010470521
0.05154952 0.12460832 0.010470658
0.040836234 0.058524687 0.010471378
0.07104557 0.056079842 0.010469317
0.060758218 0.063657612 0.01048159
0.068264127 0.13231771 -1.1488175e-05
0.035521932 0.049002174 1.9225827e-07
0.099084347 0.037026361 0.010471418
0.077923432 0.12255045 0.010473855
0.11506798 0.10750908 0.010470475
0.078292333 0.054784413 0.010471505
0.052283037 0.073745467 -1.720147e-06
0.11246783 0.02413575 0.010486141
0.0055692228 0.051753774 0.0040956512
0.075127035 0.060153127 0.01047264
0.028594727 0.12402059 0.004310803
0.0086082267 0.070167981 0.010475386
0.037664421 0.023011649 4.9827725e-07
0.072599992 0.022245904 1.537612e-06
0.089684732 0.12688528 -5.1133969e-07
0.068942472 0.071218446 2.0494136e-07
0.09036164 0.021991475 0.010473344
0.09056557 0.038540725 0.010476585
0.10771444 0.039212234 0.010473726
0.02178858 0.081644252 0.010482299
0.021578623 0.039538722 1.2390223e-06
0.060591429 0.13722353 0.006499243
0.099389076 0.054534499 0.010471455
0.073649794 0.13350213 0.010473979
0.024032557 0.023389004 0.00085752457
0.071529239 0.12398744 0.010475577
0.041810162 0.10887406 -1.7855112e-07
0.012576019 0.10441747 0.010353771
0.020111101 0.085592009 0.010470982
0.060865045 0.0053668162 0.0077738608
0.064489678 0.03325073 0.010473921
0.0045488561 0.056088816 0.0020993259
0.11889665 0.081362866 0.010472452
0.055228565 0.076264732 1.3301041e-06
0.016721096 0.11220252 0.005219358
0.08751566 0.068100624 -4.5718557e-06
0.059013758 0.069896057 0.010471762
0.014955993 0.097794868 0.0104734
0.1318578 0.049408138 0.0052594882
0.073621005 0.0050335894 0.0078429589
0.06256178 0.033742275 0.010472413
0.097598895 0.087693848 1.2373142e-06
0.10767209 0.110231 -7.8495959e-06
0.12611863 0.058658186 -3.4188913e-06
0.034904875 0.039830089 5.7009788e-07
0.10492844 0.057743255 0.010481028
0.10893824 0.018094188 0.0064318907
0.10151937 0.11647633 -3.3323849e-06
0.0088340705 0.043224808 0.0027388742
0.081051409 0.0089681046 0.010479024
0.032186579 0.032403417 -7.6709551e-07
0.085399121 0.011169965 -1.365255e-06
0.054001488 0.11116257 0.010473242
0.032667387 0.037950478 0.010477914
0.12979564 0.070621312 0.010471555
0.034701914 0.063629888 0.010470591
0.11236461 0.039263681 -7.2812004e-06
0.074544765 0.12882474 0.010471761
0.038921256 0.079021111 -1.0605334e-05
0.015887992 0.10718115 4.5257646e-05
0.10797276 0.070492357 -1.8098289e-06
0.033433244 0.10023903 0.010470974
0.05842229 0.11179244 0.010475109
0.090520673 0.03512777 -1.1958986e-06
0.023234483 0.082435548 -3.7640509e-06
0.02290944 0.088529624 8.9836635e-07
0.036877368 0.12945685 0.0057156472
0.10896437 0.12449147 0.0033915415
0.081207998 0.074170716 0.010471301
0.039685063 0.055999111 0.010470768
0.062631957 0.036381803 -4.3401133e-06
0.0031176666 0.078375682 0.0089970315
0.052034661 0.075780086 -3.1721729e-07
0.0093774199 0.042310692 0.0082332604
0.12948607 0.043487854 0.0070612747
0.10600805 0.12659937 0.0060169054
0.10263468 0.037653334 0.010469915
0.095872238 0.025972983 0.010471184
0.068069264 0.027957862 -4.0704181e-06
0.049091656 0.012542644 -3.1425755e-06
0.098729141 0.082090929 -1.4944433e-06
0.032724291 0.029044606 -7.0695634e-08
0.029384583 0.09703099 -3.0633791e-07
0.1132914 0.12096294 0.0038829334
0.075619169 0.047288656 0.010470894
0.10787071 0.057868164 1.073946e-06
0.051942889 0.1355285 0.00596934
0.058824476 0.014681651 0.010470767
0.064478867 0.072979912 -8.0399668e-06
0.083085977 0.019563708 0.010472876
0.061020471 0.071421981 0.010470067
0.0081437947 0.057244804 0.010473791
0.012184219 0.044151995 0.010477456
0.088418491 0.098148726 0.010473439
0.063526094 0.0309403 -1.187636e-05
0.077084452 0.05802054 0.010471515
0.0255515 0.069974072 -5.951822e-06
0.076476827 0.1085456 -4.350873e-06
0.022594532 0.11272847 0.010476355
0.055954058 0.080887787 -3.078236e-06
0.046367645 0.037248597 0.010471359
0.13325223 0.054222874 0.0089562079
0.10082229 0.062853828 -8.6526979e-06
0.060514387 0.085647099 0.010482894
0.049044643 0.071777791 -8.2608386e-07
0.081551686 0.050139695 0.010471427
0.11775787 0.059911218 -1.1074534e-06
0.13529015 0.065239556 0.0048513385
0.032572631 0.047773253 -1.1714488e-06
0.087580353 0.10426781 -9.5761479e-06
0.093166016 0.089719795 -3.5590817e-06
0.098859385 0.10581551 0.010475152
0.013752924 0.088414423 -2.9302323e-06
0.063757338 0.044718698 0.010472279
0.020052589 0.046092693 0.010476685
0.10211177 0.082957052 0.010471332
0.049596768 0.1101457 -6.9029579e-06
0.057853576 0.089771003 0.01047412
0.021160167 0.10436634 2.7352172e-07
0.083476178 0.12196005 -5.9964566e-07
0.016205005 0.086019658 -6.1912119e-06
0.065188125 0.13573404 0.010377383
0.057091184 0.056460746 -6.0169036e-06
0.044643693 0.10683178 0.010476233
0.035914339 0.0916171 7.8687697e-07
0.016967159 0.11256085 0.0074055647
0.0065096105 0.093632288 0.002013352
0.039849803 0.11207367 0.01047049
0.094101556 0.12446386 6.1478045e-07
0.098765261 0.11244 0.010471707
0.068652458 0.11508695 -6.2810345e-06
0.095019169 0.012614913 0.010447245
0.0046423683 0.065985642 0.010448928
0.083695292 0.036803108 -2.6400028e-06
0.035171181 0.11434098 -8.815241e-06
0.087779239 0.012332695 0.010477837
0.064007804 0.099476323 -8.8631893e-09
0.05878181 0.027495766 -5.5587675e-06
0.015666043 0.03179251 0.0032316025
0.027573477 0.094050229 0.010475622
0.083552636 0.038506676 -5.0550648e-07
0.089915432 0.087579936 0.010472152
0.11156695 0.12245456 0.0023447266
0.062714525 0.074712232 -1.0545943e-05
0.11138589 0.10203254 2.4821955e-07
0.10547049 0.079380915 -4.854237e-06
0.048369054 0.01467787 -6.9474407e-07
0.12711872 0.05015678 0.010477731
0.12882881 0.042138655 0.0035305931
0.092063576 0.12702015 -6.5910638e-07
0.13119911 0.071011975 -3.8738867e-06
0.060924631 0.11803474 -1.4377289e-06
0.11484287 0.080089636 0.010470042
0.039846174 0.10231041 0.010471111
0.069744013 0.032184754 0.010472638
0.057661284 0.043429233 -5.4759386e-07
0.024271797 0.080152526 -4.8561033e-06
0.10171888 0.10013146 9.1009542e-07
0.11978356 0.038109045 0.01047272
0.050753321 0.094763502 -5.8991391e-06
0.095720366 0.11213123 0.010478057
0.02756648 0.069651537 -5.1579382e-06
0.030454095 0.070558988 -2.2648846e-06
0.039334584 0.028483111 -5.0337107e-06
0.12961182 0.096141569 0.00029149521
0.092342027 0.1043222 0.01047013
0.032623097 0.0391666 5.7063284e-07
0.035462689 0.014218996 0.0093510961
0.037144624 0.027595112 0.010480561
0.10408899 0.11347033 0.010469517
0.097195916 0.03433438 -4.3135451e-06
0.015910413 0.032973479 0.0098788338
0.022886246 0.093337752 8.5277236e-08
0.12828428 0.073729277 0.010471469
0.016100492 0.051605538 0.010476536
0.084080994 0.021075327 0.010474551
0.088426851 0.036935356 -1.1896452e-06
0.10227793 0.10687274 -9.3002603e-07
0.051494282 0.046055906 0.010474799
0.052814025 0.096057788 -3.5291805e-06
0.070656948 0.085178733 0.010476087
0.019275349 0.11507063 0.0093546864
0.0358034 0.031201703 -4.3596269e-06
0.06713713 0.1048669 -1.1928657e-07
0.1109392 0.082350336 -1.936092e-07
0.07797116 0.062773928 5.7718751e-07
0.063506469 0.079427943 0.010479208
0.12590496 0.054004993 1.0119113e-06
0.074827187 0.073977642 -7.4506232e-08
0.12791073 0.060389236 0.010472612
0.08508788 0.12575409 0.010473215
0.074801169 0.024105556 -1.8035771e-06
0.12577893 0.10603908 0.0065424116
0.073135979 0.077491231 -5.1338579e-06
0.10456815 0.0301481 9.1025498e-07
0.13514912 0.071204267 0.009552029
0.097575501 0.13136965 0.0039319443
0.13302043 0.089230604 0.0067411461
0.098081239 0.0282222 0.010470686
0.11519016 0.023478668 0.0012227986
0.012430998 0.036545753 0.0061287414
0.060646884 0.10473802 -4.8623895e-07
0.06728255 0.11824135 -1.0487786e-05
0.049230505 0.012658088 0.010473366
0.09299241 0.06652353 0.010472617
0.038912863 0.092778727 0.010471809
0.035974469 0.082441576 0.010471338
0.093562722 0.037639361 -3.3615202e-06
0.094766751 0.032370351 0.010470172
0.04189856 0.010795156 0.0022444942
0.12732151 0.06220023 0.010471037
0.034533624 0.022689749 1.197816e-06
0.042754497 0.12084804 0.010479284
0.0060836477 0.06004722 0.010474473
0.068725966 0.0442621 2.4475725e-07
0.016131759 0.041447386 0.010470403
0.045314208 0.046446398 1.178002e-06
0.04009974 0.051793266 9.6196607e-07
0.064232983 0.078156479 -3.8053518e-06
0.063932873 0.1339182 0.010488401
0.12353428 0.0351918 0.01004747
0.03854081 0.046111204 6.8792821e-07
0.079107493 0.04528993 2.4305632e-07
0.078952774 0.13214293 5.9199473e-10
0.064890184 0.0083253589 -1.1209444e-05
0.047861941 0.069399603 -1.7108476e-07
0.033860371 0.10942619 0.010471338
0.011992463 0.081079222 -3.0319891e-06
0.0099524604 0.074857377 9.1496197e-08
0.10804476 0.10474442 0.010470391
0.13017274 0.05625014 -6.1211817e-06
0.033727974 0.11088636 -1.0298695e-05
0.10519097 0.06018294 0.01047445
0.12281559 0.10626957 0.010373699
0.048470747 0.12115935 -3.5752028e-06
0.11166153 0.10625263 0.010471374
0.014031146 0.034085702 0.0032519808
0.097657494 0.070443407 0.010470515
0.064459965 0.053346384 0.010475497
0.040824242 0.084482446 -1.5509403e-06
0.083931148 0.1329857 0.010423222
0.05549312 0.053044785 -1.9975414e-06
0.075718597 0.12168679 0.010469708
0.023633068 0.051195782 -1.5838094e-06
0.12658697 0.045889027 -8.4232861e-06
0.011264413 0.10254834 0.00041421136
0.010595765 0.084484667 -6.7166561e-06
0.040047381 0.034482572 0.010474192
0.085138798 0.1039829 -9.6308522e-06
0.074692927 0.12145105 -5.9645295e-06
0.04304415 0.058215063 0.010469945
0.083716258 0.0075321505 0.00030883792
0.066829525 0.034743223 -5.179953e-06
0.03337175 0.10614641 -1.1583888e-06
0.12321709 0.064952627 -7.3858376e-07
0.03978553 0.026574081 0.010478995
0.073514417 0.085715801 -2.2832673e-06
0.050995775 0.053027205 -1.7566454e-06
0.016891766 0.055142049 0.010477791
0.03732235 0.11619557 0.010472814
0.053348321 0.13362521 0.00015292656
0.091410749 0.0086747576 0.0031253838
0.057404574 0.029121706 0.010471831
0.10022666 0.12991947 0.0012406292
0.06003331 0.089530312 0.010478861
0.0047928486 0.056393672 0.0092682904
0.13454065 0.061089467 0.0092827044
0.01735913 0.056925286 0.010474374
0.059528787 0.0059540686 0.0093568731
0.047302913 0.052381068 -1.6188283e-06
0.080049358 0.074805185 8.6053049e-08
0.076176442 0.10212111 0.010475124
0.11622857 0.056926157 0.010471281
0.065247573 0.024857253 1.4547769e-06
0.12654075 0.074766494 0.010470631
0.09040004 0.12273433 0.010470987
0.10417747 0.096395858 9.8928172e-07
0.13510787 0.075770035 0.0010680117
0.10253359 0.030006697 1.0287888e-06
0.091111995 0.13402717 0.0050694994
0.049859211 0.10825939 -8.5589863e-06
0.035420429 0.094135709 0.010472687
0.037195008 0.071924917 0.010481388
0.011252317 0.1021125 0.010197703
0.039613981 0.038930584 0.010481347
0.13187993 0.077826209 0.010479715
0.10027375 0.12703824 -4.9711025e-06
0.12073719 0.029563565 0.0036169928
0.056246635 0.11971898 -8.3553738e-07
0.12914576 0.099359162 0.0099158585
0.054013692 0.076302432 0.010471593
0.084810749 0.058587912 -4.1813696e-06
0.025162483 0.077607699 0.010484649
0.069184475 0.07653603 0.01047368
0.02473272 0.12080171 0.004693782
0.078511007 0.13389565 0.010482684
0.03106676 0.11465944 0.010479986
0.044745971 0.039517619 0.010476158
0.058716271 0.091825776 -1.6670472e-07
0.087170191 0.12728292 -1.2172791e-06
0.088439539 0.095238924 -1.8739904e-06
0.052072652 0.09773536 0.010474085
0.086350538 0.11093272 -4.0826267e-06
0.045325365 0.060407095 4.6180517e-07
0.014865091 0.06642893 9.2536389e-08
0.058430068 0.094552636 -2.3883204e-06
0.074712902 0.07028795 0.01047077
0.070330463 0.043674797 2.6268742e-07
0.052859765 0.09849751 -4.1527387e-06
0.068368897 0.058952998 -5.2898727e-06
0.070084415 0.07248567 7.4228939e-07
0.015319234 0.055889957 -2.1687176e-06
0.049893551 0.025781874 0.010470618
0.036500376 0.06782417 -3.4231982e-06
0.12825334 0.05374084 -4.5936295e-06
0.052604221 0.01105209 0.010476278
0.11828453 0.11602467 0.0071312711
0.027764596 0.019837916 0.0010899605
0.067113876 0.096630886 -5.5744363e-06
0.10438593 0.028984133 0.010478074
0.004665907 0.071885474 0.01045666
0.040128946 0.082418017 0.010479999
0.075996421 0.067066155 9.7901295e-07
0.030883171 0.11796809 0.010478102
0.10571168 0.075585902 0.01047046
0.035208445 0.047254868 -2.1328481e-06
0.024316683 0.022295468 0.002124195
0.095112599 0.099477664 0.01047376
0.11352762 0.021862388 0.0044413758
0.0098172296 0.064257361 0.010471026
0.037178148 0.12327786 0.010472314
0.044852715 0.018219573 0.0104803
0.098626815 0.10310709 0.010471256
0.062519856 0.13714896 0.0020352243
0.078425117 0.10551166 0.010471961
0.059474938 0.024931256 0.010474168
0.049522988 0.10250518 -4.2254655e-06
0.02465534 0.091607168 0.010477385
0.13366079 0.072925471 0.010346854
0.089025639 0.085956097 0.010471513
0.099622108 0.026255596 0.010475401
0.072331689 0.084155567 -4.5723796e-06
0.0088997046 0.054175902 0.010462722
0.11173843 0.043229777 0.010477693
0.042901702 0.089915343 9.2942361e-07
0.088971503 0.0097064758 8.0700898e-05
0.10233389 0.048959702 9.7773443e-07
0.026387718 0.10546661 0.010471756
0.031804666 0.019872995 6.4082515e-06
0.094028383 0.024114368 0.010472881
0.012779 0.057639338 -5.6661761e-06
0.088697955 0.04518047 0.010471239
0.10289565 0.027330205 0.01048125
0.072934479 0.046957076 0.010471922
0.13476665 0.080652706 0.0013178685
0.097251773 0.097875401 -6.2881048e-07
0.099008515 0.11186214 -7.4241593e-06
0.061951768 0.035831295 0.010472082
0.06245574 0.010876548 -9.7158966e-07
0.036233447 0.084596984 -3.8590807e-07
0.082386784 0.01445363 1.0205983e-08
0.088060915 0.045426853 1.5082829e-06
0.044502251 0.071898021 0.010473126
0.07593064 0.034209389 0.010470702
0.11203646 0.029181309 0.010473485
0.085578196 0.11378379 0.010476287
0.085089102 0.052219409 0.010470609
0.11978297 0.11431526 0.0062509808
0.04169672 0.056297936 0.010470564
0.027271619 0.094190262 -3.7844318e-06
0.063129626 0.11044908 -2.6712294e-07
0.073964424 0.10953812 0.010471562
0.053093966 0.070501216 -8.9011519e-06
0.038840819 0.12233306 0.010472137
0.056110077 0.054811846 -4.2259717e-06
0.055606179 0.010588409 -7.2411067e-06
0.045768611 0.06953194 -1.3580062e-06
0.12422099 0.095277496 -2.0728235e-06
0.058495574 0.11382877 0.010471375
0.093129575 0.078178585 -9.4821826e-06
0.12778838 0.10041707 0.01031791
0.01328987 0.048069775 0.010475546
0.071520656 0.024213577 4.7616081e-07
0.047231719 0.061147314 -1.156008e-06
0.12119517 0.055135041 0.010470438
0.12582827 0.085548587 0.010472608
0.081530295 0.027034547 0.010470727
0.073705807 0.018994287 5.4282413e-07
0.055844806 0.13073082 6.6745281e-07
0.1089651 0.10212847 0.010471799
0.068908967 0.08892861 -1.2862055e-05
0.11924382 0.10334755 0.010473086
0.11019684 0.12295784 0.0010820036
0.090925388 0.10006844 0.010473973
0.09309224 0.091996059 0.010473859
0.096934371 0.021135237 0.010471319
0.12604478 0.10559671 0.0049315435
0.081824258 0.11785515 0.010471703
0.024518449 0.032619677 4.5057078e-07
0.10363609 0.016738024 0.00016222705
0.05239258 0.030276572 -5.0742083e-06
0.046850488 0.1249742 0.010471115
0.06779059 0.049220167 -2.5601967e-06
0.071000084 0.10477398 -5.3825638e-06
0.032418169 0.029354403 0.010471371
0.072763041 0.042745601 0.0104709
0.060033575 0.097585596 0.010470713
0.045588009 0.13347396 0.0049101878
0.029698856 0.065310143 -2.6149255e-06
0.1199315 0.029100196 0.009540678
0.076075017 0.070590854 1.2349345e-06
0.052670654 0.12605532 1.0723576e-06
0.073738992 0.020536052 0.010478257
0.11118699 0.090472281 -1.1299137e-07
