ply
format ascii 1.0
element vertex 1666
property float x
property float y
property float z
end_header
0.008356 -0.060679 -0.021858
0.010050 -0.057223 0.028574
0.014051 -0.059533 -0.024165
0.017667 -0.058125 -0.026997
0.013679 -0.060967 0.021437
0.017733 -0.058964 0.025545
0.022773 -0.061393 -0.020421
0.021931 -0.058181 0.027159
0.022584 -0.058777 -0.025685
0.018627 -0.060324 -0.022572
0.021297 -0.060362 0.022700
0.026656 -0.059753 0.023962
0.027369 -0.057796 -0.027659
0.028631 -0.061535 0.020328
0.030841 -0.058126 0.027304
0.028510 -0.059644 -0.023940
0.032996 -0.059822 0.023843
0.034764 -0.058724 -0.025790
0.035760 -0.057540 0.028293
0.035894 -0.061133 -0.020944
0.042004 -0.061006 -0.021197
0.040541 -0.061576 0.020287
0.038524 -0.059370 0.024788
0.039954 -0.058877 -0.025483
0.042964 -0.059292 0.024962
0.047812 -0.058426 0.026748
0.047377 -0.060446 -0.022324
0.044885 -0.058655 -0.025929
0.051910 -0.057764 0.028091
0.048231 -0.061577 0.020311
0.049545 -0.058544 -0.026152
0.054275 -0.059578 0.024148
0.057505 -0.060684 -0.021223
0.057864 -0.058496 -0.025587
0.053461 -0.059339 -0.024389
0.062134 -0.060182 -0.020808
0.059265 -0.058807 0.024909
0.066934 -0.057094 -0.024779
0.063239 -0.059369 0.022394
0.063763 -0.057213 0.026619
0.066603 -0.059752 -0.019614
0.067872 -0.059015 0.020670
0.071879 -0.057041 -0.021634
0.070548 -0.059928 0.017187
0.072068 -0.059395 -0.016728
0.073859 -0.061290 -0.006939
0.075102 -0.061503 0.002804
0.076567 -0.059477 0.011950
0.074798 -0.057847 0.017877
0.077545 -0.058003 -0.014601
0.077746 -0.059696 0.006645
0.076541 -0.060991 -0.002033
0.074777 -0.060280 -0.011075
0.080867 -0.057052 0.013121
0.080698 -0.059163 0.000389
0.082274 -0.057099 -0.007660
0.078907 -0.058508 -0.010100
0.082406 -0.057711 -0.003271
0.078938 -0.059250 -0.005324
-0.097841 -0.053860 -0.003914
-0.097564 -0.053036 0.010391
-0.098694 -0.051977 -0.011748
-0.095591 -0.055597 0.002684
-0.093949 -0.056284 -0.005240
-0.094544 -0.054236 -0.013569
-0.095980 -0.054316 -0.009403
-0.093496 -0.053231 0.016883
-0.091752 -0.053468 -0.018742
-0.088038 -0.051865 0.025736
-0.088404 -0.051732 -0.025817
-0.088758 -0.056591 -0.015917
-0.088731 -0.054523 0.019990
-0.087531 -0.054329 -0.021733
-0.084691 -0.056286 0.020390
-0.083030 -0.054835 -0.024882
-0.078820 -0.055728 -0.026141
-0.077733 -0.051724 -0.031355
-0.077909 -0.054493 0.028114
-0.081220 -0.055736 0.024384
-0.073436 -0.053367 -0.030983
-0.076821 -0.051920 0.031364
-0.073869 -0.056541 -0.027202
-0.071688 -0.054459 0.030123
-0.068833 -0.056412 -0.028727
-0.066921 -0.054582 0.030855
-0.062314 -0.055056 -0.030840
-0.060043 -0.054119 0.031804
-0.057740 -0.055229 -0.030705
-0.055129 -0.053873 0.032087
-0.048080 -0.052880 -0.033253
-0.047120 -0.056120 0.029634
-0.051958 -0.055171 -0.030764
-0.051000 -0.052930 0.033137
-0.046805 -0.055656 -0.030232
-0.040009 -0.053339 0.032716
-0.040483 -0.054618 -0.031354
-0.035585 -0.056146 -0.029688
-0.035388 -0.054111 0.031879
-0.027964 -0.055375 0.030507
-0.031983 -0.054587 -0.031383
-0.031058 -0.053110 0.032993
-0.027688 -0.052902 -0.033212
-0.022823 -0.055251 -0.030651
-0.023863 -0.053935 0.032103
-0.019365 -0.056063 0.029771
-0.018437 -0.055169 -0.030738
-0.014120 -0.055257 -0.030639
-0.013604 -0.055770 0.030110
-0.010394 -0.053627 0.032477
-0.010428 -0.053034 -0.033053
-0.004913 -0.052798 0.033407
-0.002085 -0.054850 -0.031070
-0.000274 -0.054019 0.032075
0.004419 -0.054031 -0.031956
0.003528 -0.055439 0.030521
0.006735 -0.052567 0.033693
0.008816 -0.055231 -0.030646
0.017708 -0.056138 0.029788
0.014096 -0.054365 0.031732
0.016426 -0.055318 -0.030546
0.013572 -0.053175 -0.032880
0.021134 -0.052369 -0.033749
0.021653 -0.056455 -0.029304
0.020756 -0.053918 0.032243
0.024864 -0.052465 0.033853
0.025028 -0.055991 0.029972
0.025558 -0.054347 -0.031594
0.030764 -0.051848 0.034549
0.031282 -0.056563 -0.029178
0.028807 -0.054646 0.031462
0.034896 -0.054345 0.031810
0.035807 -0.054925 -0.030957
0.042527 -0.054880 -0.031000
0.042316 -0.053658 0.032588
0.038873 -0.052777 -0.033291
0.044619 -0.056527 0.029434
0.046414 -0.052126 0.034285
0.048212 -0.053144 -0.032884
0.048734 -0.056074 -0.029696
0.050603 -0.051655 0.034816
0.050157 -0.054936 0.031201
0.057518 -0.055070 0.030670
0.054777 -0.054609 -0.031089
0.059526 -0.054749 -0.030409
0.063562 -0.055511 -0.028702
0.065971 -0.051939 -0.031833
0.063297 -0.052666 0.032168
0.066590 -0.053913 0.029740
0.072221 -0.056552 0.022677
0.070167 -0.052370 -0.029823
0.070484 -0.054885 0.027215
0.077328 -0.051940 0.026662
0.077364 -0.053941 -0.022999
0.077795 -0.055796 -0.018780
0.076822 -0.051908 -0.026762
0.072910 -0.054044 -0.026596
0.082848 -0.051968 0.020917
0.081282 -0.054885 0.017077
0.082641 -0.052019 -0.020768
0.079004 -0.053491 0.022450
0.081776 -0.056031 -0.013891
0.083096 -0.056479 0.008571
0.084894 -0.056043 0.003850
0.085762 -0.052344 -0.015710
0.086854 -0.055133 -0.001281
0.086660 -0.053900 -0.009863
0.085039 -0.054162 0.013352
0.086798 -0.054136 0.008206
0.086002 -0.055009 -0.005572
0.090366 -0.052381 -0.000771
0.090033 -0.051762 0.006754
-0.100490 -0.050306 0.011942
-0.101380 -0.051587 -0.000757
-0.102040 -0.047232 -0.004371
-0.099760 -0.048198 0.017581
-0.102030 -0.048087 -0.010769
-0.098521 -0.050005 -0.016128
-0.100990 -0.050994 0.006338
-0.100970 -0.051115 -0.005747
-0.102060 -0.047837 0.002801
-0.097373 -0.051247 0.015267
-0.095263 -0.048833 0.023406
-0.092419 -0.048107 0.026694
-0.093275 -0.047930 -0.026353
-0.095675 -0.049625 -0.021262
-0.092050 -0.051498 0.022287
-0.086414 -0.048836 0.030150
-0.086586 -0.049755 -0.029154
-0.082472 -0.047754 -0.033612
-0.081925 -0.051261 -0.030055
-0.081675 -0.051565 0.029702
-0.078605 -0.047056 -0.036103
-0.080759 -0.048969 0.032995
-0.072331 -0.048919 0.036079
-0.072779 -0.049844 -0.035003
-0.067110 -0.051452 0.034279
-0.067398 -0.051495 -0.034287
-0.066557 -0.048106 0.038035
-0.066962 -0.048300 -0.037816
-0.060554 -0.050357 0.035944
-0.060014 -0.051424 -0.034846
-0.060695 -0.048447 -0.038087
-0.055385 -0.048511 -0.038013
-0.056359 -0.049354 0.037062
-0.051994 -0.051335 -0.034937
-0.048565 -0.048391 0.038142
-0.050165 -0.048495 -0.038026
-0.046209 -0.051269 0.034979
-0.043912 -0.049382 -0.037056
-0.041941 -0.050433 0.035911
-0.040303 -0.046809 0.039757
-0.039635 -0.050501 -0.035835
-0.034349 -0.050882 -0.035415
-0.035327 -0.049729 0.036704
-0.029287 -0.049385 -0.037040
-0.030297 -0.049217 0.037282
-0.024986 -0.049825 -0.036558
-0.026896 -0.051406 0.034881
-0.023086 -0.049496 0.036993
-0.018309 -0.051427 0.034881
-0.018991 -0.050755 -0.035541
-0.022066 -0.047721 -0.038844
-0.017840 -0.046660 -0.039879
-0.014363 -0.046679 0.039902
-0.013599 -0.050986 -0.035284
-0.013168 -0.048054 -0.038474
-0.010006 -0.050554 0.035864
-0.009218 -0.049397 -0.037010
-0.009315 -0.047275 0.039478
-0.005404 -0.048870 0.037733
-0.005272 -0.051077 -0.035178
-0.003987 -0.047639 -0.038918
0.001923 -0.051260 0.035119
0.000377 -0.051252 -0.034984
-0.001180 -0.048392 0.038269
0.007618 -0.047150 -0.039440
0.005489 -0.050674 -0.035608
0.007281 -0.049312 0.037280
0.010317 -0.051100 -0.035141
0.011796 -0.048169 -0.038328
0.017729 -0.050542 -0.035741
0.013863 -0.051002 0.035436
0.018708 -0.046939 0.039809
0.021238 -0.047285 -0.039282
0.021232 -0.050160 0.036383
0.026626 -0.048157 -0.038329
0.025330 -0.048643 0.038064
0.031427 -0.047695 -0.038827
0.029176 -0.051459 -0.034733
0.029840 -0.048164 0.038604
0.034717 -0.051263 -0.034942
0.037382 -0.050715 0.035816
0.034459 -0.047833 0.038981
0.039853 -0.049082 -0.037310
0.041871 -0.049839 0.036792
0.038838 -0.046732 0.039991
0.045871 -0.049698 -0.036635
0.047760 -0.048684 0.038080
0.050230 -0.050048 -0.036252
0.055103 -0.050733 0.035614
0.055507 -0.051016 -0.034947
0.055019 -0.047266 0.039438
0.057545 -0.048156 -0.037911
0.060640 -0.047401 0.038536
0.061085 -0.051418 -0.033696
0.060434 -0.050860 0.034771
0.065772 -0.047054 0.037588
0.063916 -0.047114 -0.037767
0.067267 -0.050490 0.033259
0.070866 -0.048813 -0.033369
0.072081 -0.050379 0.031341
0.072026 -0.046686 0.035436
0.074948 -0.046671 -0.033556
0.075851 -0.047486 0.032551
0.074050 -0.049896 -0.030517
0.081051 -0.046841 -0.029339
0.086084 -0.051259 0.017790
0.083972 -0.048337 -0.025244
0.084174 -0.048910 0.024746
0.090102 -0.047156 -0.018976
0.092566 -0.048869 -0.010699
0.091319 -0.047521 0.016433
0.092879 -0.049639 0.004174
0.090875 -0.049994 0.012173
0.090606 -0.051351 -0.006028
0.089292 -0.047042 0.020997
0.089177 -0.051216 -0.012381
0.094841 -0.046706 0.010445
0.095745 -0.047055 0.002350
0.094011 -0.048779 -0.002146
-0.099741 -0.046083 -0.021956
-0.102050 -0.043315 -0.000628
-0.102060 -0.044552 0.006387
-0.102010 -0.041892 -0.021936
-0.102030 -0.044163 -0.012908
-0.097479 -0.045364 0.025177
-0.098191 -0.043265 -0.026899
-0.101950 -0.041929 -0.017235
-0.101610 -0.042769 -0.008635
-0.101930 -0.043740 0.011669
-0.102020 -0.046227 -0.017608
-0.102080 -0.043611 0.020299
-0.092528 -0.042582 -0.032763
-0.092314 -0.042836 0.032584
-0.089546 -0.041792 0.035646
-0.090454 -0.046090 0.030426
-0.090212 -0.046438 -0.030331
-0.083794 -0.046254 0.034479
-0.083665 -0.044233 -0.036808
-0.086332 -0.045792 -0.033627
-0.083523 -0.041754 0.038517
-0.077595 -0.046280 0.037283
-0.075209 -0.042278 0.040888
-0.073055 -0.045622 0.039204
-0.073509 -0.046631 -0.038286
-0.075759 -0.042632 -0.040649
-0.068912 -0.045114 -0.040376
-0.070982 -0.042399 0.041685
-0.063751 -0.045550 0.040435
-0.065541 -0.041943 -0.042754
-0.063713 -0.045458 -0.040617
-0.058111 -0.044684 0.041095
-0.058168 -0.045611 -0.040600
-0.052399 -0.045479 0.040593
-0.053140 -0.044775 -0.041129
-0.048366 -0.045250 -0.040819
-0.045214 -0.044981 0.040932
-0.043995 -0.045817 -0.040451
-0.046738 -0.041841 -0.043000
-0.037193 -0.043823 0.041703
-0.039623 -0.046433 -0.040051
-0.035285 -0.046613 -0.039930
-0.033112 -0.046594 0.039914
-0.036610 -0.042701 -0.042437
-0.030283 -0.045802 -0.040444
-0.028484 -0.046337 0.040090
-0.027521 -0.041712 -0.043059
-0.025830 -0.045788 -0.040447
-0.024096 -0.046349 0.040093
-0.018622 -0.045715 0.040518
-0.021514 -0.043487 -0.041915
-0.021168 -0.042142 0.042830
-0.013864 -0.042976 -0.042233
-0.008391 -0.043601 0.041913
-0.009167 -0.046405 -0.040032
-0.008758 -0.042161 -0.042749
-0.004192 -0.045836 0.040473
-0.003866 -0.044026 -0.041548
-0.000441 -0.041747 -0.043004
0.001972 -0.045417 -0.040650
0.002418 -0.046157 0.040280
-0.000093 -0.043032 0.042302
0.004917 -0.042955 0.042363
0.004938 -0.042363 -0.042603
0.010598 -0.046634 0.039989
0.010537 -0.042922 0.042398
0.009308 -0.042452 -0.042541
0.015588 -0.044066 0.041667
0.014621 -0.045751 -0.040421
0.020367 -0.043488 0.042052
0.022266 -0.043453 -0.041884
0.026188 -0.045366 0.040848
0.028744 -0.044211 -0.041389
0.032218 -0.044772 0.041248
0.034533 -0.045056 -0.040842
0.036297 -0.043799 0.041888
0.040781 -0.045759 -0.040384
0.040627 -0.042959 0.042443
0.046207 -0.042881 -0.042220
0.044108 -0.046132 0.040392
0.045070 -0.046464 -0.039928
0.049648 -0.045711 0.040679
0.050872 -0.045310 -0.040659
0.055498 -0.043475 0.041946
0.053169 -0.041811 -0.042837
0.059694 -0.044096 -0.040849
0.062099 -0.044043 0.040785
0.065574 -0.043055 -0.040397
0.067721 -0.042393 0.040535
0.068414 -0.046481 -0.036880
0.073330 -0.042392 -0.038279
0.075467 -0.044075 0.036507
0.082718 -0.045924 0.029319
0.082042 -0.041786 0.034475
0.086153 -0.045463 0.026780
0.087660 -0.043489 -0.027095
0.084425 -0.043541 -0.030066
0.090098 -0.043479 0.024744
0.092577 -0.046562 -0.015482
0.089711 -0.045195 -0.022962
0.096328 -0.043598 0.013551
0.094590 -0.043190 0.018291
0.095383 -0.042762 -0.017067
0.097440 -0.044448 0.006243
0.096415 -0.045384 -0.008053
0.097915 -0.041989 -0.012228
0.098974 -0.043339 -0.000961
-0.100960 -0.036848 -0.017022
-0.099957 -0.037007 -0.031768
-0.100400 -0.037814 -0.001097
-0.102080 -0.038644 0.021720
-0.102070 -0.039604 0.012933
-0.102000 -0.038720 -0.026450
-0.102020 -0.039854 -0.013376
-0.100520 -0.037654 0.006502
-0.101650 -0.039969 0.017299
-0.100160 -0.040843 0.027357
-0.102030 -0.038147 -0.008836
-0.101020 -0.040580 0.002858
-0.101030 -0.040442 -0.004986
-0.094830 -0.036856 -0.035724
-0.095728 -0.038744 0.033774
-0.096411 -0.041571 0.030428
-0.096937 -0.041052 -0.030538
-0.087112 -0.036923 0.040045
-0.088480 -0.040140 -0.037389
-0.083213 -0.039966 -0.039916
-0.083042 -0.037275 0.041632
-0.079356 -0.041065 0.040504
-0.079126 -0.037709 -0.042830
-0.074375 -0.038982 -0.043272
-0.076594 -0.038396 0.042988
-0.070267 -0.040548 -0.043086
-0.067830 -0.039023 0.043002
-0.063797 -0.041104 0.043003
-0.063299 -0.037159 -0.043247
-0.059335 -0.040441 0.043013
-0.060188 -0.040153 -0.043251
-0.054004 -0.039317 0.043025
-0.052557 -0.038845 -0.043233
-0.056023 -0.041356 -0.043247
-0.049745 -0.037656 0.043038
-0.046258 -0.040753 0.043035
-0.043896 -0.037611 -0.043214
-0.040895 -0.040411 0.043045
-0.039225 -0.038736 -0.043209
-0.035170 -0.039818 0.043057
-0.028636 -0.041146 0.043065
-0.031857 -0.041351 -0.043204
-0.024425 -0.038265 -0.043182
-0.023927 -0.038669 0.043081
-0.018968 -0.039276 -0.043175
-0.012995 -0.038215 -0.043161
-0.012301 -0.041169 0.043094
-0.016034 -0.038262 0.043096
-0.007756 -0.036787 -0.043148
-0.010230 -0.036702 0.043111
-0.005495 -0.038579 0.043113
-0.000850 -0.038041 0.043123
0.007593 -0.037466 -0.043123
0.011551 -0.037470 0.043147
0.014043 -0.037635 -0.043112
0.017900 -0.041550 -0.043107
0.022850 -0.038447 0.043164
0.018379 -0.039055 0.043154
0.028780 -0.038564 0.043174
0.030270 -0.040549 -0.043092
0.032818 -0.040566 0.043175
0.037120 -0.038184 0.043190
0.038510 -0.041047 -0.043079
0.042653 -0.037096 -0.043059
0.047098 -0.040405 0.043201
0.047483 -0.037869 -0.043053
0.056492 -0.038206 -0.043038
0.054090 -0.037584 0.043222
0.060578 -0.040345 0.043225
0.061502 -0.038636 -0.043031
0.064290 -0.038000 0.043239
0.066683 -0.037536 -0.043018
0.071639 -0.038642 -0.041369
0.071763 -0.040968 0.040150
0.072142 -0.036724 0.042750
0.077627 -0.039840 0.038321
0.076993 -0.039767 -0.038385
0.081047 -0.040919 -0.035470
0.086452 -0.039913 -0.032225
0.086427 -0.039193 0.033345
0.088472 -0.040708 0.029595
0.090562 -0.037157 -0.030793
0.090364 -0.040209 -0.027676
0.092328 -0.039237 0.026784
0.094754 -0.039431 0.023238
0.095062 -0.040511 -0.021287
0.093506 -0.036955 -0.027297
0.100860 -0.039928 0.006562
0.102160 -0.038793 -0.000708
0.100530 -0.038441 0.012389
0.098447 -0.039463 0.016266
0.100260 -0.040537 -0.008280
-0.099698 -0.032290 -0.009863
-0.102040 -0.034577 0.001122
-0.102000 -0.033288 -0.024974
-0.101840 -0.036117 0.025880
-0.100700 -0.033920 0.019759
-0.101100 -0.035633 -0.021479
-0.099499 -0.032200 -0.003031
-0.102100 -0.032800 0.031936
-0.101990 -0.033252 -0.029341
-0.098671 -0.035681 0.033549
-0.098741 -0.033694 -0.034892
-0.100180 -0.034829 0.010445
-0.100390 -0.035645 -0.012487
-0.102050 -0.032387 0.006679
-0.101190 -0.031787 0.026397
-0.102070 -0.036071 0.015470
-0.102030 -0.035360 -0.004777
-0.095705 -0.032298 -0.038054
-0.094607 -0.032535 0.038560
-0.090151 -0.031804 -0.041837
-0.091949 -0.036280 0.037828
-0.087568 -0.033019 0.042347
-0.089408 -0.036132 -0.039484
-0.084787 -0.035495 -0.042101
-0.081390 -0.033258 0.042995
-0.081065 -0.033209 -0.043267
-0.076651 -0.032084 -0.043255
-0.067386 -0.034948 -0.043248
-0.071808 -0.033775 -0.043252
-0.071774 -0.036362 0.043003
-0.067514 -0.033864 0.043018
-0.071525 -0.032083 0.043016
-0.061481 -0.035731 0.043023
-0.058186 -0.033909 -0.043228
-0.055138 -0.033163 0.043042
-0.053218 -0.033883 -0.043219
-0.048117 -0.034275 -0.043212
-0.048291 -0.032771 0.043055
-0.043855 -0.032543 -0.043199
-0.044360 -0.034802 0.043056
-0.037453 -0.034705 0.043069
-0.037871 -0.032958 -0.043189
-0.033027 -0.036090 0.043072
-0.033551 -0.036333 -0.043192
-0.027172 -0.034178 -0.043174
-0.028693 -0.035683 0.043081
-0.023236 -0.033130 0.043099
-0.020163 -0.036150 0.043095
-0.017375 -0.034641 -0.043158
-0.013477 -0.032630 0.043117
-0.008394 -0.032369 0.043127
-0.010787 -0.032230 -0.043139
-0.003834 -0.033892 -0.043132
0.003662 -0.035805 0.043138
0.003374 -0.035692 -0.043125
0.007287 -0.033131 -0.043110
0.008704 -0.033570 0.043154
0.015276 -0.033494 -0.043097
0.016514 -0.033867 0.043167
0.019285 -0.035595 -0.043096
0.023524 -0.033930 0.043179
0.025444 -0.036492 -0.043088
0.031924 -0.036383 -0.043076
0.028553 -0.034225 0.043187
0.036776 -0.033676 -0.043059
0.033962 -0.035243 0.043193
0.042118 -0.031765 -0.043044
0.041032 -0.035935 0.043204
0.047655 -0.031738 0.043228
0.049052 -0.035870 0.043218
0.049606 -0.034178 -0.043038
0.052714 -0.033102 0.043233
0.057184 -0.033895 0.043239
0.056857 -0.032561 -0.043020
0.062264 -0.033659 0.043248
0.061886 -0.034399 -0.043017
0.067175 -0.031700 0.043263
0.067998 -0.032013 -0.042999
0.076134 -0.034402 0.042646
0.075187 -0.032775 -0.042989
0.078819 -0.036010 -0.039811
0.081038 -0.032067 0.041546
0.081570 -0.036154 0.038607
0.083456 -0.034948 -0.037758
0.085584 -0.034972 0.036651
0.087319 -0.035837 -0.034494
0.089145 -0.031718 -0.035585
0.089159 -0.035358 0.033586
0.096933 -0.033126 0.026938
0.093596 -0.033004 0.030963
0.098221 -0.034003 -0.023410
0.099804 -0.035576 0.019389
0.099310 -0.033164 0.022869
0.100570 -0.036553 -0.015781
0.102790 -0.035549 -0.010372
-0.102010 -0.029982 -0.013059
-0.099557 -0.027365 -0.018425
-0.102070 -0.031168 0.016083
-0.099149 -0.027260 0.012555
-0.102010 -0.031490 -0.017989
-0.099155 -0.030823 0.036331
-0.102090 -0.029027 0.029679
-0.102030 -0.031227 -0.006343
-0.102040 -0.029104 0.003125
-0.101980 -0.031268 -0.033174
-0.102070 -0.029776 0.021230
-0.099074 -0.028561 0.008006
-0.100340 -0.030155 -0.022479
-0.095549 -0.027480 -0.041151
-0.096764 -0.028386 0.039747
-0.090819 -0.029492 0.042899
-0.091721 -0.027407 -0.043268
-0.085846 -0.029164 0.043000
-0.086905 -0.029290 -0.043265
-0.079889 -0.028387 -0.043250
-0.081986 -0.027292 0.043012
-0.075425 -0.029993 0.043016
-0.070618 -0.027505 0.043032
-0.067866 -0.030291 -0.043234
-0.066621 -0.029543 0.043033
-0.063464 -0.029303 -0.043224
-0.057603 -0.029232 -0.043213
-0.060003 -0.028049 0.043049
-0.053105 -0.028740 -0.043204
-0.052298 -0.029443 0.043058
-0.046617 -0.028791 -0.043192
-0.042209 -0.030185 0.043074
-0.039329 -0.028485 -0.043178
-0.037289 -0.029830 0.043084
-0.033370 -0.031221 -0.043176
-0.032261 -0.027040 -0.043162
-0.027297 -0.031303 0.043097
-0.027171 -0.027050 -0.043153
-0.030360 -0.028012 0.043101
-0.025986 -0.027032 0.043112
-0.022836 -0.029878 -0.043153
-0.018787 -0.031287 0.043112
-0.015593 -0.028586 -0.043137
-0.008740 -0.028171 -0.043123
-0.002451 -0.030691 0.043143
-0.006235 -0.027911 0.043144
-0.000162 -0.031266 -0.043118
0.003816 -0.030961 0.043153
0.012359 -0.030187 -0.043092
0.013697 -0.030344 0.043172
0.021707 -0.029216 0.043190
0.018320 -0.029124 -0.043078
0.026297 -0.030065 0.043195
0.026468 -0.031434 -0.043071
0.024841 -0.027495 -0.043062
0.031508 -0.030963 -0.043061
0.036560 -0.028932 -0.043045
0.033347 -0.030157 0.043208
0.038717 -0.030247 0.043217
0.043176 -0.030541 0.043224
0.051028 -0.029115 0.043242
0.048990 -0.029091 -0.043024
0.057219 -0.027610 0.043258
0.053310 -0.028825 -0.043016
0.062627 -0.029174 0.043262
0.060680 -0.029575 -0.043005
0.063972 -0.026782 -0.042990
0.069002 -0.026852 -0.042982
0.075227 -0.030273 0.043281
0.082633 -0.031586 -0.040477
0.079121 -0.028464 -0.042969
0.084568 -0.027853 -0.041421
0.085092 -0.029764 0.040369
0.091381 -0.030921 0.034576
0.092068 -0.027716 -0.035617
0.089477 -0.026952 0.038763
0.094696 -0.031445 -0.030452
0.097162 -0.028721 0.029733
0.101000 -0.028149 0.024824
0.102710 -0.029810 -0.019304
0.101090 -0.029013 -0.023610
0.098280 -0.030786 -0.026589
0.101840 -0.031626 0.019525
-0.102090 -0.024540 0.034101
-0.102020 -0.026027 -0.009310
-0.100230 -0.026451 -0.026307
-0.102070 -0.025738 0.018252
-0.102080 -0.022591 0.039931
-0.101490 -0.026274 -0.034522
-0.097205 -0.024063 0.041195
-0.102000 -0.023703 -0.020393
-0.101970 -0.022458 -0.031915
-0.102030 -0.026052 -0.000331
-0.102070 -0.024960 0.023680
-0.102010 -0.023800 -0.014058
-0.102040 -0.025008 0.005887
-0.100500 -0.024626 0.028924
-0.099979 -0.026400 -0.038524
-0.102050 -0.023509 0.010454
-0.102020 -0.022570 -0.006669
-0.093345 -0.022079 0.043008
-0.093502 -0.023099 -0.043258
-0.086994 -0.024355 -0.043250
-0.083782 -0.023115 0.043022
-0.079764 -0.024001 -0.043237
-0.077633 -0.025328 0.043026
-0.074602 -0.023136 -0.043225
-0.074099 -0.022903 0.043039
-0.071330 -0.026490 -0.043229
-0.067297 -0.024998 -0.043217
-0.066482 -0.022762 0.043053
-0.062001 -0.025229 -0.043209
-0.058668 -0.021871 0.043070
-0.054003 -0.023766 -0.043190
-0.053380 -0.024928 0.043070
-0.048162 -0.023228 -0.043178
-0.046716 -0.025588 0.043080
-0.042235 -0.024501 -0.043172
-0.042222 -0.022803 0.043096
-0.036790 -0.022706 -0.043157
-0.036265 -0.024625 0.043101
-0.028576 -0.023017 0.043120
-0.029967 -0.022870 -0.043145
-0.023045 -0.022613 0.043131
-0.020035 -0.025927 -0.043137
-0.020207 -0.026050 0.043125
-0.012325 -0.025671 -0.043122
-0.015958 -0.026481 0.043131
-0.010132 -0.025708 0.043144
-0.005307 -0.022461 -0.043100
-0.002795 -0.024452 0.043161
-0.006662 -0.021797 0.043162
-0.001177 -0.025908 -0.043103
0.001413 -0.022230 0.043175
0.002410 -0.026479 0.043164
0.005683 -0.023300 0.043179
0.004363 -0.025541 -0.043092
0.011324 -0.024380 -0.043076
0.008830 -0.026483 0.043175
0.016024 -0.024724 -0.043069
0.014761 -0.024898 0.043191
0.020563 -0.025380 -0.043063
0.024026 -0.022032 -0.043047
0.025680 -0.025786 0.043207
0.027904 -0.024004 -0.043046
0.037270 -0.025988 0.043227
0.037714 -0.024461 -0.043030
0.033193 -0.022832 0.043229
0.033575 -0.023113 -0.043033
0.042381 -0.024619 0.043240
0.043362 -0.026339 -0.043026
0.048526 -0.021987 -0.043003
0.048033 -0.023068 0.043255
0.056373 -0.025566 -0.043000
0.053261 -0.024903 0.043259
0.053256 -0.022082 -0.042995
0.065501 -0.024986 0.043280
0.071450 -0.026023 0.043288
0.075143 -0.025323 -0.042966
0.076981 -0.025126 0.043300
0.079825 -0.023308 -0.042952
0.082931 -0.025381 0.043310
0.088538 -0.025209 -0.039780
0.088036 -0.022719 0.041380
0.092734 -0.023562 -0.037124
0.095855 -0.025638 -0.032960
0.094856 -0.025386 0.034576
0.098974 -0.023086 0.031045
0.100270 -0.021655 -0.029818
0.099846 -0.025932 -0.027678
0.102880 -0.024031 0.024455
0.102890 -0.024676 -0.023625
-0.098820 -0.020254 0.018711
-0.102070 -0.018601 0.023181
-0.100960 -0.020598 -0.035716
-0.102090 -0.016895 0.035754
-0.102000 -0.019512 -0.018705
-0.097184 -0.019941 0.042656
-0.102010 -0.019715 -0.012653
-0.102020 -0.017993 -0.006697
-0.102030 -0.019685 0.000132
-0.098475 -0.021057 0.013422
-0.101600 -0.017800 0.040298
-0.099409 -0.018588 -0.026356
-0.102080 -0.020524 0.030334
-0.097969 -0.020237 -0.042103
-0.102040 -0.017565 0.005811
-0.101990 -0.021030 -0.023896
-0.101960 -0.021200 -0.040789
-0.099856 -0.017515 -0.030564
-0.088738 -0.021345 0.043018
-0.091242 -0.017944 -0.043239
-0.086851 -0.019807 -0.043236
-0.079428 -0.019188 -0.043221
-0.081748 -0.018865 0.043038
-0.076792 -0.019341 0.043045
-0.073922 -0.016802 -0.043204
-0.071645 -0.017780 0.043059
-0.069717 -0.017514 -0.043199
-0.065198 -0.016668 0.043074
-0.064871 -0.019220 -0.043196
-0.057113 -0.019262 -0.043182
-0.058907 -0.017288 0.043083
-0.053628 -0.020625 0.043082
-0.049505 -0.016913 0.043101
-0.048463 -0.021061 0.043090
-0.050743 -0.017916 -0.043167
-0.044824 -0.018673 0.043104
-0.041692 -0.017396 -0.043149
-0.038381 -0.019987 0.043111
-0.031530 -0.017968 0.043130
-0.031800 -0.019004 -0.043137
-0.024958 -0.020395 -0.043129
-0.022662 -0.017038 0.043148
-0.018104 -0.020542 -0.043117
-0.021684 -0.016751 -0.043112
-0.018625 -0.021230 0.043143
-0.012579 -0.021307 0.043153
-0.013681 -0.017134 -0.043099
-0.012257 -0.021419 -0.043109
-0.015390 -0.017812 0.043159
-0.008000 -0.018798 -0.043094
-0.007265 -0.017039 0.043175
-0.002510 -0.019993 0.043175
-0.001192 -0.019361 -0.043083
0.005517 -0.017315 0.043197
0.003248 -0.020004 -0.043078
0.007917 -0.020702 -0.043071
0.009475 -0.020573 0.043194
0.012390 -0.016728 -0.043051
0.014675 -0.020108 0.043205
0.015107 -0.020483 -0.043058
0.019739 -0.018964 -0.043045
0.018928 -0.017149 0.043221
0.019494 -0.021512 0.043209
0.023960 -0.017780 -0.043034
0.027335 -0.020741 0.043225
0.023737 -0.017875 0.043228
0.031216 -0.018675 0.043239
0.030729 -0.018514 -0.043024
0.036378 -0.019361 -0.043017
0.037265 -0.020292 0.043244
0.042338 -0.019447 -0.043007
0.045268 -0.016697 0.043269
0.051156 -0.018618 0.043274
0.055874 -0.021172 0.043275
0.059577 -0.021361 -0.042982
0.061624 -0.021629 0.043283
0.065187 -0.020817 -0.042970
0.066027 -0.018017 0.043302
0.068789 -0.018352 -0.042956
0.070575 -0.020273 0.043303
0.071736 -0.021462 -0.042961
0.076218 -0.020002 -0.042948
0.076125 -0.020695 0.043312
0.080906 -0.018597 0.043327
0.086500 -0.017579 -0.042923
0.083297 -0.020649 -0.042938
0.085876 -0.018958 0.043334
0.089393 -0.021114 -0.040572
0.091952 -0.019027 0.039782
0.093542 -0.017793 -0.038389
0.096991 -0.021011 -0.033987
0.095969 -0.017048 0.036859
0.096349 -0.021209 0.035006
0.099446 -0.017530 0.032859
0.102170 -0.017348 0.029298
0.099931 -0.017072 -0.032069
-0.102090 -0.011844 0.041423
-0.102010 -0.012067 -0.008445
-0.102030 -0.013057 0.002522
-0.102000 -0.015592 -0.016035
-0.101570 -0.015542 -0.041155
-0.100080 -0.014377 0.032498
-0.100730 -0.016303 -0.036412
-0.101970 -0.013987 -0.029423
-0.097949 -0.011954 -0.043232
-0.102080 -0.016358 0.028095
-0.102000 -0.015320 -0.011607
-0.102050 -0.015638 0.016551
-0.102040 -0.015680 0.011256
-0.101980 -0.014639 -0.024006
-0.102020 -0.015962 -0.002264
-0.097550 -0.014291 0.043024
-0.102040 -0.013211 0.006884
-0.102060 -0.013629 0.020455
-0.093135 -0.015666 0.043027
-0.094644 -0.015348 -0.043237
-0.087437 -0.015947 0.043037
-0.088129 -0.014800 -0.043224
-0.082625 -0.016242 -0.043218
-0.080495 -0.012737 0.043059
-0.078545 -0.012789 -0.043201
-0.072263 -0.012624 -0.043189
-0.074887 -0.014064 0.043065
-0.070818 -0.012804 0.043076
-0.064593 -0.012521 -0.043175
-0.063172 -0.012811 0.043089
-0.061523 -0.016429 -0.043181
-0.058469 -0.012551 0.043098
-0.054085 -0.014413 0.043100
-0.053413 -0.014581 -0.043161
-0.046757 -0.015392 -0.043152
-0.043681 -0.014192 0.043119
-0.039582 -0.012413 0.043132
-0.036044 -0.013844 -0.043128
-0.036082 -0.016394 0.043126
-0.027879 -0.015583 -0.043119
-0.027073 -0.015235 0.043146
-0.017791 -0.014137 0.043165
-0.017981 -0.012096 -0.043091
-0.011801 -0.014445 0.043175
-0.012058 -0.013003 -0.043083
-0.007475 -0.012135 0.043190
-0.004594 -0.014834 -0.043076
0.000044 -0.012807 -0.043061
-0.001791 -0.015473 0.043190
0.006313 -0.013564 -0.043053
0.002921 -0.013440 0.043204
0.011799 -0.015836 0.043213
0.011064 -0.012022 -0.043040
0.007952 -0.011650 0.043219
0.016861 -0.015579 -0.043040
0.016341 -0.012763 0.043230
0.027459 -0.014936 0.043243
0.026204 -0.012357 -0.043014
0.024292 -0.012046 0.043246
0.033503 -0.013598 -0.043005
0.033301 -0.013280 0.043259
0.039989 -0.016064 0.043262
0.040693 -0.013986 -0.042993
0.045743 -0.013412 -0.042982
0.045982 -0.012379 0.043284
0.050891 -0.016568 -0.042983
0.050471 -0.012688 0.043291
0.051415 -0.011869 -0.042968
0.056109 -0.015966 0.043291
0.056651 -0.015585 -0.042970
0.061612 -0.014687 -0.042958
0.061860 -0.014301 0.043306
0.066012 -0.015057 -0.042951
0.068350 -0.014083 0.043318
0.073724 -0.013005 -0.042932
0.073451 -0.013371 0.043329
0.082862 -0.014411 -0.042920
0.078651 -0.016059 -0.042932
0.087644 -0.012696 -0.042906
0.083350 -0.014306 0.043344
0.087700 -0.013772 0.043353
0.090689 -0.015462 -0.041577
0.097112 -0.012038 0.037379
0.093768 -0.012827 -0.039903
0.096969 -0.015709 -0.035845
0.102360 -0.012288 0.030812
0.101080 -0.012766 -0.032003
-0.101960 -0.009377 -0.034698
-0.102000 -0.009749 -0.012833
-0.101080 -0.010841 -0.040525
-0.102030 -0.006720 0.006228
-0.099960 -0.007536 0.043040
-0.100820 -0.008435 0.038844
-0.102060 -0.011401 0.024619
-0.102040 -0.009827 0.009548
-0.102080 -0.011619 0.035366
-0.101980 -0.006845 -0.020323
-0.101920 -0.011178 -0.044692
-0.102070 -0.008641 0.029196
-0.099994 -0.007326 0.034428
-0.101970 -0.010425 -0.026391
-0.102050 -0.010607 0.013840
-0.102020 -0.009957 -0.001636
-0.101990 -0.011456 -0.018548
-0.102050 -0.008930 0.019561
-0.102010 -0.007219 -0.005567
-0.096094 -0.009631 0.043040
-0.095177 -0.006996 -0.043212
-0.091009 -0.010130 0.043048
-0.090051 -0.010437 -0.043214
-0.084933 -0.010510 -0.043205
-0.084638 -0.010057 0.043059
-0.080937 -0.007743 -0.043190
-0.073286 -0.007225 -0.043174
-0.067716 -0.008394 -0.043168
-0.071120 -0.007892 0.043090
-0.063240 -0.008536 0.043102
-0.062287 -0.008893 -0.043160
-0.056540 -0.010261 -0.043154
-0.055964 -0.009067 0.043113
-0.049912 -0.010507 0.043120
-0.051067 -0.007912 -0.043137
-0.043927 -0.010658 -0.043133
-0.042724 -0.008604 0.043138
-0.040232 -0.007785 -0.043118
-0.037250 -0.006910 0.043153
-0.033723 -0.009957 0.043150
-0.034438 -0.008479 -0.043109
-0.030535 -0.011152 -0.043111
-0.028635 -0.010549 0.043157
-0.023337 -0.011077 -0.043098
-0.021607 -0.011469 0.043167
-0.020250 -0.008094 -0.043083
-0.016701 -0.008073 0.043186
-0.014946 -0.008906 -0.043076
-0.008112 -0.010013 -0.043067
-0.011788 -0.009862 0.043189
-0.003111 -0.009826 -0.043058
-0.001007 -0.010958 0.043205
0.004508 -0.008057 -0.043039
0.009797 -0.006650 0.043237
0.011668 -0.007818 -0.043026
0.014206 -0.007587 0.043242
0.016455 -0.011188 -0.043028
0.019215 -0.008567 0.043248
0.020815 -0.011053 -0.043019
0.023819 -0.006939 -0.043002
0.029976 -0.010074 -0.043000
0.030586 -0.007491 0.043271
0.035996 -0.007675 0.043280
0.037175 -0.011193 -0.042991
0.038342 -0.011589 0.043273
0.041657 -0.009092 -0.042977
0.042986 -0.007647 0.043293
0.048415 -0.007865 0.043302
0.048517 -0.008690 -0.042963
0.053526 -0.007630 0.043311
0.055436 -0.009644 -0.042954
0.056783 -0.010489 0.043309
0.059238 -0.007549 -0.042941
0.061064 -0.009433 0.043319
0.066396 -0.007524 0.043334
0.066566 -0.010511 -0.042937
0.071085 -0.008402 0.043340
0.077765 -0.011346 -0.042919
0.073158 -0.008141 -0.042918
0.076336 -0.006886 0.043354
0.081037 -0.008385 -0.042905
0.080173 -0.011189 0.043348
0.086509 -0.006949 -0.042891
0.083815 -0.008302 0.043363
0.092125 -0.011283 0.041877
0.091016 -0.009429 -0.042500
0.097385 -0.010586 -0.036913
0.100620 -0.007685 -0.033722
-0.101980 -0.002784 -0.021920
-0.101950 -0.002979 -0.035328
-0.101710 -0.004164 -0.044580
-0.102090 -0.003308 0.041739
-0.098962 -0.003142 0.028476
-0.102060 -0.005911 0.023693
-0.102050 -0.005810 0.016332
-0.101990 -0.004218 -0.015247
-0.100370 -0.003407 0.037180
-0.101970 -0.005138 -0.028323
-0.102000 -0.004947 -0.010129
-0.100930 -0.006500 -0.040478
-0.102010 -0.003851 -0.002507
-0.102040 -0.005854 0.011595
-0.098040 -0.002105 -0.043203
-0.095535 -0.003055 0.043061
-0.087477 -0.006626 0.043065
-0.090495 -0.001856 -0.043189
-0.091908 -0.005920 0.043059
-0.086388 -0.005137 -0.043191
-0.079231 -0.004358 0.043086
-0.079338 -0.003216 -0.043173
-0.074661 -0.002927 -0.043164
-0.075249 -0.006187 0.043088
-0.071474 -0.002397 0.043106
-0.065779 -0.002981 -0.043148
-0.066998 -0.006169 0.043102
-0.061008 -0.004618 0.043118
-0.057706 -0.002962 -0.043134
-0.055234 -0.004656 0.043128
-0.053101 -0.003609 -0.043128
-0.048062 -0.006044 0.043136
-0.047118 -0.005366 -0.043122
-0.037300 -0.002281 0.043167
-0.041565 -0.002295 -0.043103
-0.041896 -0.004227 0.043153
-0.029538 -0.003538 0.043177
-0.029429 -0.003514 -0.043086
-0.024579 -0.005445 0.043180
-0.025596 -0.005813 -0.043086
-0.023613 -0.001998 -0.043071
-0.018679 -0.003186 -0.043066
-0.012143 -0.004760 -0.043059
-0.016852 -0.003700 0.043199
-0.008797 -0.002030 -0.043045
-0.010567 -0.001992 0.043215
-0.006296 -0.006280 0.043210
-0.006501 -0.005906 -0.043052
-0.002279 -0.004440 0.043222
0.001727 -0.005861 0.043225
-0.000370 -0.005778 -0.043041
0.003952 -0.002528 -0.043024
0.009033 -0.002405 -0.043014
0.016380 -0.005224 -0.043010
0.013543 -0.002049 -0.043005
0.020351 -0.001845 0.043270
0.027282 -0.003613 -0.042985
0.023527 -0.006114 0.043263
0.032261 -0.003886 -0.042978
0.027949 -0.003902 0.043277
0.036460 -0.002782 0.043296
0.037251 -0.003790 -0.042968
0.041763 -0.001693 -0.042954
0.046421 -0.004275 -0.042954
0.043479 -0.003209 0.043307
0.048080 -0.002043 0.043319
0.052159 -0.006419 -0.042950
0.057807 -0.006146 0.043323
0.053800 -0.002750 0.043327
0.053883 -0.002063 -0.042934
0.058462 -0.002485 -0.042927
0.065670 -0.005511 -0.042923
0.064370 -0.002805 0.043345
0.070640 -0.002300 0.043358
0.076250 -0.001904 0.043369
0.073693 -0.002366 -0.042900
0.077380 -0.005731 -0.042903
0.080522 -0.002542 -0.042888
0.084842 -0.002656 -0.042881
0.083100 -0.002948 0.043378
0.092851 -0.002476 -0.041839
0.090057 -0.005668 0.043382
0.095483 -0.006582 0.039602
0.096772 -0.005414 -0.038109
0.097339 -0.002251 0.038299
0.099911 -0.005955 0.035212
-0.102030 -0.000937 0.007332
-0.100650 0.001219 -0.039909
-0.102050 -0.001163 0.023652
-0.102060 0.000840 0.029119
-0.102080 0.001164 0.041593
-0.101980 -0.000287 -0.017903
-0.101910 0.002554 -0.045890
-0.101960 -0.000455 -0.031722
-0.101970 0.003259 -0.021729
-0.102070 -0.000436 0.033857
-0.102080 0.002539 0.037469
-0.101990 0.002389 -0.010060
-0.102050 -0.000327 0.019472
-0.102020 -0.001083 0.001928
-0.102030 -0.001142 0.012142
-0.102060 -0.001127 0.045811
-0.101970 -0.000140 -0.025677
-0.102000 -0.001411 -0.006470
-0.094230 0.002530 -0.043182
-0.094429 0.001472 0.043077
-0.090575 -0.001081 0.043076
-0.089060 0.003137 -0.043171
-0.086739 0.001272 0.043090
-0.082214 0.000200 -0.043168
-0.081532 -0.000708 0.043093
-0.077033 -0.000178 0.043103
-0.069673 0.001751 0.043122
-0.071027 0.002113 -0.043142
-0.065884 -0.000622 0.043121
-0.062206 0.000448 -0.043132
-0.060360 0.000911 0.043136
-0.057333 0.002516 -0.043117
-0.052369 -0.001496 0.043142
-0.056175 0.002463 0.043148
-0.051392 0.001066 -0.043111
-0.051539 0.003099 0.043158
-0.045420 0.001912 0.043165
-0.045921 -0.000384 -0.043105
-0.038456 0.000986 -0.043088
-0.034691 -0.001057 -0.043087
-0.036758 0.003011 0.043184
-0.030198 0.001164 0.043190
-0.024993 -0.000889 0.043193
-0.019810 0.001272 0.043208
-0.020598 0.002814 -0.043051
-0.013744 0.002081 -0.043041
-0.014544 0.001467 0.043218
-0.007608 0.002118 -0.043030
-0.006040 -0.001330 0.043225
-0.003491 -0.001057 -0.043032
-0.002596 0.002155 0.043242
0.000967 0.002429 -0.043014
0.001091 -0.001567 0.043237
0.005691 -0.000805 0.043247
0.012251 -0.001187 0.043258
0.010005 0.002858 0.043266
0.016555 0.000964 -0.042991
0.014995 0.003090 0.043276
0.022264 -0.000119 -0.042984
0.027613 0.000617 0.043290
0.023103 0.001610 0.043285
0.032102 0.000279 0.043297
0.028826 0.001427 -0.042968
0.033695 0.000422 -0.042962
0.035775 0.003266 0.043313
0.040103 0.001445 0.043315
0.047546 0.001663 -0.042934
0.045893 0.001668 0.043326
0.056813 0.000655 0.043342
0.061142 0.000259 0.043349
0.062474 -0.000178 -0.042913
0.069316 0.001859 -0.042895
0.076685 0.001148 -0.042884
0.081927 0.003058 -0.042869
0.087482 -0.000310 0.043394
0.083055 0.003346 0.043397
0.089245 0.000320 -0.042864
0.093926 0.001015 0.041532
0.094631 0.001232 -0.040509
0.097628 0.002901 -0.037520
0.099747 0.002050 0.035833
0.099881 -0.000328 -0.035425
0.102130 -0.000758 0.032964
-0.099265 0.006427 0.043083
-0.102020 0.007841 0.006893
-0.102050 0.007388 0.023605
-0.101940 0.004118 -0.036307
-0.102010 0.008146 0.000257
-0.102070 0.003887 0.033129
-0.098767 0.007360 -0.043176
-0.102030 0.004446 0.015083
-0.101960 0.006786 -0.026905
-0.102000 0.003510 -0.003546
-0.102040 0.007923 0.018794
-0.102020 0.003511 0.005421
-0.099648 0.006891 -0.033409
-0.101980 0.006132 -0.017393
-0.102070 0.007650 0.035132
-0.100840 0.007400 0.039200
-0.101980 0.005828 -0.012894
-0.101950 0.004160 -0.030757
-0.102010 0.003541 0.045334
-0.102030 0.003482 0.010593
-0.093499 0.006771 -0.043168
-0.089853 0.004407 0.043094
-0.086199 0.006447 -0.043156
-0.083447 0.005978 0.043110
-0.077854 0.003847 -0.043149
-0.078521 0.006948 0.043122
-0.074735 0.004298 0.043120
-0.073833 0.005338 -0.043137
-0.068165 0.005545 -0.043127
-0.069943 0.006150 0.043134
-0.062790 0.005629 0.043145
-0.059422 0.008274 0.043159
-0.054306 0.006198 -0.043100
-0.049761 0.007708 0.043175
-0.047824 0.006260 -0.043089
-0.040821 0.004880 0.043182
-0.040957 0.004649 -0.043081
-0.036601 0.007709 -0.043064
-0.032574 0.004186 -0.043068
-0.032256 0.005456 0.043199
-0.027857 0.007471 0.043213
-0.023827 0.003894 0.043209
-0.026413 0.004125 -0.043057
-0.017539 0.006283 0.043228
-0.016472 0.007410 -0.043030
-0.010309 0.004410 0.043235
-0.011251 0.006156 -0.043024
-0.002750 0.007133 0.043256
-0.002805 0.004905 -0.043013
-0.006684 0.007175 -0.043013
0.004829 0.007890 0.043272
0.003865 0.003693 0.043258
0.004948 0.003958 -0.043002
0.012768 0.003484 -0.042990
0.019506 0.004219 0.043287
0.019289 0.005181 -0.042973
0.026226 0.004815 0.043301
0.023898 0.004105 -0.042968
0.028919 0.005754 -0.042954
0.035339 0.007896 0.043326
0.036189 0.004742 -0.042945
0.040700 0.006634 -0.042931
0.047267 0.006099 0.043342
0.051165 0.003680 0.043341
0.048482 0.008276 -0.042912
0.055787 0.005560 0.043355
0.054457 0.003428 -0.042916
0.059949 0.004794 -0.042902
0.062946 0.004755 0.043365
0.072897 0.005803 0.043386
0.068177 0.006003 0.043378
0.069810 0.007002 -0.042878
0.074501 0.008138 -0.042866
0.077575 0.003995 0.043389
0.078330 0.006257 -0.042865
0.091758 0.006277 0.042788
0.092327 0.004572 -0.042078
0.088320 0.006215 -0.042848
0.094935 0.007740 0.039976
0.096453 0.007831 -0.038180
0.101540 0.003600 -0.032997
0.101260 0.006424 0.033479
0.102790 0.007950 -0.030881
-0.100440 0.012520 -0.036763
-0.099811 0.010737 0.032613
-0.100840 0.012388 0.038047
-0.101940 0.008355 -0.037862
-0.102030 0.010737 0.014214
-0.101970 0.012475 -0.017237
-0.102060 0.012994 0.044104
-0.101930 0.010112 -0.041891
-0.102040 0.012911 0.024573
-0.101980 0.012390 -0.011772
-0.101990 0.009013 -0.007074
-0.097334 0.012181 -0.043158
-0.099214 0.009728 -0.030066
-0.101960 0.008472 -0.022337
-0.102050 0.010487 0.028271
-0.102010 0.012100 0.006607
-0.092646 0.011180 -0.043153
-0.096779 0.012898 0.043107
-0.094873 0.008498 0.043097
-0.090610 0.008848 0.043106
-0.087170 0.013313 0.043126
-0.087358 0.012153 -0.043141
-0.091575 0.013131 0.043117
-0.083204 0.010558 0.043124
-0.081707 0.008749 -0.043141
-0.072797 0.013169 -0.043112
-0.076973 0.009561 -0.043130
-0.075160 0.010027 0.043137
-0.069761 0.009957 -0.043116
-0.066651 0.010582 0.043154
-0.065612 0.012432 -0.043102
-0.058898 0.012574 0.043173
-0.060281 0.012910 -0.043091
-0.061712 0.008554 -0.043106
-0.053982 0.008500 0.043170
-0.051230 0.009126 -0.043086
-0.045277 0.010476 0.043191
-0.045744 0.011830 -0.043068
-0.039492 0.009124 0.043197
-0.037449 0.012628 -0.043051
-0.041261 0.010546 -0.043064
-0.034149 0.011795 0.043215
-0.031045 0.010565 -0.043046
-0.026616 0.013315 -0.043030
-0.022378 0.009197 -0.043035
-0.022015 0.010979 0.043234
-0.014664 0.012875 0.043253
-0.013193 0.008433 0.043242
-0.008660 0.010213 0.043255
-0.010685 0.012225 -0.043005
-0.006397 0.012017 -0.042998
0.000194 0.011560 -0.042988
-0.001828 0.012013 0.043273
0.007802 0.008686 -0.042983
0.003763 0.012718 0.043285
0.003412 0.008573 -0.042991
0.004656 0.013341 -0.042974
0.010903 0.012624 0.043297
0.012732 0.009371 -0.042972
0.014429 0.008727 0.043292
0.017782 0.012229 0.043308
0.020334 0.010739 -0.042954
0.024182 0.008770 -0.042954
0.024926 0.013334 -0.042939
0.023462 0.011504 0.043316
0.030581 0.010050 0.043324
0.028943 0.010243 -0.042941
0.033122 0.009051 -0.042937
0.041154 0.011444 -0.042915
0.041760 0.009453 0.043342
0.038753 0.012462 0.043346
0.052681 0.010282 0.043364
0.052892 0.008716 -0.042903
0.055775 0.012216 -0.042887
0.060212 0.009433 -0.042888
0.059450 0.008916 0.043372
0.064722 0.009122 -0.042881
0.064390 0.009208 0.043381
0.068075 0.012526 -0.042865
0.068951 0.010211 0.043393
0.077584 0.011147 -0.042852
0.073411 0.010390 0.043401
0.079421 0.010857 0.043413
0.083792 0.009229 -0.042847
0.085670 0.009575 0.043420
0.087734 0.011023 -0.042834
0.092060 0.009261 -0.041773
0.090774 0.012641 0.042785
0.097075 0.013015 -0.036730
0.094420 0.013079 0.039713
0.099379 0.009628 -0.034935
0.098173 0.010051 0.036612
-0.101820 0.016760 -0.042302
-0.101980 0.017155 -0.011248
-0.102060 0.017489 0.034953
-0.101990 0.014925 -0.005122
-0.102000 0.014085 0.001515
-0.101930 0.017584 -0.038104
-0.101960 0.017174 -0.019110
-0.101960 0.015110 -0.022888
-0.099789 0.013436 -0.032252
-0.102050 0.016456 0.029761
-0.101540 0.017021 0.039832
-0.102020 0.017760 0.013278
-0.098540 0.017020 0.042944
-0.102030 0.016550 0.017365
-0.101950 0.015443 -0.028154
-0.102020 0.014707 0.010239
-0.093460 0.017086 -0.043137
-0.088544 0.016973 -0.043128
-0.083162 0.014350 -0.043127
-0.083523 0.016000 0.043140
-0.079536 0.018048 0.043153
-0.079187 0.013424 0.043140
-0.078832 0.015111 -0.043117
-0.072581 0.013681 0.043152
-0.072529 0.018296 -0.043096
-0.068941 0.016967 0.043169
-0.068625 0.015603 -0.043097
-0.063106 0.016784 -0.043084
-0.063295 0.015173 0.043173
-0.060070 0.018185 0.043188
-0.055737 0.014353 -0.043078
-0.055762 0.016787 0.043192
-0.050924 0.015002 0.043195
-0.050022 0.013744 -0.043070
-0.044565 0.018181 -0.043047
-0.043079 0.015440 0.043210
-0.038283 0.017274 -0.043039
-0.037599 0.014669 0.043217
-0.031683 0.017609 -0.043026
-0.027069 0.014175 0.043235
-0.019176 0.014215 0.043249
-0.019569 0.017375 -0.043005
-0.021459 0.013544 -0.043020
-0.013454 0.017701 -0.042993
-0.016991 0.013515 -0.043012
-0.015939 0.017372 0.043264
-0.009183 0.017234 0.043275
-0.004955 0.016016 0.043279
-0.006843 0.016511 -0.042985
-0.001822 0.016432 -0.042977
0.005300 0.017883 -0.042960
0.004587 0.017651 0.043301
0.010326 0.013573 -0.042964
0.015135 0.015632 0.043314
0.015317 0.014745 -0.042951
0.021359 0.017687 -0.042932
0.020886 0.015949 0.043325
0.027664 0.013975 0.043331
0.030037 0.018247 0.043348
0.031277 0.014892 -0.042923
0.033095 0.014774 0.043343
0.034260 0.017971 -0.042908
0.038527 0.015248 -0.042909
0.044867 0.018315 0.043374
0.045709 0.017292 -0.042890
0.043934 0.013716 0.043359
0.048364 0.014073 0.043368
0.048476 0.013572 -0.042896
0.055268 0.016455 -0.042875
0.054176 0.016038 0.043384
0.059888 0.015924 -0.042869
0.061324 0.014195 0.043391
0.066705 0.015769 0.043405
0.065098 0.016458 -0.042858
0.071475 0.016000 0.043414
0.075564 0.014412 0.043417
0.072937 0.015234 -0.042848
0.080607 0.015394 -0.042834
0.082124 0.014209 0.043428
0.085906 0.017173 0.043444
0.088488 0.016141 -0.042818
0.097347 0.014699 0.036272
0.093251 0.014235 -0.039950
0.099520 0.014427 -0.033502
0.101520 0.014029 0.031464
0.102610 0.017753 -0.028176
-0.102010 0.019299 0.008077
-0.102040 0.020697 0.026198
-0.102030 0.022027 0.021849
-0.097945 0.022913 -0.041281
-0.097308 0.019035 -0.043059
-0.102000 0.023020 0.003338
-0.097990 0.023149 0.041187
-0.101760 0.022998 0.038356
-0.101980 0.021688 -0.009961
-0.101960 0.020986 -0.016419
-0.102020 0.021966 0.017389
-0.101940 0.019745 -0.030135
-0.101950 0.021703 -0.024432
-0.101990 0.020083 -0.003367
-0.100560 0.019959 -0.034289
-0.102000 0.018788 0.001016
-0.093926 0.019904 0.043133
-0.093806 0.023183 -0.043119
-0.089565 0.021534 -0.043116
-0.087533 0.019327 0.043143
-0.084313 0.021183 -0.043108
-0.083126 0.020981 0.043156
-0.078801 0.019952 -0.043102
-0.072378 0.020048 0.043172
-0.066947 0.020298 -0.043080
-0.064786 0.022784 0.043194
-0.062239 0.022808 -0.043064
-0.057763 0.022082 -0.043058
-0.054589 0.019218 -0.043062
-0.051946 0.022273 0.043215
-0.049656 0.020023 -0.043050
-0.047688 0.018692 0.043212
-0.044738 0.022793 0.043229
-0.041767 0.023119 -0.043027
-0.038498 0.019344 0.043230
-0.033484 0.020089 0.043241
-0.035092 0.020964 -0.043022
-0.027867 0.019680 0.043250
-0.027256 0.019139 -0.043013
-0.020823 0.019695 0.043262
-0.013226 0.021165 0.043280
-0.009515 0.020742 -0.042977
-0.004502 0.021671 -0.042965
-0.004576 0.022655 0.043300
-0.000791 0.020535 0.043300
0.000733 0.021512 -0.042957
0.003851 0.022580 0.043315
0.007864 0.022888 -0.042940
0.011839 0.020666 0.043323
0.010341 0.019304 -0.042946
0.017359 0.020161 0.043331
0.016221 0.019598 -0.042935
0.025834 0.023305 -0.042907
0.023788 0.019165 0.043340
0.030021 0.019260 -0.042912
0.033654 0.022580 -0.042895
0.034449 0.019526 0.043360
0.042433 0.021668 -0.042882
0.040541 0.022906 0.043381
0.038171 0.020062 -0.042895
0.039428 0.018592 0.043366
0.047364 0.023297 -0.042869
0.049671 0.019546 -0.042876
0.049349 0.019591 0.043386
0.053520 0.020793 0.043397
0.054633 0.021937 -0.042860
0.060170 0.020868 0.043409
0.062431 0.019987 -0.042852
0.064860 0.021751 0.043420
0.071091 0.019085 -0.042839
0.070029 0.020424 0.043425
0.073842 0.023294 0.043441
0.075513 0.022020 -0.042823
0.079189 0.020057 0.043440
0.080392 0.020677 -0.042818
0.086372 0.022560 -0.042221
0.090427 0.021747 -0.039620
0.090063 0.019647 0.041092
0.097375 0.018456 -0.034489
0.097027 0.021922 0.034151
0.094270 0.020387 0.037338
0.097765 0.022940 -0.032421
0.093702 0.021893 -0.036846
0.100740 0.022927 -0.028351
0.100350 0.019842 0.031080
0.100090 0.019616 -0.031041
-0.101330 0.024986 0.034323
-0.101980 0.025786 -0.003232
-0.102010 0.024389 0.013137
-0.100070 0.024205 -0.027595
-0.101930 0.024495 -0.033945
-0.101900 0.023728 -0.038169
-0.101970 0.026229 -0.009246
-0.102030 0.026947 0.021489
-0.098818 0.024696 -0.014815
-0.102040 0.023629 0.029820
-0.101950 0.026893 -0.021615
-0.101990 0.027421 0.002128
-0.102000 0.025360 0.007866
-0.100270 0.028093 -0.025557
-0.100220 0.027327 0.037960
-0.092191 0.027787 -0.042971
-0.095480 0.026903 0.041483
-0.091534 0.024351 0.043151
-0.087401 0.026225 -0.043098
-0.087049 0.026286 0.043165
-0.082996 0.025449 -0.043093
-0.077256 0.023611 0.043174
-0.078515 0.024574 -0.043088
-0.073985 0.023907 -0.043082
-0.074388 0.028067 0.043193
-0.068369 0.025231 0.043195
-0.069611 0.025620 -0.043069
-0.062799 0.026899 0.043210
-0.058962 0.023652 0.043207
-0.057770 0.026676 -0.043045
-0.055077 0.025729 0.043220
-0.053093 0.025866 -0.043039
-0.048139 0.026085 0.043233
-0.048857 0.028131 -0.043024
-0.043718 0.027095 -0.043019
-0.040019 0.028038 0.043253
-0.037660 0.027739 -0.043006
-0.037370 0.024307 0.043247
-0.032902 0.024679 -0.043007
-0.031473 0.024897 0.043259
-0.027109 0.024121 0.043264
-0.027715 0.024227 -0.042999
-0.022318 0.026233 0.043279
-0.021140 0.024554 -0.042986
-0.018558 0.023644 0.043278
-0.016896 0.025231 -0.042977
-0.014162 0.025421 0.043291
-0.012799 0.027234 -0.042963
-0.008981 0.024320 0.043297
-0.006885 0.026943 -0.042954
-0.003179 0.027022 0.043316
0.002606 0.026079 -0.042940
0.004496 0.028105 0.043332
0.011778 0.027468 -0.042919
0.008543 0.025174 0.043331
0.015975 0.024464 -0.042921
0.013923 0.025154 0.043340
0.019245 0.026676 0.043354
0.021004 0.023599 -0.042914
0.023592 0.023466 0.043352
0.023008 0.028304 -0.042897
0.025765 0.027765 0.043369
0.030382 0.023878 0.043365
0.030268 0.027329 -0.042887
0.035763 0.024456 0.043377
0.041377 0.026747 -0.042869
0.045834 0.026013 0.043399
0.050694 0.026375 0.043409
0.048228 0.027797 -0.042854
0.055667 0.026336 -0.042845
0.056653 0.024955 0.043415
0.059364 0.023425 -0.042847
0.064785 0.023782 -0.042836
0.065484 0.026028 0.043434
0.071405 0.024854 -0.042821
0.068228 0.027812 -0.042818
0.077064 0.026141 0.043455
0.081062 0.024069 0.043456
0.080456 0.025627 -0.042803
0.087456 0.024368 0.041366
0.091743 0.024955 0.038047
0.097877 0.026499 0.030433
0.093363 0.027445 -0.034533
0.102620 0.026354 -0.023069
0.100160 0.027117 -0.026581
0.101350 0.025162 0.026382
-0.099154 0.029595 0.009213
-0.100950 0.032282 0.024892
-0.102020 0.031661 0.019934
-0.101990 0.030791 0.005180
-0.099320 0.028355 0.014577
-0.099825 0.032483 0.012559
-0.099299 0.031553 -0.004970
-0.101940 0.033169 -0.026545
-0.101670 0.030358 0.032289
-0.099568 0.029200 -0.017157
-0.098756 0.031482 0.036513
-0.101960 0.031801 -0.012894
-0.101950 0.031274 -0.021242
-0.100640 0.028441 0.027388
-0.101930 0.028810 -0.030096
-0.101920 0.028492 -0.035459
-0.101970 0.031818 -0.008362
-0.095544 0.029206 -0.040374
-0.095221 0.031285 0.039250
-0.090603 0.030433 0.042690
-0.083173 0.028861 0.043180
-0.084768 0.029639 -0.043084
-0.082991 0.033329 0.043193
-0.077924 0.031600 -0.043065
-0.078789 0.028544 0.043186
-0.073395 0.031403 -0.043058
-0.068836 0.031574 -0.043049
-0.068404 0.033264 0.043219
-0.064056 0.031201 0.043220
-0.065620 0.028447 -0.043053
-0.059307 0.029829 0.043225
-0.060726 0.030994 -0.043037
-0.052995 0.030729 -0.043024
-0.050216 0.030475 0.043243
-0.045315 0.032219 -0.043006
-0.043544 0.033048 0.043262
-0.040760 0.031285 -0.043001
