ply
format ascii 1.0
element vertex 1697
property float x
property float y
property float z
end_header
-0.028621 -0.007343 -0.030263
-0.031782 -0.005364 -0.030882
-0.022250 -0.002017 0.030960
-0.017369 -0.004988 -0.030893
-0.021983 -0.004947 0.030522
-0.020306 -0.008132 0.029805
-0.026331 -0.005336 -0.030884
-0.018242 -0.010221 -0.029361
-0.023616 -0.008010 0.029831
-0.016998 -0.010401 0.029297
-0.017676 -0.002007 -0.031013
-0.021966 -0.004666 -0.030909
-0.022453 -0.008875 -0.029782
-0.020122 -0.006946 -0.030382
-0.025586 -0.005041 0.030499
-0.016636 -0.006335 0.030212
-0.012614 -0.009622 -0.029545
-0.012511 -0.001180 0.030931
-0.014202 -0.003154 -0.030965
-0.007793 -0.004146 -0.030921
-0.010773 -0.008670 0.029691
-0.013043 -0.004374 0.030657
-0.014210 -0.008613 0.029701
-0.007727 -0.010421 -0.029293
-0.011210 -0.005070 -0.030886
-0.015873 -0.002997 0.030965
-0.009233 -0.007370 -0.030245
-0.009383 -0.006002 0.030292
-0.016414 -0.008034 -0.030041
-0.009394 -0.003028 0.030962
-0.013725 -0.006920 -0.030387
0.001825 -0.009579 0.029494
0.003188 -0.008868 -0.029771
-0.000285 -0.004727 0.030584
-0.002596 -0.007550 0.029948
0.000680 -0.004569 -0.030900
-0.006295 -0.007392 0.029981
-0.002270 -0.002853 -0.030971
0.000710 -0.001195 -0.031036
-0.005210 -0.002714 -0.030978
-0.000512 -0.010572 -0.029242
0.003335 -0.001977 0.030972
-0.006211 -0.006871 -0.030399
-0.001106 -0.010460 0.029293
0.000069 -0.007418 -0.030225
-0.005475 -0.004436 0.030646
-0.004082 -0.009978 -0.029429
-0.002610 -0.005773 -0.030739
0.004744 -0.007788 0.029898
0.011844 -0.009255 0.029573
0.003585 -0.005003 0.030524
0.007370 -0.005831 -0.030716
0.008355 -0.005033 0.030521
0.006325 -0.002385 0.030991
0.010408 -0.009540 -0.029558
0.008900 -0.001851 -0.031005
0.011105 -0.006440 0.030205
0.012740 -0.003420 -0.030939
0.005870 -0.001456 -0.031022
0.009465 -0.002208 0.030985
0.003549 -0.005904 -0.030695
0.007544 -0.010436 0.029304
0.006578 -0.008690 -0.029825
0.010999 -0.006238 -0.030587
0.012655 -0.002020 0.030980
0.016784 -0.011005 0.029124
0.020915 -0.001643 0.030969
0.014855 -0.007424 0.029986
0.019325 -0.006875 0.030113
0.014259 -0.006943 -0.030365
0.018938 -0.010410 -0.029283
0.015148 -0.009821 -0.029468
0.022270 -0.001978 -0.030992
0.018919 -0.006415 -0.030528
0.017885 -0.003725 0.030822
0.021608 -0.009141 -0.029677
0.016980 -0.002567 -0.030971
0.022134 -0.008897 0.029660
0.022590 -0.005145 -0.030864
0.027965 -0.007626 0.029949
0.032960 -0.002327 -0.030972
0.026965 -0.004150 0.030731
0.027080 -0.003046 -0.030946
0.030860 -0.005477 -0.030814
0.031865 -0.007542 0.029970
0.030695 -0.004294 0.030700
0.032798 -0.009592 -0.029530
0.029949 -0.008416 -0.029898
0.024279 -0.007722 -0.030117
0.023785 -0.004415 0.030670
0.026378 -0.010436 -0.029270
0.025035 -0.007110 0.030064
0.027159 -0.006684 -0.030439
0.035335 -0.001164 0.030958
0.038300 -0.003990 -0.030902
0.034795 -0.007701 0.029936
0.043310 -0.004525 -0.030877
0.033955 -0.004648 0.030623
0.042285 -0.006143 0.030292
0.039235 -0.006547 0.030199
0.041864 -0.008991 0.029650
0.034809 -0.006310 -0.030552
0.036448 -0.009823 -0.029456
0.039055 -0.003471 0.030891
0.039054 -0.010326 0.029348
0.040318 -0.009890 -0.029433
0.040209 -0.006992 -0.030337
0.042060 -0.001143 -0.031015
0.047514 -0.010482 0.029318
0.052065 -0.007705 0.029946
0.047559 -0.008198 -0.029957
0.049775 -0.004140 0.030747
0.045905 -0.005802 0.030371
0.052885 -0.003865 0.030811
0.047135 -0.002624 0.031024
0.048355 -0.007534 0.029982
0.051660 -0.001599 -0.030991
0.053099 -0.006253 -0.030561
0.052938 -0.009806 -0.029453
0.043818 -0.008847 -0.029757
0.046380 -0.003971 -0.030898
0.049820 -0.004573 -0.030872
0.049218 -0.010835 -0.029134
0.044055 -0.003339 0.030924
0.044574 -0.010322 0.029353
0.062998 -0.007211 -0.029342
0.058625 -0.008218 0.029621
0.055285 -0.005690 0.030381
0.061235 -0.010733 0.028672
0.063145 -0.008415 0.028861
0.058505 -0.004702 0.030422
0.061295 -0.006290 0.029692
0.059278 -0.008406 -0.029595
0.056078 -0.009116 -0.029625
0.056820 -0.003407 -0.030851
0.060080 -0.003055 -0.030544
0.059225 -0.001791 0.030720
0.063030 -0.002823 -0.030056
0.067619 -0.003117 -0.028794
0.068397 -0.009019 -0.027178
0.065586 -0.001144 0.029459
0.073227 -0.003814 0.026252
0.064987 -0.010602 -0.027794
0.069326 -0.008404 0.026993
0.066576 -0.004385 0.028850
0.063515 -0.003996 0.029766
0.069236 -0.005098 0.027770
0.066406 -0.008084 0.028070
0.071227 -0.010698 0.025341
0.071207 -0.008333 -0.026232
0.071838 -0.004913 -0.026992
0.072378 -0.001690 -0.026920
0.066438 -0.007019 -0.028473
0.072557 -0.006949 0.025870
0.073215 -0.010106 -0.024683
-0.098000 0.002199 -0.031229
-0.099524 0.003065 -0.013029
-0.106060 0.006735 -0.023111
-0.097844 0.008148 0.006138
-0.106620 0.004488 -0.027982
-0.106610 0.000490 -0.025292
-0.103080 0.003731 -0.019300
-0.106650 0.003725 0.026986
-0.106650 0.008286 0.026445
-0.098794 0.000271 -0.012125
-0.103820 0.005093 -0.030707
-0.099916 0.004087 0.013130
-0.101220 0.000177 0.016050
-0.100230 0.008440 0.011600
-0.098165 0.000939 0.010640
-0.103670 0.006953 0.019139
-0.096916 0.005919 -0.006173
-0.101480 0.005439 0.015587
-0.096980 0.000580 -0.008848
-0.101280 0.007609 -0.014603
-0.106640 0.000873 0.024897
-0.106530 0.007620 0.023225
-0.102480 0.007778 0.029849
-0.105450 -0.000273 0.030138
-0.106620 0.007449 -0.026940
-0.097849 0.003642 -0.009850
-0.100670 0.001665 -0.015408
-0.098159 0.006235 0.008692
-0.105560 0.006375 0.029450
-0.100300 0.004626 -0.030846
-0.104280 0.001208 -0.021819
-0.096688 0.006537 0.003731
-0.105200 0.003885 -0.022758
-0.104770 0.002902 0.030416
-0.101640 0.000594 0.030810
-0.097202 0.003359 0.008360
-0.098846 0.006576 -0.010293
-0.097463 0.007937 -0.030098
-0.102830 0.007038 -0.017971
-0.102640 -0.000496 0.018561
-0.105510 0.003191 0.022980
-0.097192 0.005366 0.030603
-0.104340 0.000891 -0.031028
-0.103770 0.001796 0.020462
-0.106620 0.000458 -0.028360
-0.102410 0.004721 0.030642
-0.102420 0.003665 0.017868
-0.100360 -0.000587 -0.031118
-0.101260 -0.001021 -0.016415
-0.098167 0.001468 0.030776
-0.101020 0.004705 -0.015355
-0.096677 0.007512 0.000890
-0.095018 0.001640 0.030771
-0.091778 -0.000784 0.030871
-0.096613 0.000264 0.007148
-0.095891 -0.000103 -0.003189
-0.096214 0.002707 0.004554
-0.092134 0.008407 -0.029990
-0.092091 0.005302 -0.030688
-0.095151 0.007681 0.029883
-0.095847 0.002425 -0.000013
-0.088675 0.006953 -0.030314
-0.094184 0.004587 0.030653
-0.090763 0.001080 -0.031180
-0.088585 0.007329 0.029996
-0.087466 0.002366 0.030747
-0.095113 0.005861 -0.030564
-0.096168 0.005042 -0.001396
-0.096083 0.002849 -0.003853
-0.090136 0.004357 0.030664
-0.087397 -0.000956 -0.031095
-0.095845 -0.000009 0.002245
-0.096582 0.002899 -0.006762
-0.093987 -0.000467 -0.031119
-0.091684 0.007289 0.030007
-0.094248 0.002840 -0.031244
-0.088417 0.003081 -0.031186
-0.079452 0.007689 0.029888
-0.082580 0.007155 0.030053
-0.078336 0.007997 -0.030074
-0.080663 0.004897 -0.030773
-0.082308 0.008338 -0.029999
-0.085698 0.006781 0.030168
-0.084875 0.001797 -0.031205
-0.080576 0.004936 0.030646
-0.077317 0.000015 0.030847
-0.080379 0.001673 -0.031198
-0.081451 0.002040 0.030762
-0.084316 0.000237 0.030833
-0.084802 0.003665 0.030695
-0.084446 0.005265 -0.030692
-0.070312 0.002990 -0.031196
-0.067519 0.006027 -0.030510
-0.073754 0.000443 0.030832
-0.071299 0.002242 0.030760
-0.071729 0.008315 -0.029997
-0.067659 0.003142 0.030726
-0.068186 -0.001057 0.030895
-0.074638 0.006683 0.030205
-0.074531 0.001334 -0.031180
-0.068662 0.007182 0.030052
-0.072770 0.005217 -0.030696
-0.075294 0.008563 -0.029944
-0.075756 0.005694 -0.030590
-0.075821 0.003873 0.030692
-0.071524 0.006320 0.030319
-0.069432 -0.000314 -0.031111
-0.058291 0.007496 0.029959
-0.060262 0.005494 -0.030626
-0.059082 0.008194 -0.030017
-0.056753 0.001195 -0.031165
-0.064695 0.008208 -0.030017
-0.065935 0.008582 0.029618
-0.063762 0.001105 0.030810
-0.059795 0.003399 0.030720
-0.060238 0.000150 0.030851
-0.061459 0.001086 -0.031163
-0.063877 0.004997 -0.030740
-0.066472 0.000530 -0.031143
-0.062404 0.006554 0.030252
-0.064530 0.004145 0.030687
-0.057474 0.004503 -0.030847
-0.048862 -0.001045 0.030906
-0.053135 -0.001072 0.030904
-0.054267 0.003134 0.030734
-0.053103 0.002064 -0.031198
-0.050933 0.004688 -0.030801
-0.049975 0.002674 0.030755
-0.055089 0.006517 -0.030392
-0.051466 0.006400 0.030305
-0.047080 0.001315 0.030811
-0.048097 0.008747 -0.029886
-0.048057 0.005778 -0.030554
-0.053821 0.008083 0.029779
-0.047977 0.001255 -0.031162
-0.056303 0.005381 0.030620
-0.056157 -0.000497 0.030879
-0.037920 0.001389 -0.031162
-0.041841 -0.000741 0.030897
-0.042098 0.000960 -0.031147
-0.041695 0.004808 -0.030769
-0.041768 0.004258 0.030695
-0.045017 0.008323 -0.029979
-0.038952 0.007047 -0.030263
-0.045464 0.004387 -0.030866
-0.043482 0.008367 0.029696
-0.038444 0.006508 0.030278
-0.046601 0.005509 0.030585
-0.045055 0.000371 -0.031125
-0.038936 0.002895 0.030752
-0.043945 0.001441 0.030808
-0.036533 -0.001078 0.030914
-0.032324 0.007659 -0.030121
-0.030159 0.003825 -0.030984
-0.031944 0.008666 0.029609
-0.033356 0.005142 0.030664
-0.027674 0.006492 0.030288
-0.028012 0.001415 0.030818
-0.032944 0.000421 -0.031120
-0.035848 0.002049 0.030788
-0.035932 0.005441 -0.030623
-0.030892 0.003068 0.030750
-0.028918 0.007306 -0.030199
-0.027122 0.004601 -0.030807
-0.033745 0.003501 -0.031058
-0.025383 0.003133 0.030750
-0.025888 0.007770 -0.030092
-0.026643 -0.001055 -0.031057
-0.019410 0.002541 -0.031198
-0.021981 0.006907 0.030162
-0.025689 -0.001036 0.030919
-0.018102 -0.000906 0.030918
-0.022840 0.001257 0.030827
-0.017490 0.008790 -0.029858
-0.017673 0.003839 0.030726
-0.023095 0.005218 -0.030665
-0.023851 0.000006 -0.031098
-0.019751 0.001594 0.030815
-0.016950 0.004126 -0.030907
-0.020216 0.005749 -0.030544
-0.020566 -0.000657 -0.031069
-0.011067 -0.000197 -0.031083
-0.012792 0.003896 0.030726
-0.008923 0.006542 0.030282
-0.016232 0.006718 0.030224
-0.013616 0.003805 -0.030977
-0.009552 0.000916 0.030848
-0.007226 0.003587 0.030742
-0.012509 0.006821 0.030194
-0.016006 0.001122 -0.031139
-0.008715 0.002253 -0.031180
-0.007127 -0.000994 0.030927
-0.014884 0.000640 0.030857
-0.009403 0.005167 -0.030668
-0.002204 0.005741 0.030536
-0.000115 -0.001092 0.030935
0.003195 0.000955 0.030854
0.001531 0.007507 -0.030135
-0.005459 0.001082 -0.031131
-0.006289 0.005065 -0.030689
0.001187 0.006459 0.030314
-0.000114 0.002890 0.030774
-0.003765 -0.001051 0.030931
0.001881 0.001907 -0.031161
-0.004194 0.002147 0.030802
-0.003199 0.004616 -0.030789
-0.005653 0.007164 0.030090
-0.001379 0.002310 -0.031179
0.000341 0.004646 -0.030780
-0.001519 0.007336 -0.030175
0.009201 0.006446 -0.030369
0.011951 0.005331 -0.030618
0.009816 0.002980 0.030776
0.007351 0.002488 -0.031181
0.011821 -0.000079 -0.031075
0.006136 0.005842 0.030509
0.004541 0.007886 -0.030048
0.009297 0.007512 0.029990
0.006976 0.002268 0.030803
0.013195 0.001219 0.030849
0.012516 0.005035 0.030695
0.006301 0.005195 -0.030652
0.017831 0.003798 -0.030960
0.023211 0.005367 -0.030604
0.013727 0.008680 0.029628
0.016521 0.007100 -0.030217
0.014781 0.003231 -0.031090
0.015756 0.003061 0.030776
0.018631 0.000919 -0.031111
0.022906 0.004677 0.030715
0.015725 -0.000556 0.030922
0.018635 0.000435 0.030884
0.020347 0.006631 0.030270
0.018916 0.003427 0.030763
0.016797 0.006692 0.030249
0.021551 0.002660 -0.031180
0.015171 -0.000050 -0.031074
0.025736 0.003805 0.030752
0.024211 0.000951 -0.031109
0.026911 0.003671 -0.030983
0.031831 0.008447 -0.029905
0.030325 -0.001060 0.030951
0.031551 0.003878 -0.030934
0.032865 0.000544 0.030887
0.028571 0.007429 -0.030136
0.025945 -0.000972 0.030945
0.027351 0.000472 -0.031088
0.025127 0.007151 0.030110
0.029697 0.006893 0.030193
0.028195 0.000990 0.030867
0.024771 0.008171 -0.029971
0.023715 0.000979 0.030865
0.028876 0.003999 0.030745
0.030461 -0.000676 -0.031040
0.039141 0.005782 -0.030500
0.040501 0.008448 -0.029899
0.041306 0.001920 0.030837
0.033591 0.001088 -0.031110
0.036436 0.002912 0.030794
0.038495 0.000124 0.030908
0.034941 0.006264 -0.030394
0.043121 0.003106 -0.031100
0.033707 0.006456 0.030331
0.039451 0.000717 -0.031091
0.039296 0.005831 0.030529
0.036021 -0.000926 -0.031027
0.041245 -0.001007 0.030955
0.036337 0.008636 0.029653
0.036261 0.002335 -0.031158
0.043741 0.006330 -0.030374
0.049745 0.000106 0.030915
0.046907 0.007205 0.030105
0.050221 0.001636 -0.031122
0.050901 0.006668 -0.030294
0.047941 -0.000767 -0.031026
0.048016 0.002784 0.030805
0.047571 0.005613 -0.030533
0.050337 0.007457 0.030028
0.044781 0.000354 -0.031074
0.053006 0.002020 0.030839
0.052176 0.005173 0.030711
0.046891 0.002481 -0.031158
0.045096 0.001405 0.030860
0.043417 0.006779 0.030236
0.057931 0.000835 -0.030934
0.061121 0.008261 -0.029391
0.060321 0.004513 -0.030347
0.056141 0.004759 -0.030678
0.055465 -0.001061 0.030941
0.059916 0.001374 0.030502
0.061390 0.000300 -0.030486
0.058547 0.006818 0.030020
0.056991 0.007522 -0.030019
0.054827 0.007708 0.029945
0.062236 -0.000881 0.030222
0.063048 0.007702 0.029029
0.055060 -0.000909 -0.031004
0.053881 0.007560 -0.030091
0.056216 0.001941 0.030800
0.063341 0.006006 -0.029464
0.054001 0.002656 -0.031161
0.061006 0.004531 0.030231
0.064150 0.002129 -0.029992
0.072397 -0.000810 0.026881
0.066470 0.000123 -0.029284
0.068260 0.004120 -0.028449
0.063976 0.002393 0.029721
0.069138 0.005447 0.027866
0.071319 0.002458 -0.027590
0.069367 0.000105 0.028166
0.067580 0.007453 -0.027944
0.067427 0.002279 0.028768
0.070938 0.003115 0.027395
0.070190 0.005986 -0.027276
0.072530 0.008156 0.025484
0.066208 0.007162 0.028352
0.073319 0.004665 -0.026113
0.069359 0.008399 0.026861
0.073029 0.005111 0.026184
0.069329 0.000210 -0.028324
-0.106430 0.010734 0.021878
-0.106340 0.016712 -0.017706
-0.100070 0.013379 0.004849
-0.101020 0.015746 -0.002821
-0.106640 0.018690 0.016961
-0.104500 0.017124 0.025417
-0.103700 0.011418 0.016941
-0.099727 0.013425 0.027983
-0.102190 0.009328 0.015129
-0.100920 0.009018 -0.029857
-0.106650 0.018543 0.020971
-0.102340 0.015260 -0.027105
-0.105250 0.008989 -0.029260
-0.102740 0.013845 0.012649
-0.106620 0.013016 -0.022571
-0.099102 0.012418 0.001458
-0.100750 0.014183 -0.006342
-0.099011 0.013349 -0.028106
-0.106230 0.014080 -0.025885
-0.096916 0.017317 -0.026022
-0.103910 0.013433 0.027924
-0.102260 0.010451 -0.015055
-0.101930 0.012204 -0.028710
-0.103550 0.017141 0.010843
-0.098260 0.010374 -0.003808
-0.106620 0.016491 -0.023081
-0.099549 0.009621 0.008960
-0.097885 0.009877 0.002988
-0.106650 0.014200 0.021426
-0.106050 0.014093 -0.019615
-0.101340 0.010377 0.029039
-0.101410 0.014357 0.008056
-0.104340 0.009136 -0.019843
-0.104440 0.014345 -0.016638
-0.106620 0.009838 -0.023603
-0.102350 0.015397 -0.009869
-0.104960 0.017343 -0.025553
-0.104250 0.014575 0.015753
-0.099568 0.017881 0.025164
-0.105080 0.017325 0.014570
-0.099589 0.009825 -0.009239
-0.101040 0.012720 -0.009763
-0.103070 0.013789 -0.013917
-0.103860 0.017031 -0.012232
-0.101300 0.011395 0.011581
-0.101550 0.016249 0.004010
-0.105730 0.014810 0.018275
-0.100900 0.010395 -0.011844
-0.102090 0.018352 -0.025335
-0.104880 0.016946 -0.015103
-0.097908 0.010357 -0.000676
-0.104160 0.011716 -0.018172
-0.106650 0.011326 0.024995
-0.098209 0.009492 0.029316
-0.101700 0.015644 0.026578
-0.100720 0.015375 0.000923
-0.105610 0.011039 0.027941
-0.102740 0.017155 0.007753
-0.103460 0.018116 -0.009214
-0.106610 0.010613 -0.026617
-0.102050 0.016775 -0.005728
-0.099445 0.012949 -0.002557
-0.106570 0.014461 0.024562
-0.091548 0.016797 0.025854
-0.089753 0.010676 -0.029477
-0.089680 0.011232 0.028779
-0.087115 0.013474 0.027958
-0.093090 0.013075 0.028202
-0.095725 0.017040 0.025698
-0.096212 0.011591 0.028663
-0.087526 0.016788 -0.026294
-0.092507 0.013037 -0.028265
-0.093037 0.009793 0.029226
-0.090002 0.013961 0.027648
-0.094600 0.010798 -0.029441
-0.088445 0.016394 0.026110
-0.090683 0.015172 -0.027144
-0.088008 0.012772 -0.028401
-0.095436 0.013479 -0.028036
-0.095558 0.014538 0.027281
-0.094031 0.016817 -0.026283
-0.076840 0.017257 0.025569
-0.082572 0.014938 0.027034
-0.086023 0.009879 0.029202
-0.081591 0.012481 0.028393
-0.077288 0.013245 0.028107
-0.080669 0.016158 -0.026620
-0.077902 0.015154 -0.027145
-0.079442 0.011987 -0.028808
-0.082898 0.013360 -0.028090
-0.084730 0.010571 -0.029498
-0.083668 0.018572 -0.025119
-0.085264 0.015977 0.026375
-0.085822 0.018513 0.024772
-0.082889 0.018204 0.024968
-0.085900 0.014625 -0.027428
-0.072253 0.014266 -0.027607
-0.076078 0.010328 0.029067
-0.073279 0.017871 0.025183
-0.070418 0.012616 0.028357
-0.073215 0.014562 0.027276
-0.068568 0.008982 -0.029846
-0.069518 0.015289 0.026818
-0.074521 0.018659 -0.025033
-0.068646 0.010049 0.029158
-0.071829 0.010146 0.029126
-0.067379 0.012262 -0.028655
-0.072447 0.016890 -0.026229
-0.068621 0.015317 -0.027052
-0.075242 0.012479 -0.028547
-0.070682 0.011189 -0.029221
-0.065255 0.017814 0.025223
-0.062902 0.012767 -0.028388
-0.060389 0.017965 0.025129
-0.065165 0.012819 0.028297
-0.061507 0.010041 0.029165
-0.058551 0.012811 0.028303
-0.059672 0.011832 -0.028876
-0.066470 0.017145 -0.026093
-0.065477 0.015330 0.026793
-0.061347 0.014064 0.027597
-0.063006 0.016180 -0.026597
-0.060599 0.014436 -0.027510
-0.057128 0.016822 0.025854
-0.060133 0.017299 -0.026008
-0.057514 0.014073 -0.027699
-0.056417 0.010750 -0.029440
-0.047228 0.018441 -0.025214
-0.048609 0.013490 0.027965
-0.055379 0.010512 0.029021
-0.050769 0.009972 0.029192
-0.054018 0.012824 -0.028352
-0.047756 0.017979 0.025127
-0.051452 0.018058 -0.025570
-0.055020 0.015644 -0.026873
-0.050031 0.016064 0.026337
-0.052733 0.012750 0.028325
-0.051185 0.009301 -0.029763
-0.049649 0.015142 -0.027132
-0.047736 0.008888 0.029531
-0.047424 0.013241 -0.028129
-0.053961 0.016513 0.026052
-0.051134 0.012354 -0.028597
-0.044474 0.018541 0.024772
-0.043360 0.015969 0.026399
-0.040296 0.010200 -0.029554
-0.043466 0.018598 -0.025066
-0.039972 0.014602 -0.027409
-0.039773 0.013012 0.028250
-0.043354 0.016060 -0.026646
-0.040649 0.010290 0.029098
-0.043419 0.012290 -0.028625
-0.038729 0.018447 0.024835
-0.044527 0.011499 0.028719
-0.036858 0.013302 0.028090
-0.036731 0.015012 -0.027192
-0.039749 0.015603 0.026633
-0.035428 0.018619 -0.025041
-0.034374 0.009701 -0.029663
-0.027485 0.017088 -0.026097
-0.031233 0.014909 -0.027243
-0.031304 0.011411 0.028753
-0.036114 0.012032 -0.028755
-0.035385 0.016924 0.025800
-0.035291 0.009496 0.029348
-0.030813 0.010652 -0.029446
-0.028413 0.015042 0.026993
-0.028326 0.013599 -0.027928
-0.031469 0.015125 0.026939
-0.031127 0.018281 -0.025350
-0.030722 0.017597 0.025376
-0.034022 0.016101 -0.026620
-0.021584 0.012350 -0.028579
-0.021071 0.012666 0.028368
-0.024811 0.015746 -0.026799
-0.019513 0.017877 -0.025678
-0.021531 0.015574 -0.026887
-0.019185 0.015946 0.026426
-0.025981 0.012878 0.028299
-0.020480 0.009764 -0.029640
-0.026276 0.009797 0.029259
-0.017108 0.013467 0.027994
-0.018249 0.018464 0.024834
-0.023679 0.015925 0.026438
-0.023388 0.010796 0.028949
-0.018173 0.013822 -0.027805
-0.021663 0.018863 0.024580
-0.026003 0.010770 -0.029412
-0.026400 0.016906 0.025815
-0.018986 0.009360 0.029399
-0.008238 0.013602 0.027913
-0.010838 0.009018 -0.029802
-0.011929 0.010196 0.029142
-0.008774 0.010294 0.029113
-0.007764 0.012441 -0.028522
-0.014208 0.009320 -0.029736
-0.016157 0.010293 0.029110
-0.014969 0.012236 -0.028635
-0.007000 0.015109 -0.027122
-0.015433 0.016718 -0.026282
-0.012790 0.013572 0.027931
-0.009732 0.016963 -0.026150
-0.014935 0.015803 0.026518
-0.011846 0.014100 -0.027654
-0.010475 0.015577 0.026663
-0.008119 0.017534 0.025427
-0.010979 0.018776 0.024640
-0.014340 0.018379 0.024889
0.000062 0.010225 -0.029524
-0.001199 0.013573 -0.027924
0.002351 0.018049 -0.025539
-0.004009 0.012473 -0.028503
-0.004421 0.013128 0.028215
-0.006008 0.009067 -0.029788
-0.004172 0.009693 0.029303
-0.001161 0.012566 0.028409
0.000138 0.009774 0.029280
0.002429 0.012944 0.028293
-0.004729 0.017533 -0.025848
0.003201 0.012265 -0.028608
-0.003649 0.017336 0.025554
-0.000289 0.017642 0.025362
-0.003079 0.009877 -0.029604
-0.006120 0.015545 0.026686
-0.000820 0.018481 -0.025143
0.001411 0.014963 -0.027193
0.003122 0.018722 0.024681
0.008359 0.013161 0.028201
0.011701 0.009262 -0.029734
0.004451 0.014741 -0.027308
0.010220 0.015677 0.026610
0.004438 0.010229 0.029140
0.007081 0.013123 -0.028154
0.010591 0.013742 -0.027827
0.007122 0.010076 -0.029553
0.011222 0.018107 0.025074
0.007711 0.016346 -0.026462
0.007408 0.009962 0.029225
0.011078 0.010666 0.029007
0.003541 0.015982 0.026414
0.007090 0.015569 0.026677
0.006292 0.017977 0.025153
0.014089 0.013184 0.028188
0.018591 0.013353 -0.028026
0.014001 0.017298 0.025586
0.014662 0.010811 -0.029363
0.016101 0.014837 -0.027249
0.016111 0.017870 -0.025658
0.017499 0.013272 0.028134
0.021061 0.015371 -0.026966
0.022861 0.011512 -0.028990
0.020611 0.009669 -0.029636
0.021109 0.013126 0.028228
0.022130 0.015842 0.026511
0.016058 0.010850 0.028953
0.017852 0.010784 -0.029375
0.018221 0.017094 0.025717
0.018990 0.018750 -0.024880
0.013551 0.016185 -0.026544
0.021478 0.009851 0.029267
0.026970 0.018548 -0.025061
0.024398 0.010373 0.029106
0.024549 0.013514 0.027985
0.030349 0.012684 0.028389
0.027430 0.014752 0.027202
0.033208 0.009793 0.029291
0.029231 0.011504 -0.028990
0.031761 0.013511 -0.027935
0.029528 0.009870 0.029265
0.031830 0.015205 0.026918
0.025751 0.010971 -0.029272
0.026581 0.013704 -0.027837
0.025071 0.017739 0.025312
0.028911 0.015317 -0.026989
0.032651 0.017288 -0.025952
0.029111 0.017805 0.025273
0.024771 0.016190 -0.026534
0.041728 0.009577 0.029363
0.039249 0.012598 0.028420
0.042210 0.018259 -0.025316
0.042381 0.014916 -0.027191
0.035001 0.012383 -0.028525
0.035091 0.009547 -0.029655
0.042709 0.013352 0.028095
0.035948 0.011676 0.028706
0.038601 0.013103 -0.028144
0.040700 0.015306 0.026859
0.037651 0.016767 0.025933
0.035340 0.014633 0.027282
0.036091 0.015976 -0.026638
0.038232 0.010361 -0.029470
0.043151 0.016756 0.025942
0.035072 0.018608 0.024768
0.039451 0.015626 -0.026820
0.038970 0.018257 -0.025321
0.049239 0.013506 0.028001
0.050061 0.011248 -0.029110
0.047141 0.013368 -0.028000
0.045201 0.008972 -0.029779
0.048931 0.015947 -0.026645
0.051581 0.014564 -0.027369
0.052951 0.017750 0.025319
0.050800 0.015715 0.026604
0.044758 0.010666 0.029025
0.043381 0.012270 -0.028578
0.052589 0.012702 0.028395
0.045420 0.015130 0.026971
0.051211 0.017867 -0.025636
0.047491 0.017102 0.025726
0.045401 0.016361 -0.026430
0.048478 0.009999 0.029235
0.060181 0.014320 -0.027044
0.054350 0.015432 0.026785
0.059919 0.012316 0.028134
0.056121 0.014119 -0.027554
0.057781 0.010623 -0.029256
0.057370 0.015743 0.026460
0.056522 0.018850 0.024563
0.062730 0.013583 0.026979
0.057531 0.016552 -0.026187
0.060052 0.018278 0.024534
0.053602 0.010428 -0.029445
0.055538 0.011403 0.028773
0.059338 0.009527 0.029083
0.062441 0.016547 0.025165
0.063800 0.014719 -0.026085
0.068569 0.015438 -0.024124
0.071474 0.018005 0.020682
0.063791 0.012102 -0.027463
0.065980 0.016906 -0.024299
0.069160 0.012646 -0.025350
0.068080 0.010322 -0.027003
0.064219 0.010676 0.027811
0.070640 0.011578 0.025320
0.071978 0.017273 -0.020950
0.071829 0.014937 -0.022878
0.071582 0.014096 0.023275
0.067639 0.018810 -0.021889
0.065632 0.017236 0.023842
0.068542 0.015121 0.024077
0.067209 0.010973 0.026854
0.071879 0.009982 -0.025450
0.065271 0.009558 -0.028187
0.068823 0.017773 0.022282
-0.106070 0.020806 0.011539
-0.106590 0.021129 -0.013290
-0.096993 0.028654 -0.012222
-0.106620 0.027493 0.006899
-0.106610 0.024886 -0.002575
-0.103240 0.019045 0.005159
-0.106630 0.024525 -0.009757
-0.106620 0.020229 -0.017123
-0.103430 0.023542 -0.020546
-0.099098 0.022589 -0.021426
-0.106560 0.028482 -0.002750
-0.106630 0.028226 0.002534
-0.099850 0.024214 0.019247
-0.106630 0.026947 -0.007989
-0.102940 0.027407 0.014225
-0.106620 0.019572 -0.020159
-0.106330 0.025773 0.013506
-0.105610 0.023337 0.002578
-0.106140 0.025630 -0.014745
-0.105190 0.021317 0.008421
-0.106640 0.024514 0.007192
-0.106640 0.023104 0.016100
-0.104350 0.021650 -0.001250
-0.105320 0.023992 0.018574
-0.105100 0.028338 0.011416
-0.104940 0.021130 0.022024
-0.102210 0.025403 0.017957
-0.102760 0.018887 -0.001019
-0.106640 0.025788 0.010447
-0.098761 0.026555 -0.016066
-0.097506 0.026026 0.016857
-0.103010 0.026981 -0.015395
-0.101650 0.021960 0.021690
-0.105070 0.020894 -0.009447
-0.106070 0.023444 -0.018403
-0.099181 0.024792 -0.018854
-0.106630 0.025401 0.000450
-0.098939 0.019287 -0.024471
-0.105820 0.023202 -0.005112
-0.105090 0.019936 -0.023223
-0.105520 0.027704 -0.012637
-0.102450 0.025161 -0.018274
-0.104020 0.020846 -0.004258
-0.096682 0.021242 -0.022666
-0.098128 0.021381 0.022319
-0.102700 0.019519 0.024128
-0.101740 0.020785 -0.023091
-0.100760 0.028000 -0.013783
-0.096891 0.023403 0.020127
-0.103180 0.019667 0.001914
-0.099938 0.027760 0.013553
-0.106640 0.025630 0.004250
-0.090891 0.026736 0.015507
-0.087886 0.028272 -0.013343
-0.095632 0.023699 -0.020399
-0.089266 0.019858 0.023919
-0.093674 0.028169 -0.013512
-0.092416 0.027938 0.013214
-0.092903 0.025325 -0.018007
-0.086818 0.021990 -0.021969
-0.089953 0.021256 -0.022649
-0.095446 0.027044 0.014917
-0.093851 0.022628 0.020969
-0.092230 0.023160 -0.020893
-0.096120 0.025390 -0.017907
-0.093978 0.025571 0.017725
-0.087866 0.024279 0.019181
-0.088445 0.028825 0.011525
-0.088733 0.024155 -0.019853
-0.087905 0.026308 0.016323
-0.091531 0.026985 -0.015382
-0.095661 0.019866 0.023911
-0.092488 0.019240 -0.024509
-0.088273 0.022106 0.021537
-0.088736 0.019269 -0.024480
-0.088975 0.025791 -0.017266
-0.090869 0.024794 0.018621
-0.092563 0.019336 0.024247
-0.091243 0.021675 0.022003
-0.077441 0.018905 -0.024808
-0.077282 0.021077 -0.022804
-0.080829 0.026661 -0.015883
-0.080161 0.019341 0.024250
-0.085435 0.023055 0.020509
-0.084453 0.028045 -0.013700
-0.082757 0.025448 -0.017804
-0.083658 0.023950 -0.020158
-0.078684 0.027591 0.013881
-0.081214 0.022501 -0.021494
-0.084086 0.020852 -0.023016
-0.077639 0.024259 0.019207
-0.084924 0.027716 0.013641
-0.077861 0.025216 -0.018166
-0.077675 0.023342 -0.020716
-0.080768 0.023088 0.020475
-0.086228 0.026691 -0.015841
-0.080723 0.019304 -0.024442
-0.085730 0.020804 0.022949
-0.077053 0.026001 0.016911
-0.084728 0.026179 0.016569
-0.081653 0.027788 0.013506
-0.080122 0.025658 0.017563
-0.082252 0.021093 0.022636
-0.083030 0.024605 0.018829
-0.070566 0.019240 -0.024493
-0.068807 0.027274 0.014485
-0.068098 0.025245 0.018140
-0.072872 0.026244 0.016448
-0.069390 0.022939 0.020642
-0.070345 0.027999 -0.013759
-0.074474 0.023244 0.020308
-0.075211 0.028522 0.012106
-0.076420 0.028632 -0.012270
-0.067337 0.025943 -0.017008
-0.075433 0.026851 -0.015580
-0.076402 0.020607 0.023167
-0.072297 0.027605 0.013854
-0.073915 0.020922 -0.022944
-0.073503 0.028076 -0.013641
-0.068007 0.018916 0.024525
-0.066947 0.028471 0.012205
-0.073854 0.024767 -0.018873
-0.070748 0.020903 0.022848
-0.071648 0.024653 0.018783
-0.071311 0.022832 -0.021180
-0.070700 0.026031 -0.016873
-0.066944 0.019677 -0.024088
-0.069006 0.024620 -0.019100
-0.057527 0.025317 -0.017989
-0.058075 0.028292 -0.013285
-0.063164 0.028515 -0.012632
-0.062575 0.027249 0.014536
-0.062212 0.019281 -0.024450
-0.058046 0.027785 0.013517
-0.057956 0.023610 -0.020453
-0.058924 0.021157 -0.022716
-0.059951 0.025158 0.018239
-0.066488 0.027440 -0.014642
-0.062966 0.026725 -0.015767
-0.064860 0.020722 0.023047
-0.064788 0.024256 0.019214
-0.059826 0.026732 -0.015754
-0.061615 0.021205 0.022523
-0.061411 0.024998 -0.018498
-0.066641 0.022181 -0.021778
-0.061882 0.021653 -0.022261
-0.064687 0.024986 -0.018520
-0.063110 0.025785 0.017326
-0.057165 0.026382 0.016189
-0.062052 0.023359 0.020189
-0.058215 0.019774 0.023987
-0.066144 0.026583 0.015803
-0.060675 0.028644 0.011879
-0.053515 0.027963 -0.013802
-0.048144 0.025116 0.018289
-0.052372 0.025489 0.017883
-0.048611 0.026970 -0.015369
-0.051985 0.028444 0.012261
-0.056146 0.019316 -0.024413
-0.049688 0.028423 -0.012912
-0.051065 0.021565 -0.022335
-0.054482 0.027422 0.014208
-0.056436 0.021491 0.022215
-0.051015 0.027020 0.014975
-0.053792 0.022502 0.021121
-0.055335 0.024327 0.019142
-0.049118 0.023439 -0.020605
-0.055991 0.026871 -0.015530
-0.050428 0.019465 0.024185
-0.048667 0.028188 0.012749
-0.050287 0.025228 -0.018124
-0.050528 0.021971 0.021698
-0.051835 0.026564 -0.016014
-0.053978 0.025056 -0.018400
-0.055209 0.021630 -0.022278
-0.052755 0.023382 -0.020660
-0.054818 0.019352 0.024255
-0.041376 0.020991 0.022763
-0.042064 0.028354 0.012435
-0.038375 0.028757 0.011666
-0.041759 0.028070 -0.013624
-0.038560 0.025790 -0.017226
-0.045624 0.028544 -0.012517
-0.037609 0.028137 -0.013514
-0.038587 0.019214 -0.024495
-0.038027 0.026665 0.015655
-0.046569 0.020892 0.022868
-0.041930 0.024897 -0.018640
-0.045662 0.024951 -0.018560
-0.045513 0.027050 0.014919
-0.043280 0.026463 -0.016164
-0.042368 0.023780 0.019739
-0.046480 0.022249 -0.021700
-0.045230 0.024912 0.018512
-0.036838 0.024067 0.019431
-0.040913 0.026136 0.016662
-0.037085 0.021193 -0.022668
-0.046208 0.022874 0.020721
-0.039859 0.022702 0.020909
-0.042445 0.022535 -0.021434
-0.041016 0.020513 -0.023298
-0.044363 0.020676 -0.023151
-0.039338 0.022610 -0.021362
-0.029856 0.025885 0.017143
-0.027266 0.021956 0.021723
-0.035929 0.019477 0.024185
-0.027331 0.028271 -0.013294
-0.032639 0.028152 -0.013487
-0.029458 0.020302 -0.023484
-0.027251 0.027109 0.014812
-0.034661 0.027462 0.014135
-0.033444 0.025418 0.017967
-0.035042 0.025962 -0.016950
-0.029819 0.027822 0.013452
-0.035546 0.023389 -0.020641
-0.026940 0.024199 0.019291
-0.032319 0.022861 0.020740
-0.028357 0.025268 -0.018042
-0.028765 0.019625 0.024094
-0.031766 0.020580 0.023213
-0.031870 0.025452 -0.017756
-0.033389 0.021814 -0.022092
-0.031767 0.023651 -0.020397
-0.035101 0.028819 0.011550
-0.029110 0.026890 -0.015478
-0.035617 0.022135 0.021527
-0.027976 0.022304 -0.021637
-0.019292 0.028753 -0.011818
-0.019467 0.028321 0.012503
-0.025526 0.028336 0.012473
-0.023496 0.021370 -0.022495
-0.017990 0.027395 -0.014672
-0.021684 0.024269 0.019219
-0.022487 0.028211 0.012711
-0.025372 0.025761 -0.017261
-0.018285 0.020857 0.022918
-0.026203 0.024042 -0.019980
-0.022955 0.028061 -0.013622
-0.019849 0.026863 0.015281
-0.018923 0.022457 -0.021489
-0.023071 0.026400 0.016162
-0.021590 0.024889 -0.018637
-0.018694 0.024715 0.018735
-0.021097 0.022296 0.021357
-0.022594 0.019267 -0.024434
-0.025144 0.019281 0.024313
-0.025794 0.019976 -0.023782
-0.019719 0.020299 -0.023479
-0.018015 0.025615 -0.017486
-0.024172 0.022278 0.021375
-0.017146 0.022694 0.020927
-0.021182 0.026681 -0.015801
-0.012255 0.026169 0.016606
-0.009830 0.025245 -0.018064
-0.013693 0.028169 -0.013444
-0.009409 0.019461 -0.024245
-0.007425 0.021990 -0.021910
-0.012511 0.019221 -0.024469
-0.010595 0.027638 0.013808
-0.014690 0.021023 0.022739
-0.008456 0.028394 -0.012956
-0.009924 0.026989 -0.015307
-0.009471 0.025712 0.017477
-0.007826 0.026899 0.015217
-0.014122 0.027700 0.013689
-0.012697 0.024021 -0.020002
-0.016202 0.019210 -0.024482
-0.008934 0.021518 0.022205
-0.014437 0.024202 0.019294
-0.008997 0.023543 0.020010
-0.015166 0.026379 -0.016276
-0.006935 0.026767 -0.015655
-0.014410 0.021922 -0.021978
-0.015770 0.024569 -0.019138
-0.012124 0.022476 0.021166
-0.016309 0.026637 0.015715
-0.010537 0.021696 -0.022184
0.001045 0.028467 -0.012715
-0.003881 0.026924 0.015168
-0.003840 0.019779 -0.023948
-0.000240 0.028094 0.012941
0.000608 0.024968 -0.018494
-0.006094 0.024755 0.018698
-0.004659 0.028436 0.012289
0.002007 0.024898 0.018545
-0.002865 0.027914 -0.013838
-0.002664 0.024228 0.019269
-0.005788 0.019555 0.024149
-0.001533 0.025937 0.017051
-0.005772 0.025093 -0.018301
0.000919 0.026841 0.015329
-0.003623 0.026387 -0.016253
0.001089 0.023147 -0.020838
-0.000707 0.020766 0.023024
-0.005176 0.021901 0.021792
0.000345 0.023255 0.020326
-0.004141 0.023050 -0.020931
-0.000391 0.021143 -0.022687
0.000816 0.026693 -0.015766
0.006619 0.023536 -0.020475
0.007590 0.019258 -0.024421
0.003888 0.024356 -0.019458
0.011946 0.024330 0.019165
0.008592 0.019576 0.024143
0.003360 0.027976 0.013166
0.006437 0.025857 0.017205
0.010670 0.027741 0.013617
0.004676 0.023589 0.019964
0.012534 0.022179 0.021497
0.008006 0.024136 0.019373
0.006146 0.027418 -0.014614
0.009738 0.026413 0.016146
0.006840 0.027555 0.013970
0.011050 0.018881 -0.024766
0.004314 0.021462 0.022272
0.004007 0.026231 -0.016493
0.011669 0.022073 -0.021821
0.009887 0.026481 -0.016094
0.010718 0.024303 -0.019536
0.009505 0.028186 -0.013397
0.007879 0.021497 -0.022355
0.006707 0.025544 -0.017578
0.008904 0.022206 0.021467
0.004279 0.021285 -0.022553
0.019045 0.028440 -0.012779
0.014255 0.027946 -0.013774
0.022114 0.022361 0.021304
0.016908 0.026588 0.015815
0.020249 0.021169 -0.022648
0.021277 0.025611 0.017680
0.020380 0.028025 0.013077
0.016024 0.021773 0.021939
0.015098 0.023921 -0.020114
0.013588 0.026429 0.016118
0.020986 0.026679 -0.015771
0.019463 0.020028 0.023832
0.018458 0.024526 -0.019178
0.022115 0.028488 -0.012624
0.021578 0.024850 -0.018662
0.013423 0.019842 0.023977
0.013820 0.027823 0.013460
0.023159 0.026899 0.015224
0.015666 0.024310 0.019188
0.014627 0.026236 -0.016476
0.022920 0.019140 -0.024518
0.019185 0.023361 0.020218
0.014380 0.020636 -0.023143
0.016679 0.022097 -0.021795
0.017906 0.026637 -0.015840
0.029895 0.022734 0.020902
0.031562 0.019733 0.024054
0.029367 0.025072 0.018367
0.027225 0.028250 -0.013281
0.025110 0.028050 0.013033
0.024599 0.023110 -0.020856
0.025126 0.027127 -0.015058
0.028513 0.020420 0.023410
0.031120 0.019661 -0.024032
0.030225 0.028080 -0.013548
0.030081 0.028327 0.012505
0.033218 0.026462 0.016062
0.028698 0.025163 -0.018161
0.032479 0.023137 -0.020824
0.028149 0.022395 -0.021513
0.032576 0.024018 0.019510
0.030937 0.026192 -0.016533
0.023873 0.020163 0.023687
0.025137 0.025096 0.018339
0.029508 0.026690 0.015623
0.025270 0.020599 -0.023171
0.025514 0.022340 0.021328
0.024578 0.025077 -0.018300
0.035516 0.024483 0.019008
0.043145 0.028005 -0.013655
0.040176 0.024298 0.019210
0.034034 0.021188 0.022580
0.036659 0.023346 -0.020628
0.039925 0.028399 -0.012888
0.038867 0.025825 -0.017106
0.034746 0.027706 -0.014136
0.040118 0.026204 0.016553
0.035560 0.019059 -0.024584
0.039374 0.021917 0.021791
0.041170 0.020414 -0.023330
0.033598 0.024905 -0.018565
0.036255 0.022521 0.021135
0.038002 0.019591 0.024147
0.035070 0.027934 0.013253
0.041698 0.024637 -0.018983
0.037621 0.028652 0.011888
0.042491 0.028438 0.012296
0.038209 0.021218 -0.022591
0.041553 0.019969 0.023905
0.037009 0.026770 0.015474
0.034399 0.021488 -0.022344
0.040159 0.022963 -0.020979
0.047250 0.019363 -0.024294
0.045026 0.024903 0.018557
0.050524 0.021757 0.021969
0.050740 0.020378 -0.023356
0.051788 0.024392 -0.019360
0.050855 0.028583 -0.012285
0.048547 0.026054 -0.016736
0.051577 0.026427 -0.016143
0.049460 0.028105 0.012931
0.047105 0.028381 -0.012939
0.047089 0.026881 0.015265
0.046794 0.021899 0.021814
0.048489 0.021804 -0.022042
0.052329 0.027305 0.014458
0.050567 0.025456 0.017960
0.044025 0.022677 0.020970
0.044452 0.019110 0.024455
0.049852 0.019649 0.024115
0.045166 0.026594 -0.015885
0.045499 0.021199 -0.022603
0.045128 0.024843 -0.018653
0.046040 0.028158 0.012831
0.052806 0.023967 0.019575
0.047648 0.023922 -0.020089
0.043839 0.027118 0.014813
0.048266 0.023809 0.019743
0.056449 0.023040 -0.020829
0.058794 0.028853 -0.010674
0.061757 0.025005 -0.017179
0.061030 0.018897 -0.024022
0.062264 0.027953 -0.011811
0.056075 0.028274 -0.013136
0.058137 0.025685 -0.016999
0.059685 0.023096 0.020027
0.060686 0.026736 -0.014779
0.062614 0.021261 0.021322
0.059548 0.023341 -0.020189
0.056165 0.023442 0.020082
0.057529 0.026660 0.015425
0.056331 0.028528 0.012027
0.054057 0.025542 -0.017540
0.058717 0.025283 0.017832
0.061241 0.027893 0.012150
0.055067 0.025310 0.018099
0.053813 0.021094 0.022689
0.053610 0.019231 -0.024412
0.061719 0.026147 0.015289
0.059884 0.020916 0.022352
0.054099 0.021560 -0.022263
0.056794 0.021120 0.022567
0.059489 0.021010 -0.022350
0.057200 0.019463 -0.024067
0.062863 0.019061 0.023484
0.066614 0.027161 -0.010745
0.071810 0.024501 0.011647
0.069682 0.027028 -0.007597
0.069393 0.026202 -0.010646
0.069282 0.026605 0.009954
0.065994 0.019987 0.021485
0.072954 0.025856 0.006134
0.064291 0.027727 0.011118
0.064288 0.024950 0.016413
0.069049 0.024719 0.013721
0.072312 0.025652 -0.008144
0.065476 0.024464 -0.016477
0.072827 0.019147 -0.018670
0.069884 0.027264 0.006129
0.073215 0.022702 -0.013681
0.063469 0.020320 -0.022068
0.063636 0.023296 0.018795
0.066576 0.022704 0.018288
0.067013 0.028019 0.007478
0.072198 0.022533 0.015003
0.073010 0.026182 -0.005312
0.072939 0.026531 -0.002170
0.068890 0.028209 -0.003932
0.067338 0.021889 -0.019197
0.069786 0.028121 0.002456
0.070355 0.023722 -0.014507
0.068935 0.019920 0.020138
0.072347 0.026959 0.001520
0.069218 0.028229 -0.000549
0.071776 0.021693 -0.016560
0.065275 0.026416 -0.013503
0.069877 0.020286 -0.019405
0.064478 0.023211 -0.018936
0.070646 0.020975 0.017985
0.065930 0.026158 0.013181
-0.099592 0.030965 -0.000352
-0.100780 0.029184 0.010839
-0.104160 0.030962 0.001914
-0.097656 0.030060 -0.007711
-0.103950 0.030267 0.006071
-0.101080 0.029168 -0.010578
-0.103150 0.030113 -0.007550
-0.099917 0.030344 0.005970
-0.103160 0.030858 -0.003018
-0.105890 0.029559 -0.005474
-0.099722 0.030774 -0.005058
-0.100790 0.031048 0.002848
-0.098071 0.029665 0.008986
-0.097540 0.030885 0.003567
-0.104480 0.029114 -0.010120
-0.095602 0.028915 0.011354
-0.091905 0.028994 -0.011127
-0.095577 0.031018 0.000973
-0.089758 0.029741 0.008647
-0.093571 0.030892 -0.002121
-0.087743 0.030521 0.005184
-0.088995 0.030840 -0.003405
-0.096084 0.030301 0.006164
-0.091064 0.030965 -0.000322
-0.090695 0.030160 -0.007381
-0.094416 0.030743 -0.005517
-0.091748 0.030313 0.006107
-0.087203 0.030960 -0.000423
-0.089670 0.031078 0.002506
-0.093537 0.030893 0.003533
-0.094486 0.029842 -0.008406
-0.094259 0.029711 0.008782
-0.089148 0.029316 -0.010089
-0.096467 0.030873 -0.002626
-0.081265 0.030893 -0.002038
-0.080626 0.031028 0.002928
-0.077183 0.029927 -0.008116
-0.078193 0.029689 0.008878
-0.083592 0.028931 0.011327
-0.084865 0.029909 0.007902
-0.085066 0.029530 -0.009399
-0.079059 0.030979 0.000089
-0.081049 0.029020 -0.011029
-0.086123 0.031076 0.002460
-0.084033 0.030976 -0.000000
-0.084115 0.030601 0.004830
-0.081254 0.030159 0.006789
-0.077346 0.030457 0.005466
-0.083280 0.030488 -0.006324
-0.086402 0.030396 -0.006622
-0.078581 0.030773 -0.005007
-0.080224 0.030163 -0.007362
-0.080866 0.029414 0.010098
-0.084026 0.030850 -0.003106
-0.069743 0.029507 0.009682
-0.069732 0.029206 -0.010422
-0.074722 0.030145 0.006848
-0.068534 0.030612 0.004776
-0.070784 0.031013 0.000974
-0.075597 0.031012 0.000936
-0.071357 0.030450 -0.006431
-0.071984 0.030634 0.004680
-0.072480 0.029513 -0.009438
-0.067228 0.030855 -0.002928
-0.074823 0.030864 -0.002754
-0.071730 0.030855 -0.002961
-0.075049 0.030572 -0.006045
-0.072835 0.029594 0.009298
-0.057697 0.029419 0.010074
-0.064805 0.029948 0.007725
-0.066550 0.030115 -0.007500
-0.056826 0.031004 0.000807
-0.062932 0.029762 -0.008629
-0.059969 0.030368 0.005858
-0.064156 0.030897 -0.001870
-0.065917 0.031012 0.000961
-0.057557 0.029545 -0.009320
-0.064176 0.028978 0.011241
-0.062787 0.030772 -0.004947
-0.064945 0.030619 0.004743
-0.059219 0.031058 0.002795
-0.060066 0.030927 -0.001121
-0.061240 0.029646 0.009066
-0.057776 0.030653 -0.005768
-0.062158 0.031033 0.002905
-0.060737 0.029077 -0.010825
-0.066472 0.029052 -0.010912
-0.056354 0.030863 -0.002651
-0.052953 0.030722 0.004285
-0.051905 0.029800 0.008379
-0.053256 0.029041 -0.010932
-0.053372 0.030179 -0.007281
-0.050040 0.029339 -0.009972
-0.056365 0.030032 0.007352
-0.052037 0.031028 0.001440
-0.047061 0.030167 -0.007312
-0.052665 0.030814 -0.003855
-0.048874 0.029793 0.008407
-0.049816 0.030513 0.005215
-0.050401 0.030903 -0.001652
-0.054054 0.030938 -0.000798
-0.054763 0.029330 0.010468
-0.047340 0.030847 -0.003009
-0.049896 0.030637 -0.005809
-0.056111 0.030784 0.004006
-0.049090 0.031035 0.001633
-0.039754 0.029162 -0.010530
-0.045965 0.030325 0.006046
-0.040796 0.030510 -0.006205
-0.038144 0.029935 -0.008048
-0.045816 0.031012 0.001073
-0.040629 0.029616 0.009198
-0.037764 0.030935 -0.000797
-0.045607 0.029563 0.009428
-0.040838 0.030901 -0.001662
-0.042525 0.030241 0.006421
-0.038098 0.030966 0.003196
-0.042748 0.030889 0.003540
-0.037059 0.030328 0.006033
-0.044217 0.030849 -0.002945
-0.038050 0.030772 -0.004811
-0.042859 0.029893 -0.008186
-0.034050 0.030126 -0.007431
-0.028399 0.029751 -0.008628
-0.028841 0.030921 0.003399
-0.032438 0.031002 0.000878
-0.035541 0.029737 0.008653
-0.031534 0.030765 -0.004988
-0.035810 0.029310 -0.010047
-0.028978 0.030962 -0.000077
-0.032143 0.029912 0.007879
-0.034005 0.030861 0.003665
-0.028378 0.029109 0.011000
-0.035395 0.030832 -0.003321
-0.028813 0.030277 0.006255
-0.032839 0.029109 -0.010692
-0.028238 0.030790 -0.004355
-0.032090 0.029246 0.010737
-0.024921 0.029997 0.007496
-0.022808 0.030198 -0.007185
-0.018062 0.030584 -0.005941
-0.021257 0.030794 -0.004209
-0.021649 0.029399 -0.009749
-0.022081 0.030187 0.006655
-0.025196 0.030794 -0.004223
-0.017248 0.030836 0.003770
-0.025771 0.030942 -0.000561
-0.021304 0.030962 -0.000058
-0.018120 0.030143 0.006848
-0.020116 0.029657 0.009007
-0.017236 0.029345 0.010395
-0.025732 0.029121 -0.010646
-0.024874 0.030789 0.003984
-0.020325 0.030782 0.004011
-0.013870 0.030995 0.000779
-0.011322 0.030477 -0.006278
-0.016235 0.030882 -0.002010
-0.008733 0.030987 0.000622
-0.009606 0.030064 0.007197
-0.007816 0.029350 0.010372
-0.014011 0.030068 0.007182
-0.013788 0.029315 0.010525
-0.012401 0.030764 0.004092
-0.014517 0.030766 -0.004884
-0.010067 0.029404 -0.009717
-0.008383 0.030598 -0.005885
-0.007158 0.029754 -0.008591
-0.013171 0.029757 -0.008591
-0.016385 0.029034 -0.010913
-0.009395 0.030763 0.004099
-0.009507 0.030860 -0.002522
-0.012530 0.030877 -0.002108
-0.005744 0.030892 0.003520
0.000240 0.030855 -0.002588
0.001755 0.030495 0.005283
0.001392 0.029496 0.009720
-0.003798 0.030265 -0.006952
-0.001532 0.030995 0.000867
-0.002771 0.030860 -0.002487
-0.001968 0.029224 0.010787
-0.005089 0.030788 -0.004300
0.000162 0.030409 -0.006484
-0.001077 0.029913 0.007870
0.000433 0.029409 -0.009693
0.001567 0.031028 0.001687
-0.004147 0.029734 0.008660
-0.002826 0.029273 -0.010130
-0.005592 0.030968 0.000165
-0.003385 0.030376 0.005811
-0.005486 0.028889 -0.011366
0.013338 0.030983 0.000615
0.007214 0.029988 0.007530
0.004615 0.030636 0.004656
0.004582 0.030125 -0.007389
0.009517 0.031062 0.002582
0.012323 0.029591 -0.009094
0.008434 0.029106 -0.010655
0.004004 0.029271 -0.010131
0.010515 0.030493 0.005291
0.003921 0.030789 -0.004212
0.009082 0.030447 -0.006350
0.003894 0.029961 0.007650
0.006328 0.030994 0.000846
0.007150 0.030817 -0.003513
0.013326 0.030750 0.004151
0.009409 0.030927 -0.000785
0.012502 0.029329 0.010462
0.009342 0.029274 0.010694
0.005842 0.029344 0.010392
0.012070 0.030830 -0.003170
0.003479 0.030919 -0.001008
0.016492 0.030086 -0.007503
0.018694 0.029981 0.007567
0.015444 0.030267 0.006296
0.020562 0.030199 -0.007135
0.017340 0.030846 -0.002753
0.018418 0.030993 0.000891
0.014844 0.028997 -0.010997
0.020715 0.030583 0.004891
0.016402 0.029385 0.010209
0.016096 0.031037 0.002871
0.022053 0.029796 0.008386
0.019902 0.029347 0.010380
0.023083 0.029460 -0.009503
0.020130 0.030794 -0.004019
0.022648 0.030998 0.001044
0.022820 0.030849 -0.002646
0.014651 0.030767 -0.004732
0.019053 0.029396 -0.009712
0.023772 0.030513 -0.006123
0.030374 0.029297 -0.010019
0.027183 0.029753 0.008573
0.033152 0.029542 0.009512
0.028035 0.030531 0.005116
0.033004 0.028891 -0.011319
0.029838 0.030934 -0.000503
0.032448 0.030991 0.000908
0.026572 0.030091 -0.007474
0.025568 0.030958 0.000087
0.031801 0.030605 -0.005818
0.027681 0.030776 -0.004448
0.028097 0.031041 0.002155
0.027254 0.029190 -0.010362
0.030796 0.030749 0.004151
0.023695 0.030592 0.004850
0.032369 0.030861 -0.002298
0.030424 0.030027 0.007353
0.034564 0.030204 0.006569
0.040103 0.029342 -0.009862
0.040517 0.031060 0.002654
0.040682 0.029500 0.009696
0.040851 0.030616 -0.005777
0.038914 0.030230 0.006454
0.036104 0.028927 -0.011198
0.042128 0.030946 -0.000128
0.037473 0.029669 0.008948
0.034786 0.030931 0.003338
0.038041 0.030779 -0.004287
0.034373 0.029722 -0.008647
0.035659 0.030908 -0.001130
0.035121 0.030703 -0.005500
0.037772 0.030179 -0.007179
0.038318 0.030970 0.000419
0.052859 0.030861 -0.002192
0.048694 0.029184 -0.010359
0.048949 0.030871 -0.001962
0.043864 0.030034 0.007321
0.053034 0.030155 0.006787
0.043973 0.029532 -0.009248
0.051648 0.030973 0.000575
0.051082 0.029299 0.010586
0.049764 0.030009 0.007435
0.052493 0.029916 -0.008007
0.046632 0.029977 -0.007818
0.045058 0.030988 0.000893
0.047666 0.030947 0.003267
0.045022 0.029403 0.010128
0.049161 0.030623 -0.005742
0.046865 0.030319 0.006056
0.043486 0.030883 0.003550
0.045210 0.030781 -0.004227
0.050546 0.030772 0.004047
0.052861 0.030742 -0.005140
0.060498 0.030546 0.000937
0.057408 0.030841 0.000068
0.063062 0.028960 -0.008087
0.059412 0.029752 -0.007526
0.058755 0.030139 0.005867
0.060449 0.030418 -0.002413
0.053756 0.030798 0.003928
0.061456 0.030131 0.004197
0.056093 0.029372 -0.009613
0.060083 0.029265 0.008979
0.057186 0.030818 0.003412
0.055683 0.029677 0.008772
0.055682 0.030359 -0.006486
0.061831 0.030086 -0.005021
0.057230 0.030730 -0.003030
0.065206 0.029560 0.003066
0.065639 0.029374 -0.001213
0.063463 0.028942 0.007706
0.065551 0.029247 -0.005010
0.075009 -0.015805 0.020140
0.082567 -0.019768 0.003967
0.074092 -0.023618 0.011356
0.079254 -0.021124 0.008766
0.074911 -0.016978 -0.019438
0.077211 -0.017966 0.016301
0.077198 -0.024150 0.002396
0.073800 -0.020751 0.016188
0.079652 -0.017757 0.013929
0.077552 -0.019817 0.013473
0.076712 -0.023865 -0.005790
0.078829 -0.023149 -0.000609
0.076236 -0.024219 0.005692
0.082606 -0.018797 0.006963
0.080116 -0.019358 -0.010791
0.076104 -0.023319 0.008848
0.081240 -0.021253 -0.000229
0.082034 -0.017992 0.009929
0.079011 -0.022692 -0.003848
0.079500 -0.015896 -0.016153
0.081331 -0.020900 -0.003516
0.073925 -0.023773 -0.011050
0.078776 -0.022579 0.005275
0.076823 -0.021749 0.011336
0.075904 -0.023730 -0.008654
0.081964 -0.018970 -0.008258
0.077749 -0.018298 -0.015383
0.074648 -0.025736 0.001318
0.075158 -0.020535 -0.015382
0.076050 -0.025039 -0.001735
0.076936 -0.021821 -0.010988
0.079294 -0.021205 -0.008623
0.084759 -0.017908 0.001792
0.084441 -0.018263 -0.002207
0.085027 -0.017010 0.004796
0.084174 -0.017365 -0.006883
0.086809 -0.015872 0.002667
0.084846 -0.016096 0.007921
0.084166 -0.015979 -0.009550
0.079341 -0.014745 0.017248
0.081443 -0.006748 -0.019980
0.077012 -0.014494 -0.019692
0.082962 -0.012497 0.015213
0.074748 -0.013047 0.022111
0.079920 -0.009975 0.019855
0.078313 -0.010568 -0.021115
0.077549 -0.013042 0.020163
0.078449 -0.007422 0.022193
0.075578 -0.007398 0.024110
0.082681 -0.009063 0.017711
0.080142 -0.011432 -0.018974
0.081942 -0.015441 0.013738
0.076668 -0.010319 0.022251
0.080760 -0.006566 0.020593
0.073947 -0.009893 0.024252
0.076275 -0.008334 -0.023419
0.082321 -0.011508 -0.016775
0.075084 -0.011814 -0.022783
0.081988 -0.015375 -0.013740
0.079024 -0.007358 -0.021791
0.083212 -0.007995 -0.017947
0.087423 -0.015019 -0.003862
0.086354 -0.010071 0.012887
0.087730 -0.015287 -0.000084
0.084480 -0.009957 -0.015333
0.084758 -0.013122 -0.012312
0.083734 -0.015455 0.011020
0.085143 -0.008436 0.015323
0.089266 -0.011033 -0.009250
0.086195 -0.012941 0.010351
0.086935 -0.013635 -0.008208
0.083682 -0.006113 0.018047
0.088469 -0.006601 -0.013362
0.087548 -0.009567 -0.012199
0.079220 -0.000560 0.022757
0.077829 -0.004024 0.023391
0.073568 0.001917 0.026195
0.076669 0.001927 0.024410
0.074987 -0.001020 -0.025587
0.082624 -0.003342 -0.019920
0.080195 -0.004001 -0.021905
0.082902 0.000574 0.019665
0.081161 0.003259 0.021073
0.075097 -0.004189 -0.025403
0.079356 -0.000232 -0.022745
0.075678 -0.001835 0.025165
0.081531 -0.002466 0.020860
0.077796 -0.004377 -0.023620
0.076158 0.002163 -0.025011
0.082035 0.002115 -0.020592
0.091240 -0.003306 -0.013160
0.085122 -0.005444 -0.016754
