ply
format ascii 1.0
element vertex 1724
property float x
property float y
property float z
end_header
-0.016009 0.003103 0.000410
-0.014645 0.001506 0.000398
-0.012722 0.003592 0.000409
-0.015431 0.004190 0.000416
-0.013469 0.002424 0.000403
-0.016545 0.003459 -0.000368
-0.016690 0.000322 -0.000349
-0.015696 0.002089 0.000403
-0.012842 0.004430 -0.000371
-0.013999 0.000597 0.000392
-0.014489 0.003870 -0.000369
-0.012763 0.001568 -0.000354
-0.016878 0.000994 0.000398
-0.016065 0.000030 0.000390
-0.015072 0.000564 0.000393
-0.013908 0.001710 -0.000356
-0.010735 0.001066 0.000392
-0.008005 0.004054 -0.000367
-0.007801 0.002189 0.000396
-0.009673 0.003821 0.000409
-0.007986 0.001047 -0.000349
-0.011969 0.004447 0.000414
-0.008840 0.001403 0.000392
-0.008396 0.000132 0.000384
-0.010783 0.002112 -0.000356
-0.010557 0.003542 -0.000365
-0.007379 0.001310 0.000391
-0.011433 0.002858 -0.000361
-0.009443 0.000786 -0.000348
-0.008744 0.004338 0.000411
-0.011780 0.001734 -0.000355
-0.010034 0.001875 0.000396
-0.010756 0.004668 0.000415
-0.011670 0.000252 0.000387
-0.008943 0.003303 -0.000363
-0.007397 0.000035 -0.000343
-0.011310 0.004239 -0.000370
-0.009744 0.002791 0.000403
-0.011467 0.003505 0.000408
-0.009179 0.001944 -0.000355
-0.007383 0.003217 -0.000362
-0.008249 0.003191 0.000403
-0.012300 0.000260 -0.000346
-0.010196 0.004878 -0.000373
-0.006422 0.004093 -0.000366
-0.006726 0.003285 0.000402
-0.005266 0.000923 0.000386
-0.004848 0.002666 -0.000357
-0.003355 0.001911 0.000391
-0.004288 0.000501 -0.000344
-0.006575 0.000127 0.000382
-0.004179 0.003527 0.000401
-0.005506 0.004214 0.000407
-0.002664 0.000616 0.000381
-0.004495 0.001713 0.000390
-0.007271 0.004109 0.000408
-0.004562 0.004759 -0.000369
-0.006158 0.002587 -0.000357
-0.002616 0.004398 -0.000366
-0.003956 0.004490 0.000408
-0.003575 0.001189 -0.000347
-0.003161 0.000091 -0.000341
-0.003117 0.002994 -0.000358
-0.007073 0.001856 -0.000353
-0.005296 0.003576 -0.000362
-0.006145 0.001430 0.000390
-0.002704 0.002001 -0.000352
-0.003055 0.003790 0.000402
-0.006506 0.000824 -0.000347
-0.005521 0.002663 0.000398
0.001849 0.004494 -0.000365
-0.000231 0.001781 0.000387
-0.000381 0.003400 0.000398
-0.001319 0.000183 0.000378
0.000048 0.000486 -0.000342
-0.000476 0.004803 0.000406
-0.000297 0.004110 -0.000363
0.002475 0.002679 -0.000353
0.000780 0.003285 0.000395
-0.001356 0.003971 0.000402
0.001085 0.002356 0.000389
0.001309 0.000059 -0.000339
0.001610 0.001540 0.000384
-0.000565 0.002591 -0.000355
-0.001156 0.001625 -0.000349
-0.002264 0.002928 0.000396
0.001902 0.003519 -0.000359
0.000994 0.001243 -0.000346
0.002415 0.000160 0.000374
0.002592 0.004372 0.000400
0.000671 0.000670 0.000379
-0.001666 0.002135 0.000391
0.001231 0.004884 0.000405
0.000744 0.004513 -0.000365
0.001904 0.000882 -0.000344
0.000455 0.002471 -0.000353
-0.001917 0.000869 -0.000345
-0.001733 0.003337 -0.000359
0.004367 0.000826 0.000376
0.003262 0.002780 0.000390
0.004923 0.004360 -0.000362
0.005308 0.001923 0.000383
0.002846 0.003745 -0.000359
0.002841 0.001817 0.000384
0.003812 0.004295 -0.000362
0.006402 0.001246 0.000377
0.004151 0.002733 -0.000353
0.007133 0.004137 -0.000360
0.006736 0.002187 -0.000348
0.006848 0.003093 0.000389
0.006682 0.004579 0.000398
0.005390 0.003215 0.000390
0.004061 0.003477 0.000394
0.007046 0.000095 0.000369
0.004685 0.001740 -0.000347
0.007500 0.001142 -0.000342
0.005699 0.000713 -0.000341
0.005974 0.004706 -0.000364
0.002926 0.001003 -0.000344
0.003591 0.000057 0.000372
0.005611 0.002519 -0.000351
0.003603 0.001765 -0.000348
0.006046 0.003389 -0.000356
0.008253 0.003932 -0.000358
0.011306 0.000929 0.000370
0.012492 0.002187 0.000377
0.008275 0.001683 0.000378
0.011722 0.001928 -0.000345
0.012108 0.004226 -0.000358
0.008695 0.002633 -0.000351
0.009996 0.002904 0.000384
0.011468 0.002966 -0.000351
0.012627 0.000752 0.000368
0.012646 0.003395 -0.000352
0.010137 0.001860 0.000378
0.009856 0.003751 -0.000357
0.007838 0.000176 -0.000336
0.009016 0.004000 0.000392
0.011135 0.004109 -0.000358
0.008924 0.000299 -0.000336
0.010574 0.003779 0.000389
0.010758 0.002136 -0.000346
0.009793 0.001083 -0.000340
0.011503 0.000291 -0.000335
0.009623 0.002328 -0.000348
0.009934 0.004986 -0.000363
0.008098 0.002922 0.000387
0.011868 0.004866 0.000395
0.010443 0.000442 0.000368
0.007705 0.004622 0.000397
0.013748 0.002830 -0.000349
0.013346 0.004814 -0.000361
0.014565 0.001937 -0.000343
0.016403 0.002888 -0.000348
0.016637 0.001249 -0.000338
0.015398 0.004254 -0.000357
0.017360 0.002063 0.000372
0.015233 0.002373 0.000376
0.016196 0.003689 0.000384
0.014256 0.000328 -0.000335
0.013718 0.003838 0.000386
0.016628 0.004928 -0.000360
0.013206 0.001138 -0.000339
0.017317 0.000422 0.000362
0.014946 0.000678 0.000365
0.017416 0.003810 -0.000352
0.015705 0.001816 -0.000343
0.016604 0.000252 -0.000332
0.015565 0.000196 -0.000333
0.015979 0.001166 0.000367
0.015262 0.003406 0.000382
0.012741 0.004154 0.000390
0.013696 0.002174 0.000376
0.014358 0.003043 0.000381
0.017086 0.003032 0.000378
0.017003 0.004299 0.000387
0.014233 0.004313 -0.000358
0.018570 0.001115 0.000365
0.021103 0.001359 0.000364
0.022128 0.002146 0.000368
0.020876 0.002183 -0.000342
0.018713 0.004118 0.000383
0.019624 0.003240 0.000377
0.018577 0.000193 -0.000332
0.021621 0.003428 0.000377
0.020372 0.004025 -0.000353
0.020941 0.004971 0.000387
0.020624 0.000690 -0.000333
0.019996 0.002676 -0.000345
0.019488 0.001676 0.000368
0.021747 0.002690 -0.000345
0.022494 0.004573 0.000383
0.019322 0.001028 -0.000336
0.017760 0.002837 -0.000347
0.018021 0.003435 0.000380
0.019678 0.000117 0.000357
0.018641 0.003272 -0.000349
0.018488 0.002184 0.000372
0.022009 0.001140 -0.000335
0.021285 0.004408 -0.000354
0.019879 0.004470 0.000385
0.017724 0.001493 -0.000339
0.019354 0.003960 -0.000353
0.022170 0.003986 -0.000351
0.027663 0.001211 -0.000332
0.026805 0.003872 0.000374
0.026748 0.001820 0.000362
0.025130 0.001485 0.000361
0.027543 0.002765 -0.000342
0.023886 0.000600 0.000356
0.023952 0.003416 -0.000347
0.022825 0.000631 0.000358
0.023319 0.004722 -0.000356
0.024684 0.004876 0.000383
0.024990 0.002225 -0.000340
0.023003 0.003213 -0.000347
0.026786 0.004929 0.000382
0.026284 0.002490 -0.000341
0.024664 0.003558 0.000375
0.022945 0.001756 -0.000338
0.025539 0.002995 0.000371
0.023872 0.002153 0.000367
0.023755 0.004146 0.000379
0.026031 0.001182 -0.000333
0.025633 0.004349 0.000379
0.024419 0.000110 -0.000328
0.026810 0.000653 0.000354
0.024141 0.001327 -0.000336
0.025795 0.000539 0.000354
0.026157 0.003626 -0.000347
0.024665 0.004196 -0.000352
0.029322 0.003677 0.000371
0.028865 0.002603 0.000365
0.029120 0.001990 -0.000337
0.030318 0.003218 -0.000343
0.028121 0.001782 0.000360
0.030617 0.001596 -0.000334
0.031139 0.004438 0.000374
0.028639 0.004674 -0.000353
0.031781 0.001204 -0.000330
0.031444 0.003311 0.000366
0.028499 0.000785 0.000353
0.029531 0.001061 0.000354
0.032079 0.002856 -0.000340
0.032533 0.000812 0.000349
0.032662 0.002065 -0.000335
0.030323 0.004324 -0.000349
0.027747 0.004175 0.000375
0.031840 0.004637 -0.000350
0.031215 0.000499 0.000349
0.030122 0.000276 0.000349
0.031128 0.002120 0.000359
0.028533 0.003242 -0.000344
0.029925 0.002253 0.000361
0.034059 0.004952 0.000375
0.037351 0.004888 -0.000350
0.033887 0.004206 -0.000347
0.035051 0.001758 0.000353
0.034901 0.000712 0.000347
0.034877 0.002628 -0.000338
0.034300 0.003412 0.000365
0.036790 0.000979 -0.000328
0.035561 0.004218 -0.000346
0.032896 0.002984 0.000363
0.037155 0.003073 0.000360
0.036931 0.004244 0.000367
0.033240 0.000579 -0.000327
0.033865 0.001415 -0.000331
0.033854 0.002599 -0.000337
0.037209 0.001914 -0.000332
0.035417 0.003164 0.000362
0.036407 0.002409 0.000356
0.034205 0.000186 -0.000323
0.035837 0.001846 -0.000332
0.036227 0.003087 -0.000340
0.032988 0.004019 0.000370
0.035940 0.000981 0.000348
0.037660 0.003513 -0.000341
0.042687 0.004577 -0.000345
0.041109 0.001837 -0.000330
0.042560 0.000050 -0.000319
0.038131 0.002531 -0.000335
0.040205 0.000744 -0.000324
0.042035 0.004260 0.000363
0.039827 0.002974 -0.000337
0.042315 0.002979 0.000355
0.040821 0.004649 0.000366
0.038431 0.001029 -0.000327
0.039749 0.001633 -0.000329
0.038478 0.003244 0.000360
0.040303 0.002275 0.000352
0.041506 0.003574 -0.000340
0.041765 0.000140 0.000337
0.037921 0.000518 0.000343
0.040992 0.000753 0.000341
0.042060 0.001232 -0.000326
0.038627 0.003971 -0.000343
0.039249 0.000150 -0.000321
0.039313 0.004157 0.000365
0.041998 0.002293 -0.000332
0.039476 0.000971 0.000344
0.039099 0.002180 0.000352
0.038056 0.004428 0.000367
0.039794 0.004656 -0.000347
0.037828 0.001538 0.000349
0.041344 0.002664 0.000353
0.040570 0.003674 0.000360
0.046765 0.001723 0.000342
0.044048 0.004263 -0.000342
0.045689 0.001953 0.000345
0.046931 0.000634 0.000335
0.043200 0.003471 0.000357
0.044640 0.001650 -0.000327
0.045960 0.000637 0.000336
0.043208 0.001132 0.000342
0.046252 0.003544 -0.000337
0.045451 0.002820 -0.000334
0.043043 0.002022 -0.000330
0.043615 0.002507 0.000350
0.045120 0.000171 -0.000319
0.047037 0.004121 0.000357
0.045956 0.004493 -0.000343
0.045142 0.004500 0.000361
0.044154 0.004979 0.000365
0.044429 0.002699 -0.000334
0.046238 0.002815 0.000350
0.043795 0.000290 0.000336
0.044906 0.000979 0.000340
0.044234 0.003471 0.000355
0.045205 0.003772 -0.000340
0.050735 0.001534 0.000337
0.052201 0.001617 -0.000323
0.049875 0.000268 0.000330
0.051536 0.004406 0.000355
0.049027 0.002247 0.000343
0.049776 0.002423 -0.000329
0.049465 0.003358 0.000350
0.048811 0.001383 -0.000323
0.049327 0.004140 -0.000340
0.050269 0.003409 -0.000335
0.047903 0.000964 -0.000321
0.052495 0.000442 -0.000316
0.047856 0.002845 -0.000333
0.051467 0.003206 0.000348
0.051606 0.000701 0.000331
0.052230 0.004507 -0.000340
0.047884 0.001716 0.000341
0.052510 0.003120 0.000345
0.051036 0.002513 -0.000329
0.048535 0.004471 0.000358
0.047747 0.004249 -0.000341
0.050152 0.004487 0.000356
0.048707 0.000391 -0.000317
0.049651 0.001226 0.000337
0.050786 0.000531 -0.000318
0.050984 0.004933 -0.000343
0.047973 0.003518 0.000353
0.048700 0.003368 -0.000336
0.056433 0.004707 -0.000339
0.057256 0.001325 0.000330
0.052910 0.002036 0.000338
0.055834 0.001572 -0.000322
0.054541 0.001321 -0.000321
0.054320 0.002641 -0.000328
0.056191 0.003249 0.000343
0.054178 0.003352 0.000345
0.057050 0.002871 -0.000329
0.055132 0.002592 0.000340
0.057071 0.003897 -0.000334
0.054478 0.000007 -0.000313
0.053160 0.004124 -0.000337
0.055622 0.000765 0.000328
0.055507 0.003821 -0.000335
0.054658 0.004659 0.000353
0.053750 0.001255 0.000333
0.053322 0.002660 -0.000329
0.056588 0.002229 0.000336
0.057690 0.001969 -0.000323
0.057647 0.003403 0.000342
0.056540 0.000914 -0.000317
0.058674 0.003701 0.000343
0.059601 0.000384 0.000321
0.060699 0.003767 -0.000331
0.058243 0.001350 0.000329
0.059783 0.004270 -0.000335
0.059303 0.002127 -0.000323
0.058385 0.000333 -0.000313
0.060856 0.004926 -0.000338
0.061587 0.003904 0.000343
0.060336 0.000773 -0.000314
0.060431 0.002871 0.000337
0.058199 0.004216 -0.000336
0.061831 0.002817 0.000335
0.059312 0.002878 0.000338
0.061785 0.001120 -0.000316
0.059714 0.001517 0.000328
0.058811 0.004868 0.000350
0.062494 0.002148 -0.000321
0.060838 0.001674 -0.000320
0.058205 0.002961 -0.000328
0.059099 0.001128 -0.000318
0.058491 0.002282 0.000335
0.061986 0.004862 0.000348
0.061168 0.000701 0.000322
0.064709 0.001081 -0.000314
0.063915 0.004566 -0.000335
0.063813 0.003602 0.000338
0.067015 0.003580 -0.000328
0.065425 0.002407 0.000329
0.064436 0.002978 -0.000325
0.065465 0.003715 0.000338
0.065976 0.000540 0.000317
0.067187 0.002470 -0.000321
0.067367 0.004987 -0.000336
0.065563 0.004410 -0.000333
0.062992 0.000221 0.000317
0.067491 0.004206 0.000338
0.063389 0.002079 0.000329
0.065014 0.004873 0.000345
0.065877 0.001780 -0.000318
0.062736 0.004428 -0.000335
0.067481 0.000670 0.000316
0.062967 0.001102 -0.000315
0.063010 0.003062 0.000335
0.066999 0.001695 0.000323
0.063809 0.001171 0.000322
0.066737 0.000778 -0.000311
0.066405 0.004083 0.000338
0.066322 0.003082 0.000332
0.064083 0.001861 -0.000319
0.071284 0.000217 -0.000306
0.071175 0.003676 0.000331
0.067950 0.003253 0.000332
0.071968 0.003770 -0.000326
0.069206 0.004520 0.000339
0.068402 0.001897 -0.000318
0.068489 0.004705 -0.000334
0.069395 0.002218 -0.000319
0.072405 0.000848 -0.000309
0.069389 0.001205 0.000318
0.071882 0.002620 0.000324
0.070944 0.002175 0.000322
0.069405 0.000410 -0.000308
0.070362 0.000620 0.000313
0.070978 0.002973 -0.000322
0.068574 0.000588 0.000314
0.070169 0.002852 0.000327
0.069982 0.004254 -0.000330
0.071587 0.001011 0.000315
0.071238 0.004685 0.000338
0.070407 0.001376 -0.000313
0.071848 0.001822 -0.000315
0.068874 0.002785 0.000329
0.069079 0.003799 -0.000328
0.075142 0.001999 -0.000314
0.074130 0.004592 -0.000330
0.073510 0.000843 -0.000309
0.074346 0.001451 0.000315
0.073540 0.003428 -0.000323
0.072851 0.002284 -0.000317
0.075715 0.002803 -0.000319
0.074942 0.003508 -0.000324
0.075729 0.000442 -0.000305
0.075526 0.004375 0.000331
0.074054 0.002563 0.000322
0.077207 0.000070 0.000303
0.076392 0.003670 0.000327
0.077283 0.000972 -0.000308
0.077316 0.003309 -0.000321
0.072933 0.004490 0.000335
0.076049 0.001780 0.000315
0.077376 0.002327 -0.000315
0.073197 0.001537 0.000316
0.076993 0.004884 -0.000331
0.074977 0.000224 0.000307
0.076458 0.000731 0.000308
0.072895 0.003025 0.000326
0.078144 0.001537 0.000311
0.080084 0.004181 -0.000325
0.078167 0.000231 0.000303
0.080410 0.002847 0.000318
0.078682 0.002549 -0.000316
0.080836 0.003881 0.000324
0.081809 0.000724 -0.000304
0.080039 0.004964 0.000332
0.080495 0.001396 0.000309
0.082375 0.002145 0.000311
0.081905 0.003248 0.000319
0.079322 0.001555 0.000311
0.080025 0.000549 -0.000304
0.081195 0.002921 -0.000317
0.081451 0.001592 0.000308
0.078009 0.004310 0.000329
0.078958 0.003465 0.000323
0.080028 0.002038 -0.000312
0.080858 0.004816 -0.000329
0.079137 0.004431 -0.000326
0.078811 0.000725 -0.000305
0.082198 0.004206 -0.000324
0.079776 0.003210 -0.000320
0.087054 0.002985 0.000312
0.084172 0.000249 0.000297
0.086291 0.001074 -0.000304
0.082843 0.002765 -0.000316
0.087065 0.001496 0.000303
0.083180 0.000977 0.000303
0.084782 0.002518 0.000312
0.083278 0.003833 0.000322
0.085631 0.004968 -0.000327
0.085539 0.002501 -0.000312
0.087420 0.004590 0.000322
0.084980 0.000144 -0.000299
0.083693 0.004606 -0.000325
0.084701 0.003813 0.000320
0.086387 0.004725 0.000324
0.082803 0.000131 -0.000300
0.084818 0.001594 -0.000307
0.085808 0.000030 0.000295
0.083551 0.002043 -0.000311
0.087522 0.003711 -0.000318
0.086044 0.003246 0.000315
0.085524 0.001148 0.000302
0.084073 0.003332 -0.000318
0.084043 0.001463 0.000306
0.086337 0.002240 0.000308
0.086336 0.003977 -0.000320
0.088678 0.003312 -0.000316
0.087738 0.002626 -0.000312
0.092652 0.002967 0.000307
0.090031 0.004119 -0.000320
0.090340 0.000476 0.000293
0.091124 0.001464 0.000299
0.090085 0.001606 0.000300
0.089347 0.002926 0.000310
0.090521 0.002902 -0.000312
0.092146 0.000869 -0.000299
0.091318 0.003038 0.000309
0.089390 0.000364 -0.000298
0.092108 0.001963 0.000301
0.088269 0.000463 -0.000299
0.092310 0.004487 -0.000320
0.091582 0.003998 0.000315
0.088032 0.001741 0.000304
0.088905 0.004133 0.000318
0.089119 0.001481 0.000301
0.091187 0.000630 -0.000299
0.088810 0.002233 -0.000309
0.096219 0.001141 0.000292
0.095069 0.002857 -0.000309
0.095509 0.000190 0.000287
0.097664 0.000410 -0.000295
0.093656 0.004160 0.000313
0.097496 0.002598 -0.000307
0.095732 0.001990 -0.000305
0.094290 0.003492 -0.000314
0.093598 0.002505 -0.000308
0.095488 0.003700 0.000309
0.094438 0.002135 0.000300
0.094453 0.004828 -0.000322
0.094279 0.000963 -0.000300
0.093514 0.001689 0.000298
0.096957 0.003826 -0.000315
0.096491 0.002823 -0.000309
0.095781 0.004446 -0.000319
0.095208 0.001388 0.000294
0.092991 0.003660 -0.000316
0.093052 0.004960 0.000320
0.096420 0.000362 -0.000294
0.092991 0.000676 0.000293
0.097299 0.001789 0.000295
0.099690 0.001936 -0.000303
0.099132 0.004023 -0.000315
0.098316 0.002874 0.000301
0.100020 0.000695 -0.000295
0.102430 0.000401 -0.000292
0.100560 0.002784 0.000298
0.098791 0.000715 0.000287
0.101500 0.003151 -0.000309
0.100520 0.004105 0.000307
0.098131 0.001520 -0.000300
0.098253 0.004835 0.000313
0.101230 0.001915 0.000292
0.100900 0.000577 0.000284
0.102680 0.002488 -0.000304
0.101990 0.001728 -0.000300
0.101490 0.003981 0.000305
0.098118 0.003803 -0.000314
0.099617 0.003026 -0.000308
0.102340 0.004454 -0.000316
0.106790 0.002999 0.000294
0.103900 0.004120 0.000304
0.106710 0.001488 -0.000296
0.106290 0.000574 0.000278
0.102960 0.001406 0.000287
0.104360 0.001444 -0.000297
0.104740 0.002226 0.000291
0.107630 0.004479 -0.000313
0.105520 0.002881 -0.000305
0.104210 0.002809 -0.000305
0.105230 0.000824 -0.000293
0.105070 0.003543 0.000299
0.105530 0.004624 0.000306
0.105870 0.002106 0.000289
0.103840 0.000375 -0.000291
0.102860 0.003448 -0.000310
0.104860 0.000006 0.000277
0.106480 0.004204 -0.000313
0.107630 0.001942 0.000287
0.103420 0.002721 0.000296
0.111450 0.004152 0.000297
0.112260 0.003466 -0.000305
0.108560 0.002147 -0.000300
0.110360 0.002009 0.000284
0.109700 0.004329 -0.000311
0.108640 0.000008 -0.000286
0.111690 0.000266 -0.000287
0.109730 0.002867 0.000290
0.108840 0.001326 0.000281
0.108110 0.003531 -0.000307
0.111790 0.001272 0.000278
0.112540 0.002383 0.000285
0.108410 0.004489 0.000302
0.108590 0.002939 0.000292
0.109490 0.000034 0.000273
0.111600 0.002497 -0.000300
0.110210 0.000970 -0.000291
0.110910 0.003211 0.000291
0.109210 0.003726 0.000297
0.107750 0.000573 0.000277
0.112000 0.004731 -0.000313
0.110640 0.000295 0.000273
0.110400 0.004699 0.000302
0.114480 0.000937 0.000274
0.117300 0.000396 -0.000285
0.115890 0.000848 -0.000288
0.116260 0.002644 0.000283
0.113770 0.001774 0.000279
0.115320 0.003148 0.000287
0.115020 0.003906 -0.000307
0.113700 0.003104 0.000288
0.113510 0.004223 -0.000309
0.114860 0.002223 -0.000297
0.113490 0.000957 -0.000290
0.116330 0.003567 -0.000304
0.113090 0.000162 0.000270
0.114560 0.000018 -0.000284
0.117050 0.004446 -0.000309
0.115670 0.001720 0.000278
0.116790 0.001898 -0.000294
0.116720 0.001003 0.000272
0.117140 0.002817 -0.000299
0.121170 0.000462 -0.000283
0.120170 0.002019 0.000275
0.122410 0.001603 0.000270
0.117790 0.003481 0.000287
0.121620 0.004967 0.000292
0.122210 0.000015 0.000261
0.121050 0.003285 -0.000300
0.119520 0.004857 -0.000309
0.119340 0.002637 -0.000297
0.119850 0.003516 0.000285
0.121060 0.002447 0.000277
0.122360 0.003272 0.000280
0.119080 0.000925 0.000269
0.121250 0.004256 -0.000305
0.120050 0.000589 0.000266
0.118430 0.004294 0.000291
0.121600 0.001354 -0.000288
0.117700 0.001857 0.000276
0.118790 0.001966 0.000276
0.118290 0.000172 -0.000283
0.120350 0.004800 0.000292
0.120550 0.001277 -0.000289
0.118390 0.002837 -0.000299
0.122250 0.002372 -0.000294
0.124500 0.003762 -0.000301
0.124180 0.002154 -0.000292
0.127350 0.001801 -0.000288
0.125460 0.002974 -0.000296
0.122880 0.000727 0.000265
0.123310 0.002711 -0.000296
0.126420 0.002106 -0.000291
0.126090 0.003951 -0.000301
0.123670 0.003593 0.000281
0.125280 0.000888 -0.000284
0.124480 0.004721 0.000288
0.125940 0.000388 0.000259
0.123000 0.004022 -0.000303
0.126600 0.003320 0.000278
0.127230 0.004283 -0.000302
0.124270 0.001050 0.000265
0.126070 0.001365 0.000265
0.126920 0.000711 0.000261
0.127310 0.002959 -0.000295
0.123360 0.001629 -0.000289
0.125380 0.004326 0.000285
0.124630 0.002988 0.000277
0.125220 0.002096 0.000271
0.123260 0.000014 -0.000280
0.129590 0.003170 -0.000295
0.132510 0.002090 -0.000287
0.130510 0.002746 -0.000293
0.131380 0.003586 0.000274
0.129710 0.000526 -0.000280
0.131900 0.001005 0.000258
0.130220 0.001731 -0.000287
0.128350 0.003589 -0.000298
0.130110 0.003886 0.000278
0.129010 0.004479 0.000282
0.131620 0.004434 -0.000301
0.129280 0.001434 -0.000285
0.131100 0.001018 -0.000282
0.128310 0.002238 0.000269
0.131120 0.000187 0.000253
0.131500 0.002550 0.000268
0.127750 0.000838 -0.000282
0.128540 0.001046 0.000262
0.133180 0.000896 0.000255
0.134730 0.001051 0.000255
0.134340 0.004225 -0.000299
0.137230 0.002027 0.000259
0.134000 0.002462 0.000265
0.136230 0.000990 0.000254
0.136560 0.004171 0.000273
0.136960 0.000118 -0.000274
0.135700 0.002331 -0.000287
0.135970 0.003326 0.000268
0.137590 0.004221 -0.000298
0.137460 0.000828 0.000251
0.133050 0.004527 -0.000302
0.133800 0.003504 0.000272
0.134840 0.003340 0.000270
0.135340 0.004333 0.000276
0.134770 0.001935 -0.000286
0.132840 0.003584 -0.000296
0.137020 0.003232 -0.000292
0.135420 0.000344 0.000250
0.139590 0.000595 0.000248
0.138980 0.004168 -0.000296
0.141850 0.000794 -0.000276
0.140000 0.003495 -0.000292
0.140460 0.001854 -0.000282
0.141410 0.003235 -0.000290
0.142240 0.002425 0.000257
0.139180 0.002091 -0.000284
0.138290 0.000905 -0.000278
0.142160 0.003863 -0.000293
0.141050 0.004089 0.000268
0.141250 0.001608 0.000253
0.138470 0.003551 0.000268
0.142690 0.000630 0.000245
0.138330 0.001774 0.000256
0.141020 0.000377 0.000245
0.142580 0.001538 -0.000280
0.137930 0.002723 -0.000288
0.139370 0.002971 0.000264
0.140530 0.002792 0.000261
0.143060 0.002710 -0.000285
0.147030 0.004817 0.000267
0.147550 0.003144 0.000257
0.145560 0.001176 -0.000275
0.146640 0.003958 -0.000292
0.146690 0.002360 -0.000282
0.145520 0.003532 -0.000290
0.147240 0.000997 -0.000274
0.143500 0.004982 0.000272
0.144230 0.003947 -0.000292
0.144970 0.000572 0.000243
0.145650 0.002155 -0.000281
0.143920 0.002919 0.000258
0.144470 0.001514 0.000249
0.143530 0.001756 -0.000280
0.146510 0.003173 0.000258
0.143190 0.003884 0.000265
0.143730 0.000090 -0.000270
0.146380 0.000553 -0.000272
0.144680 0.002343 -0.000283
0.146370 0.001474 0.000247
0.150470 0.004892 0.000264
0.149150 0.001495 0.000245
0.149700 0.002422 0.000250
0.152020 0.001922 -0.000277
0.151580 0.000038 -0.000266
0.149290 0.004385 -0.000292
0.148170 0.000202 -0.000269
0.151240 0.001295 0.000241
0.150920 0.003217 0.000254
0.152370 0.003995 0.000258
0.151930 0.003289 -0.000285
0.152270 0.000905 0.000238
0.150220 0.000437 -0.000270
0.149130 0.000080 0.000236
0.148460 0.002664 -0.000283
0.149920 0.003463 0.000256
0.148160 0.004300 -0.000293
0.150470 0.001702 -0.000276
0.147870 0.001612 0.000246
0.151350 0.004207 -0.000291
0.157180 0.004188 -0.000287
0.155740 0.002466 -0.000278
0.153040 0.000023 0.000232
0.153470 0.002786 0.000248
0.154370 0.001079 -0.000271
0.155100 0.000511 0.000232
0.157610 0.001515 0.000237
0.153670 0.004672 -0.000292
0.156670 0.000545 -0.000267
0.153380 0.001459 0.000240
0.154670 0.002575 0.000246
0.155870 0.004612 0.000258
0.155290 0.003709 -0.000286
0.154280 0.003615 0.000253
0.156530 0.001894 0.000240
0.155930 0.001121 0.000236
0.156310 0.003674 -0.000285
0.156880 0.002692 -0.000280
0.153060 0.003544 -0.000285
0.159750 0.000516 0.000228
0.162390 0.002093 0.000236
0.158500 0.000178 0.000227
0.161840 0.001117 -0.000267
0.159710 0.003660 -0.000283
0.158180 0.002418 0.000242
0.158990 0.001704 0.000237
0.160340 0.001305 -0.000270
0.161260 0.002249 -0.000275
0.159120 0.002680 -0.000278
0.160750 0.003226 0.000245
0.160730 0.000010 0.000224
0.158430 0.004102 -0.000287
0.161950 0.003116 -0.000280
0.160680 0.004847 0.000255
0.161390 0.004358 -0.000286
0.157920 0.003428 0.000248
0.160080 0.002500 -0.000276
0.157740 0.000542 -0.000266
0.166000 0.004268 0.000247
0.166510 0.000405 0.000202
0.164860 0.003495 -0.000280
0.164740 0.002058 0.000233
0.165570 0.003064 0.000239
0.163170 0.000536 0.000225
0.163420 0.002716 0.000239
0.165530 0.001260 0.000228
0.165120 0.000402 -0.000262
0.166270 0.002463 -0.000137
0.164120 0.001279 0.000229
0.163570 0.003974 -0.000284
0.162810 0.001305 -0.000268
0.162800 0.004559 0.000252
0.164560 0.004622 0.000250
0.164030 0.000342 -0.000262
-0.059850 0.007486 0.000479
-0.060386 0.009685 0.000494
-0.061298 0.006941 0.000476
-0.059470 0.006730 -0.000407
-0.061658 0.008207 -0.000417
-0.062091 0.009116 -0.000422
-0.058046 0.009297 -0.000422
-0.061132 0.006477 -0.000407
-0.061322 0.005781 0.000469
-0.059080 0.008886 0.000487
-0.059775 0.005192 -0.000398
-0.058234 0.005327 -0.000399
-0.059109 0.009406 -0.000423
-0.057439 0.008738 0.000485
-0.060414 0.006200 0.000471
-0.060585 0.008345 -0.000417
-0.057804 0.006842 0.000473
-0.058847 0.007857 0.000480
-0.058029 0.007694 -0.000412
-0.061332 0.009431 0.000493
-0.058581 0.005953 0.000468
-0.061847 0.008546 0.000488
-0.060669 0.009386 -0.000423
-0.058496 0.006571 -0.000405
-0.059996 0.008553 0.000485
-0.061992 0.007266 -0.000411
-0.058809 0.009839 0.000493
-0.059257 0.007765 -0.000413
-0.062286 0.005670 0.000469
-0.060339 0.007287 -0.000411
-0.062251 0.009878 0.000496
-0.057280 0.009925 -0.000425
-0.053379 0.008004 0.000476
-0.057044 0.008512 -0.000416
-0.056220 0.005861 0.000465
-0.055935 0.008244 0.000480
-0.052726 0.008944 0.000482
-0.057281 0.005070 -0.000396
-0.057187 0.006027 0.000467
-0.053109 0.007391 -0.000407
-0.055285 0.005641 0.000463
-0.056714 0.006824 -0.000407
-0.054388 0.008783 0.000482
-0.053193 0.006482 0.000466
-0.054324 0.006319 0.000467
-0.053512 0.005660 -0.000398
-0.055157 0.008021 -0.000413
-0.054788 0.007719 0.000476
-0.055567 0.008963 -0.000418
-0.054252 0.007058 -0.000406
-0.055756 0.007247 -0.000409
-0.056889 0.007467 0.000475
-0.053645 0.008462 -0.000414
-0.052460 0.007345 0.000471
-0.053271 0.005048 0.000457
-0.052311 0.006641 -0.000403
-0.055106 0.009470 0.000487
-0.054750 0.006107 -0.000401
-0.053831 0.009772 -0.000422
-0.052383 0.008368 -0.000413
-0.055654 0.006765 0.000470
-0.055917 0.006245 -0.000403
-0.050417 0.005837 0.000460
-0.049099 0.009729 -0.000420
-0.051454 0.007028 0.000468
-0.048934 0.008215 -0.000411
-0.047897 0.005791 -0.000396
-0.051490 0.006003 -0.000399
-0.047977 0.009461 -0.000417
-0.052026 0.005522 0.000459
-0.049141 0.006139 -0.000399
-0.051409 0.008102 0.000475
-0.049242 0.007655 0.000470
-0.049988 0.008040 -0.000410
-0.050933 0.006978 -0.000404
-0.049454 0.005614 0.000457
-0.047730 0.005127 0.000453
-0.048202 0.007633 0.000469
-0.051814 0.007471 -0.000408
-0.050425 0.009105 0.000480
-0.051853 0.009784 0.000486
-0.048980 0.008785 0.000477
-0.048668 0.006219 0.000460
-0.050578 0.007499 0.000470
-0.051132 0.008424 -0.000413
-0.050005 0.009246 -0.000418
-0.048316 0.009682 0.000482
-0.049666 0.006650 0.000464
-0.050425 0.005100 -0.000394
-0.052076 0.009524 -0.000420
-0.048127 0.007075 -0.000404
-0.046929 0.005944 -0.000396
-0.046711 0.008282 0.000471
-0.046180 0.009712 0.000481
-0.045687 0.009877 -0.000418
-0.043837 0.008544 0.000471
-0.044570 0.006235 -0.000397
-0.046385 0.007054 -0.000403
-0.044997 0.005187 0.000450
-0.043104 0.007764 -0.000406
-0.044771 0.008354 -0.000409
-0.045685 0.006815 0.000462
-0.043391 0.009662 0.000477
-0.044585 0.007866 0.000467
-0.046015 0.005016 -0.000391
-0.046144 0.008392 -0.000411
-0.042915 0.006496 0.000457
-0.044929 0.007195 -0.000402
-0.043001 0.005347 -0.000391
-0.047133 0.006999 0.000464
-0.043819 0.007154 0.000461
-0.043007 0.009267 -0.000414
-0.045639 0.008619 0.000473
-0.044900 0.009262 0.000476
-0.042391 0.006793 -0.000399
-0.046302 0.005681 0.000455
-0.042671 0.008485 0.000469
-0.046691 0.009507 -0.000417
-0.043984 0.005181 -0.000391
-0.047296 0.008740 -0.000413
-0.044722 0.009683 -0.000417
-0.043996 0.009016 -0.000413
-0.043803 0.005841 0.000453
-0.043402 0.006324 -0.000397
-0.047246 0.007617 -0.000407
-0.045589 0.006156 -0.000397
-0.039366 0.009547 -0.000414
-0.040876 0.007185 -0.000401
-0.039567 0.005393 0.000447
-0.041913 0.005498 0.000450
-0.038442 0.008456 -0.000407
-0.039724 0.007339 -0.000401
-0.040494 0.005528 -0.000391
-0.041916 0.006689 0.000457
-0.040083 0.008299 0.000466
-0.038738 0.006832 -0.000398
-0.038269 0.007466 0.000458
-0.039931 0.006496 0.000454
-0.040210 0.009024 -0.000411
-0.041660 0.008359 -0.000408
-0.040968 0.005951 0.000451
-0.037835 0.009449 -0.000412
-0.038484 0.005900 -0.000392
-0.037572 0.006482 -0.000395
-0.041525 0.007641 0.000463
-0.041207 0.009270 0.000472
-0.041399 0.006278 -0.000395
-0.038238 0.008938 0.000468
-0.039189 0.009131 0.000470
-0.039024 0.008134 0.000464
-0.037715 0.007697 -0.000402
-0.039572 0.006145 -0.000394
-0.038835 0.006243 0.000451
-0.042161 0.009818 0.000477
-0.037324 0.005543 0.000446
-0.041748 0.009343 -0.000414
-0.035186 0.008600 0.000463
-0.033186 0.009121 0.000464
-0.037070 0.006561 0.000452
-0.036935 0.009344 0.000469
-0.032765 0.007115 -0.000396
-0.036993 0.007980 0.000460
-0.033782 0.005937 0.000445
-0.034622 0.009475 -0.000411
-0.032704 0.005629 0.000441
-0.035491 0.007260 -0.000398
-0.034476 0.009947 0.000471
-0.034324 0.008462 -0.000405
-0.033660 0.009650 -0.000411
-0.032973 0.007901 0.000456
-0.034954 0.005182 -0.000386
-0.035966 0.005811 -0.000391
-0.035187 0.006835 0.000451
-0.034464 0.007147 -0.000398
-0.035933 0.009473 0.000469
-0.036569 0.008483 -0.000406
-0.033331 0.008266 -0.000404
-0.035280 0.005587 0.000444
-0.034456 0.007777 0.000456
-0.036762 0.007227 -0.000399
-0.033044 0.006049 -0.000390
-0.034210 0.008972 0.000465
-0.035562 0.009001 -0.000409
-0.033758 0.007098 0.000452
-0.034934 0.006194 -0.000392
-0.036094 0.007252 0.000455
-0.028390 0.005913 -0.000387
-0.029378 0.007823 0.000452
-0.027972 0.008159 -0.000400
-0.028040 0.006973 -0.000393
-0.032141 0.009276 -0.000409
-0.031722 0.007744 -0.000399
-0.030029 0.005466 -0.000385
-0.031793 0.006516 -0.000392
-0.030790 0.009338 0.000463
-0.030722 0.006931 -0.000395
-0.027898 0.009338 -0.000407
-0.030840 0.006046 0.000442
-0.027706 0.007396 0.000448
-0.030857 0.007954 0.000455
-0.029730 0.008975 0.000460
-0.029752 0.006396 0.000444
-0.031182 0.005602 -0.000387
-0.028888 0.008662 -0.000404
-0.031181 0.008905 -0.000406
-0.027423 0.005017 0.000433
-0.028902 0.005877 0.000440
-0.027975 0.009867 0.000464
-0.032045 0.007065 0.000450
-0.030179 0.008120 -0.000401
-0.029340 0.007339 -0.000396
-0.028815 0.009812 -0.000410
-0.027591 0.006077 0.000439
-0.032117 0.008395 0.000459
-0.028381 0.008811 0.000457
-0.030624 0.009788 -0.000411
-0.029720 0.009435 -0.000408
-0.028806 0.006863 0.000446
-0.025946 0.009075 0.000457
-0.023730 0.005024 0.000429
-0.026277 0.006944 0.000444
-0.022909 0.005832 0.000433
-0.027027 0.005840 -0.000386
-0.025783 0.006910 -0.000392
-0.024043 0.009327 0.000456
-0.024660 0.007583 -0.000395
-0.023544 0.006500 -0.000388
-0.025279 0.005585 0.000435
-0.025892 0.005329 -0.000383
-0.024972 0.009738 0.000461
-0.026467 0.009537 -0.000408
-0.024635 0.006504 0.000440
-0.027263 0.008472 0.000455
-0.026202 0.008136 -0.000399
-0.022786 0.008035 -0.000397
-0.024409 0.005560 -0.000383
-0.024791 0.008145 0.000450
-0.022957 0.009039 0.000454
-0.023271 0.009430 -0.000406
-0.023884 0.007516 0.000445
-0.024195 0.009805 -0.000408
-0.023964 0.008627 -0.000401
-0.025111 0.008848 -0.000402
-0.027030 0.006818 -0.000392
-0.023096 0.005286 -0.000381
-0.022478 0.006738 -0.000390
-0.025396 0.007379 0.000446
-0.018623 0.007337 0.000440
-0.018707 0.009306 0.000452
-0.019468 0.005673 -0.000382
-0.021086 0.009251 0.000454
-0.021894 0.005337 0.000430
-0.019893 0.009282 0.000452
-0.019049 0.008983 -0.000401
-0.021480 0.006932 -0.000390
-0.021448 0.008205 0.000448
-0.020286 0.008210 -0.000397
-0.020472 0.005608 0.000430
-0.021675 0.005953 -0.000384
-0.019566 0.007126 0.000439
-0.017637 0.008595 -0.000398
-0.022123 0.007153 0.000441
-0.021299 0.009861 -0.000407
-0.018234 0.005992 -0.000383
-0.018029 0.007325 -0.000390
-0.019150 0.006799 -0.000388
-0.020954 0.007349 0.000441
-0.019270 0.006177 0.000433
-0.017891 0.005416 0.000426
-0.021932 0.008898 -0.000402
-0.018311 0.008272 0.000445
-0.021833 0.009926 0.000459
-0.020715 0.006099 -0.000385
-0.020341 0.007101 -0.000390
-0.021254 0.006292 0.000435
-0.019252 0.007785 -0.000394
-0.020344 0.009632 -0.000405
-0.019562 0.008217 0.000446
-0.015516 0.007180 -0.000388
-0.014082 0.007407 0.000436
-0.016988 0.009875 -0.000405
-0.013031 0.007037 -0.000387
-0.015395 0.009142 -0.000400
-0.016999 0.009415 0.000451
-0.014453 0.006355 0.000430
-0.013618 0.008899 0.000444
-0.012840 0.009802 0.000449
-0.015805 0.006066 -0.000382
-0.016965 0.006713 0.000434
-0.014272 0.008568 -0.000396
-0.013496 0.005318 -0.000377
-0.012520 0.007547 0.000434
-0.016912 0.005844 -0.000381
-0.016416 0.007695 -0.000392
-0.015213 0.005096 -0.000377
-0.017061 0.008207 0.000444
-0.013443 0.005881 0.000425
-0.014567 0.009425 0.000448
-0.013193 0.008076 -0.000392
-0.012612 0.009099 -0.000398
-0.013859 0.006435 -0.000384
-0.016635 0.008830 -0.000398
-0.016065 0.007125 0.000435
-0.015950 0.008181 0.000442
-0.014891 0.008214 0.000441
-0.015704 0.005371 0.000424
-0.014562 0.005384 0.000423
-0.012750 0.006578 0.000429
-0.012674 0.005120 0.000420
-0.014642 0.007623 -0.000391
-0.008380 0.006432 0.000424
-0.008650 0.007139 -0.000385
-0.011563 0.007042 -0.000386
-0.010328 0.005929 0.000422
-0.012141 0.005451 -0.000377
-0.009107 0.008637 0.000439
-0.012020 0.008540 0.000441
-0.011067 0.008787 0.000441
-0.011090 0.008143 -0.000392
-0.010839 0.005617 -0.000377
-0.009583 0.005027 0.000416
-0.007739 0.007296 0.000429
-0.009950 0.009879 -0.000402
-0.010027 0.007624 -0.000388
-0.007877 0.008793 0.000439
-0.011067 0.006837 0.000429
-0.008693 0.009197 -0.000397
-0.008464 0.008203 -0.000391
-0.007616 0.006316 -0.000380
-0.011687 0.006058 0.000425
-0.009329 0.006959 0.000428
-0.008519 0.005648 -0.000376
-0.011653 0.009642 0.000448
-0.008709 0.007724 0.000433
-0.007341 0.009380 -0.000397
-0.009943 0.006384 -0.000382
-0.010241 0.008737 -0.000395
-0.010360 0.008036 0.000436
-0.009872 0.009363 0.000444
-0.006760 0.006689 0.000424
-0.005857 0.006216 0.000421
-0.004328 0.009789 -0.000398
-0.006816 0.007225 -0.000385
-0.005004 0.007901 -0.000387
-0.002777 0.009881 -0.000398
-0.004624 0.006840 0.000423
-0.005242 0.006209 -0.000378
-0.006880 0.009171 0.000439
-0.005723 0.008376 0.000434
-0.004134 0.006140 -0.000377
-0.007201 0.005231 0.000416
-0.002550 0.005052 0.000409
-0.003433 0.006949 -0.000381
-0.004883 0.008949 -0.000394
-0.002757 0.007087 0.000423
-0.002701 0.008302 -0.000389
-0.003733 0.008345 0.000432
-0.003260 0.009354 0.000438
-0.006420 0.005567 -0.000375
-0.003519 0.005084 -0.000370
-0.005605 0.009778 -0.000399
-0.004324 0.009130 0.000437
-0.005433 0.005286 0.000414
-0.005749 0.007173 -0.000383
-0.002872 0.006032 -0.000375
-0.003550 0.006170 0.000418
-0.006497 0.008656 -0.000393
-0.006927 0.008175 0.000433
-0.001244 0.009598 -0.000396
-0.000345 0.005474 -0.000371
0.000173 0.009996 0.000438
0.002190 0.007695 -0.000383
-0.000926 0.006918 0.000420
-0.000650 0.008352 -0.000388
0.000751 0.008312 0.000428
-0.001728 0.008646 0.000431
0.001540 0.005869 0.000411
-0.002209 0.006914 -0.000380
0.001098 0.006254 -0.000375
0.000693 0.007161 0.000420
0.001127 0.009647 -0.000395
0.002397 0.006590 -0.000376
-0.000176 0.006788 -0.000379
0.001370 0.009063 0.000432
-0.002126 0.005952 0.000415
0.000462 0.006071 0.000413
0.002187 0.008993 -0.000391
-0.001400 0.005377 -0.000371
-0.001461 0.007685 -0.000385
-0.000249 0.009430 -0.000394
-0.002081 0.009797 0.000440
-0.000862 0.005886 0.000413
0.000333 0.007908 -0.000385
0.001223 0.007450 -0.000382
-0.001294 0.006412 -0.000377
0.002041 0.007075 0.000418
-0.000303 0.007832 0.000426
0.004034 0.006583 -0.000376
0.005447 0.009803 0.000432
0.007331 0.007837 -0.000381
0.003420 0.008475 0.000426
0.003078 0.005154 -0.000368
0.006359 0.006578 0.000411
0.004407 0.009839 0.000433
0.003284 0.007429 -0.000381
0.003049 0.006268 0.000412
0.007058 0.009933 -0.000394
0.004819 0.008712 -0.000387
0.006280 0.007810 -0.000382
0.007096 0.005550 0.000403
0.006179 0.008703 0.000424
0.003646 0.009388 -0.000392
0.007070 0.006615 -0.000374
0.005177 0.006200 -0.000373
0.006383 0.005698 -0.000369
0.005404 0.005269 0.000404
0.007256 0.009203 0.000426
0.004909 0.007664 -0.000382
0.004394 0.005226 -0.000367
0.003784 0.005012 0.000403
0.004578 0.005837 0.000408
0.005447 0.007960 0.000420
0.007697 0.008818 -0.000387
0.002976 0.009335 0.000431
0.006661 0.009017 -0.000389
0.005127 0.006805 0.000413
0.002714 0.007794 0.000422
0.006753 0.007466 0.000416
0.004087 0.007664 0.000420
0.007967 0.006163 -0.000372
0.011935 0.009022 0.000421
0.011089 0.009598 -0.000390
0.010108 0.008425 0.000419
0.007976 0.007218 0.000414
0.009251 0.009987 -0.000393
0.010289 0.007349 0.000412
0.012583 0.009268 -0.000387
0.011641 0.005584 -0.000366
0.011870 0.008077 -0.000380
0.012268 0.006143 0.000402
0.011247 0.007163 -0.000375
0.008434 0.008413 0.000421
0.010723 0.005115 0.000397
0.009076 0.006108 -0.000370
0.009659 0.005621 0.000402
0.010760 0.008529 -0.000384
0.008311 0.005189 -0.000365
0.009401 0.008460 -0.000384
0.010267 0.006720 -0.000373
0.011515 0.009916 0.000427
0.011127 0.008093 0.000416
0.009870 0.009505 0.000426
0.008644 0.005705 0.000403
0.008629 0.007337 -0.000378
0.009303 0.007644 0.000415
0.010918 0.006094 0.000404
0.012297 0.006765 -0.000373
0.017552 0.007111 0.000403
0.013118 0.005411 0.000397
0.015259 0.006454 0.000402
0.015792 0.009238 0.000419
0.016958 0.006939 -0.000372
0.017096 0.009233 0.000418
0.016482 0.009800 -0.000389
0.014335 0.009707 -0.000389
0.014643 0.007999 0.000412
0.013843 0.006360 0.000402
0.017190 0.005974 0.000397
0.013875 0.008073 -0.000380
0.014746 0.005901 -0.000366
0.012846 0.008251 -0.000381
0.014392 0.007130 -0.000374
0.017425 0.008672 -0.000381
0.016063 0.006292 -0.000368
0.015846 0.007455 -0.000375
0.016330 0.008407 -0.000380
0.015633 0.005294 -0.000363
0.012727 0.007351 0.000410
0.013268 0.006868 -0.000373
0.015390 0.009897 -0.000389
0.014624 0.005250 0.000395
0.013318 0.008516 0.000417
0.014282 0.009037 0.000419
0.016208 0.005609 0.000395
0.013803 0.007334 0.000408
0.014936 0.008652 -0.000383
0.017212 0.008141 0.000411
0.019103 0.009563 -0.000385
0.019530 0.007641 -0.000374
0.022172 0.006998 0.000398
0.018778 0.006800 0.000401
0.020741 0.007515 0.000404
0.021520 0.008432 0.000409
0.022174 0.005899 -0.000363
0.020720 0.008346 -0.000378
0.019785 0.005277 -0.000361
0.022668 0.007403 -0.000372
0.021844 0.009948 0.000418
0.020441 0.005848 0.000393
0.018626 0.005726 0.000394
0.020398 0.009643 0.000417
0.021013 0.006121 -0.000365
0.022626 0.008852 0.000410
0.018170 0.005289 -0.000361
0.018070 0.007642 -0.000375
0.019070 0.008977 0.000415
0.018586 0.008131 0.000409
0.020015 0.006856 0.000400
0.018481 0.008769 -0.000381
0.019542 0.008632 -0.000380
0.021547 0.007488 -0.000372
0.022287 0.008358 -0.000377
0.021566 0.005806 0.000392
0.020120 0.008486 0.000410
0.021620 0.009063 -0.000382
0.019380 0.006184 -0.000366
0.017882 0.006564 -0.000369
0.026826 0.005933 0.000388
0.024001 0.006893 -0.000368
0.025332 0.006369 -0.000364
0.024675 0.006698 0.000395
0.027360 0.007710 0.000398
0.023326 0.007485 0.000401
0.025445 0.005220 -0.000357
0.026937 0.006613 -0.000365
0.023336 0.005479 0.000388
0.026627 0.008597 -0.000376
0.025822 0.009766 -0.000384
0.023737 0.008627 -0.000378
0.025629 0.007901 -0.000373
0.026795 0.009592 -0.000382
0.024616 0.007907 0.000402
0.025071 0.009151 0.000409
0.026223 0.009107 0.000408
0.023741 0.009186 0.000411
0.024601 0.005732 -0.000361
0.025832 0.006724 0.000393
0.026262 0.007921 0.000401
0.029972 0.006432 0.000387
0.030099 0.007656 0.000396
0.028368 0.007010 0.000393
0.029461 0.008161 -0.000372
0.029274 0.009364 0.000407
0.030993 0.006737 0.000389
0.032089 0.009071 0.000403
0.030429 0.009774 -0.000382
0.031423 0.005892 -0.000358
0.027704 0.008686 0.000404
0.028859 0.006111 0.000387
0.031830 0.008501 -0.000374
0.029638 0.005080 -0.000355
0.029181 0.007082 -0.000366
0.030610 0.009095 0.000404
0.030269 0.005497 0.000382
0.027816 0.005482 -0.000357
0.027852 0.009399 -0.000380
0.031920 0.006921 -0.000364
0.032632 0.005114 0.000377
0.028229 0.007977 -0.000372
0.028821 0.007922 0.000398
0.028701 0.008866 -0.000377
0.030727 0.007620 -0.000369
0.032689 0.009129 -0.000377
0.027909 0.006532 -0.000364
0.031312 0.007969 0.000396
0.036313 0.006384 -0.000359
0.036084 0.005018 0.000374
0.037368 0.007396 0.000387
0.033685 0.008061 -0.000370
0.034311 0.006657 -0.000362
0.034120 0.009952 0.000406
0.033454 0.005830 0.000380
0.034800 0.009324 -0.000377
0.033775 0.006999 0.000388
0.033812 0.009286 -0.000377
0.037230 0.008284 -0.000370
0.032758 0.006233 -0.000359
0.036912 0.009731 -0.000378
0.037009 0.006407 0.000381
0.035629 0.008189 0.000394
0.036304 0.009546 0.000402
0.035354 0.006663 0.000384
0.035897 0.008780 -0.000373
0.036674 0.007416 -0.000365
0.034796 0.005766 -0.000356
0.034737 0.007691 -0.000367
0.037661 0.005476 0.000374
0.035111 0.005099 0.000375
0.033148 0.009516 0.000404
0.034223 0.008555 0.000397
0.032738 0.007793 0.000394
0.036627 0.008276 0.000393
0.035718 0.009792 -0.000379
0.040650 0.007510 0.000384
0.039886 0.005890 0.000375
0.038961 0.009739 0.000400
0.038851 0.005983 0.000376
0.039162 0.007620 -0.000364
0.040852 0.009608 0.000398
0.037893 0.006687 -0.000359
0.042223 0.008110 0.000387
0.038868 0.005202 -0.000351
0.040381 0.006692 -0.000359
0.041492 0.005234 -0.000350
0.042303 0.007424 -0.000362
0.040075 0.009449 -0.000375
0.037865 0.009580 -0.000377
0.041972 0.009099 -0.000372
0.039753 0.008479 0.000392
0.038631 0.008244 0.000391
0.039240 0.008855 -0.000372
0.041641 0.006463 0.000377
0.042271 0.005222 0.000368
0.040489 0.005593 -0.000352
0.041357 0.007688 -0.000364
0.040977 0.008763 -0.000371
0.037814 0.008939 0.000396
0.040112 0.007824 -0.000366
0.038664 0.007186 0.000385
0.039633 0.007048 0.000382
0.042345 0.006295 -0.000355
0.046426 0.006679 0.000374
0.045823 0.005544 -0.000349
0.047161 0.005516 0.000366
0.043466 0.005693 -0.000351
0.045369 0.008411 0.000386
0.047160 0.007146 -0.000358
0.042831 0.009528 0.000395
0.044564 0.008147 -0.000366
0.043466 0.008570 -0.000368
0.044188 0.009279 -0.000372
0.043956 0.007658 0.000382
0.044947 0.007128 0.000378
0.046367 0.008909 -0.000369
0.047614 0.006229 -0.000353
0.045244 0.009681 -0.000374
0.046506 0.008049 0.000383
0.044688 0.006041 0.000372
0.042895 0.006760 0.000378
0.043363 0.007181 -0.000360
0.047447 0.007715 0.000380
0.045786 0.009424 0.000392
0.044310 0.006627 -0.000357
0.045647 0.006797 -0.000357
0.046672 0.006032 -0.000352
0.045932 0.007734 -0.000362
0.047315 0.009390 -0.000371
0.052112 0.009271 0.000385
0.048334 0.008142 0.000382
0.049253 0.005322 0.000363
0.050866 0.009499 0.000387
0.051211 0.008235 -0.000362
0.049005 0.006353 -0.000353
0.048948 0.009341 -0.000370
0.047980 0.009372 0.000390
0.049507 0.008182 -0.000363
0.052120 0.007740 -0.000359
0.051122 0.005597 0.000362
0.049984 0.007086 -0.000356
0.049969 0.005429 -0.000346
0.051895 0.006536 -0.000353
0.049097 0.009947 0.000392
0.048882 0.007347 -0.000359
0.047758 0.008516 -0.000366
0.052292 0.005197 0.000359
0.050588 0.008341 0.000380
0.048237 0.006625 0.000372
0.050068 0.009030 -0.000368
0.050835 0.006475 -0.000352
0.051549 0.007375 0.000374
0.048086 0.009995 -0.000374
0.050028 0.006289 0.000368
0.051511 0.009596 -0.000371
0.048276 0.005453 -0.000348
0.050571 0.007372 0.000374
0.056560 0.008306 -0.000360
0.057291 0.009750 0.000383
0.054508 0.008560 0.000378
0.055298 0.007365 -0.000355
0.057494 0.006228 -0.000348
0.052779 0.009587 -0.000370
0.053854 0.007393 0.000371
0.052916 0.008075 0.000377
0.057076 0.008794 0.000378
0.057630 0.007473 -0.000355
0.054058 0.009733 -0.000370
0.056496 0.006963 -0.000353
0.052970 0.005378 -0.000345
0.055229 0.006164 0.000363
0.054118 0.005157 -0.000343
0.055217 0.008356 -0.000361
0.055811 0.009973 0.000386
0.055734 0.005159 0.000355
0.054744 0.009720 0.000386
0.053440 0.006437 -0.000351
0.053641 0.008322 -0.000362
0.052703 0.006324 0.000366
0.055887 0.008196 0.000375
0.054452 0.006204 -0.000349
0.055845 0.009234 -0.000366
0.057209 0.006921 0.000365
0.055976 0.006099 -0.000348
0.053552 0.009186 0.000383
0.056815 0.005729 0.000358
0.053577 0.005747 0.000361
0.057521 0.005071 -0.000341
0.061683 0.009001 0.000375
0.059893 0.007601 0.000367
0.059829 0.008938 -0.000363
0.058457 0.008883 0.000376
0.062418 0.007838 -0.000355
0.059367 0.006042 -0.000345
0.060424 0.009854 -0.000368
0.058657 0.007360 -0.000354
0.062198 0.006704 0.000359
0.061068 0.005826 0.000355
0.061772 0.007620 0.000365
0.061710 0.005590 -0.000342
0.060529 0.006855 0.000361
0.060337 0.005826 -0.000344
0.060814 0.008218 -0.000358
0.058160 0.005601 0.000356
0.059594 0.009634 0.000380
0.059093 0.006798 0.000363
0.059754 0.005385 0.000353
0.062628 0.009333 0.000376
0.061289 0.006682 -0.000349
0.060591 0.009098 0.000376
0.057922 0.009544 -0.000367
0.064513 0.006758 -0.000347
0.063127 0.006811 -0.000348
0.064108 0.005730 -0.000342
0.066101 0.005436 -0.000339
0.062703 0.005699 -0.000342
0.067029 0.006350 0.000353
0.066905 0.009081 -0.000359
0.065444 0.008962 -0.000360
0.063952 0.008391 0.000368
0.065576 0.006755 -0.000347
0.065342 0.008196 0.000366
0.063102 0.008606 -0.000359
0.067668 0.007809 0.000361
0.066257 0.007998 -0.000354
0.065639 0.009941 -0.000366
0.063188 0.005127 0.000348
0.063220 0.007648 0.000364
0.064919 0.005971 0.000352
0.064824 0.009840 0.000376
0.066104 0.009178 0.000371
0.064865 0.007343 0.000361
0.063451 0.006165 0.000355
0.064157 0.009100 -0.000362
0.066507 0.007315 0.000359
0.067229 0.006989 -0.000347
0.063952 0.007569 -0.000352
0.067750 0.009100 0.000369
0.071900 0.009969 0.000371
0.069715 0.009631 0.000371
0.071008 0.007628 0.000357
0.072028 0.005254 0.000340
0.070157 0.007006 -0.000347
0.068669 0.007726 0.000360
0.070047 0.008183 0.000362
0.067885 0.006128 -0.000342
0.070899 0.009124 -0.000358
0.069780 0.005537 0.000345
0.070594 0.005013 -0.000334
0.068737 0.006658 0.000353
0.071996 0.007362 -0.000347
0.072520 0.009820 -0.000361
0.071392 0.005787 -0.000338
0.069451 0.007863 -0.000351
0.069146 0.008777 0.000366
0.069908 0.008937 -0.000357
0.069097 0.005712 -0.000339
0.071867 0.008880 -0.000357
0.071758 0.006371 0.000348
0.068342 0.008634 -0.000357
0.070589 0.006374 0.000349
0.068056 0.005415 0.000345
0.072755 0.007359 0.000354
0.076182 0.006896 -0.000343
0.072810 0.006108 -0.000339
0.077559 0.005801 0.000339
0.076196 0.006072 0.000342
0.075414 0.005935 -0.000337
0.073911 0.009122 0.000364
0.073699 0.008102 0.000358
0.074370 0.008580 -0.000353
0.076941 0.007318 0.000349
0.075486 0.009353 0.000364
0.073982 0.005630 0.000341
0.074630 0.006698 -0.000342
0.077249 0.008091 -0.000349
0.075521 0.007593 0.000352
0.073005 0.008107 -0.000351
0.077124 0.006377 -0.000339
0.076080 0.008916 -0.000355
0.076463 0.008202 0.000355
0.072749 0.009223 0.000365
0.074499 0.007472 0.000352
0.074375 0.009579 -0.000359
0.073817 0.007449 -0.000347
0.073644 0.006794 0.000349
0.075997 0.005144 -0.000332
0.075390 0.006617 0.000346
0.076714 0.009375 0.000362
0.074894 0.005177 0.000338
0.077707 0.008662 0.000357
0.081716 0.008520 -0.000349
0.080222 0.007007 0.000344
0.080158 0.008649 -0.000351
0.078974 0.009978 0.000364
0.078935 0.008698 -0.000352
0.082216 0.006515 0.000339
0.082680 0.005540 0.000333
0.079836 0.009840 -0.000358
0.079420 0.006573 -0.000339
0.082219 0.009953 -0.000358
0.078487 0.007126 0.000346
0.081553 0.005023 0.000330
0.080647 0.008027 0.000350
0.080612 0.005874 -0.000334
0.081877 0.007361 -0.000342
0.079895 0.006058 0.000339
0.078841 0.005578 0.000336
0.081188 0.006827 0.000342
0.082484 0.008552 0.000352
0.078279 0.006269 -0.000338
0.077772 0.007141 -0.000343
0.079692 0.009184 0.000359
0.080724 0.009354 0.000359
0.081705 0.009187 0.000356
0.078326 0.009626 -0.000358
0.079636 0.007862 0.000350
0.081953 0.005690 -0.000333
0.078473 0.007844 -0.000347
0.078226 0.005096 -0.000331
0.084490 0.009583 -0.000354
0.087012 0.008133 0.000345
0.085457 0.006646 -0.000336
0.086840 0.005636 0.000329
0.085132 0.005633 0.000331
0.084598 0.005089 -0.000328
0.087164 0.009406 -0.000352
0.084976 0.008203 -0.000346
0.083330 0.006134 -0.000335
0.083642 0.009004 -0.000351
0.085828 0.009356 0.000354
0.082946 0.007656 -0.000343
0.085277 0.007325 0.000342
0.087613 0.006575 -0.000335
0.084174 0.006642 0.000338
0.086082 0.008318 -0.000346
0.083777 0.007981 0.000347
0.083675 0.005479 0.000331
0.086566 0.007002 0.000339
0.084579 0.008826 0.000351
0.083043 0.009569 0.000358
0.084199 0.007420 -0.000342
0.086008 0.006211 0.000334
0.088548 0.006249 -0.000333
0.091236 0.007913 0.000340
0.090021 0.007054 -0.000337
0.089658 0.005690 0.000327
0.091453 0.008607 -0.000345
0.088613 0.008732 -0.000347
0.091323 0.006412 -0.000333
0.088808 0.005189 0.000325
0.091088 0.005159 0.000322
0.088898 0.007628 -0.000341
0.092474 0.008501 0.000343
