ply
format ascii 1.0
element vertex 1653
property float x
property float y
property float z
end_header
-0.095142 0.001017 -0.004802
-0.048160 0.000503 0.001187
-0.147030 0.005336 0.000811
-0.034163 0.004296 -0.002644
-0.119370 -0.000656 -0.004289
-0.133530 0.005381 -0.003195
-0.047828 -0.001037 -0.001857
-0.046170 0.001067 0.001380
-0.010126 0.000193 -0.003188
-0.049024 0.000434 -0.003962
-0.119250 0.000208 0.002040
-0.125740 -0.001828 -0.000103
-0.025882 -0.000579 -0.002457
-0.040112 0.004198 -0.002961
-0.142490 0.004577 0.001638
-0.146150 -0.001279 0.001358
-0.130440 0.005753 -0.001599
-0.148200 0.000768 -0.005410
-0.158540 0.003071 -0.005493
-0.021417 0.000052 0.000442
-0.174780 0.003747 -0.005433
-0.068284 -0.001215 -0.000577
-0.031792 0.000605 -0.003811
-0.160640 0.006103 -0.001999
-0.051680 -0.000696 0.000112
-0.185380 -0.002790 -0.001110
-0.094790 0.003107 0.001866
-0.025171 0.002678 0.001096
-0.122900 -0.000119 -0.004705
-0.109480 0.000855 0.002149
-0.101310 0.000158 -0.004561
-0.106200 0.001475 0.002242
-0.077714 0.003123 -0.004432
-0.139590 0.005809 -0.000676
-0.027156 0.003257 0.000848
-0.086505 0.004693 -0.003224
-0.105360 0.002250 -0.005017
-0.138370 0.004864 -0.004068
-0.185830 -0.000711 0.002498
-0.073754 -0.000044 0.001245
-0.031698 0.004262 -0.000160
-0.094787 -0.001625 -0.000804
-0.151240 -0.000157 -0.005095
-0.172190 -0.002602 -0.000630
-0.113540 0.005496 -0.000724
-0.160050 0.002800 0.002803
-0.060156 0.001655 0.001663
-0.007849 -0.000495 -0.001938
-0.098702 0.005375 -0.001444
-0.060471 0.000625 -0.004236
-0.049468 0.001484 -0.004323
-0.017788 0.000900 -0.003770
-0.166580 0.001216 0.002963
-0.126750 -0.002017 -0.000691
-0.126570 0.001886 0.002491
-0.112740 0.004124 -0.004333
-0.144620 0.005676 0.000105
-0.153840 0.004124 0.002145
-0.181470 -0.001304 -0.004735
-0.151220 -0.002374 -0.001484
-0.149960 0.005352 -0.003615
-0.080364 0.004032 0.001098
-0.024846 -0.000633 -0.002253
-0.035163 0.000415 -0.003751
-0.109030 0.003991 0.001579
-0.187480 0.003711 0.002877
-0.115350 0.001144 0.002291
-0.072814 -0.000962 -0.002988
-0.109250 -0.001549 -0.002855
-0.097475 -0.001658 -0.000795
-0.069566 -0.000629 -0.003413
-0.074680 0.004950 -0.000464
-0.085417 0.003091 0.001749
-0.039524 0.000505 -0.003865
-0.107030 0.000927 -0.004929
-0.005453 0.000553 0.000588
-0.096532 0.005004 0.000127
-0.151790 -0.001445 -0.004040
-0.021066 0.001940 -0.003979
-0.072572 -0.000633 -0.003464
-0.163460 0.003349 0.002678
-0.113510 0.005516 -0.002049
-0.063843 0.003722 -0.003900
-0.042959 -0.000813 -0.002467
-0.059445 0.004871 -0.001900
-0.148750 0.005464 0.000614
-0.019998 0.003908 -0.002966
-0.105470 0.004553 0.001000
-0.168310 -0.001268 -0.004533
-0.050031 0.004604 -0.002438
-0.001470 0.001947 -0.003434
-0.028673 0.001376 0.001234
-0.053357 -0.001025 -0.000604
-0.098521 0.004163 -0.004063
-0.171040 0.006238 -0.001747
-0.175220 0.002023 0.003090
-0.017545 0.003688 0.000343
-0.103070 0.002188 0.002187
-0.026797 0.004499 -0.001286
-0.146290 0.005381 -0.003485
-0.011952 0.001765 -0.003867
-0.186690 0.003425 0.002955
-0.189470 0.002796 0.001935
-0.147210 -0.001553 -0.003840
-0.009647 0.000710 0.000742
-0.124130 0.002008 -0.005257
-0.099511 0.001088 0.002075
-0.061391 0.002291 0.001666
-0.021731 0.001104 -0.003878
-0.168560 0.003791 -0.005325
-0.167530 -0.000442 0.002381
-0.070707 0.004999 -0.000875
-0.150430 0.005065 -0.004074
-0.081237 -0.000446 0.001018
-0.021139 -0.000721 -0.001585
-0.047961 -0.000152 0.000718
-0.178970 0.000256 0.002902
-0.016622 0.003608 0.000406
-0.156860 0.005906 -0.002586
-0.071343 -0.000712 0.000558
-0.013997 0.002522 -0.003800
-0.125300 0.000400 -0.005002
-0.115080 -0.000410 0.001632
-0.061677 0.001329 -0.004452
-0.125360 -0.001566 -0.003254
-0.041737 0.001213 -0.004165
-0.113390 0.003996 -0.004449
-0.018123 0.000237 -0.003373
-0.179070 0.006006 0.000377
-0.183390 0.002264 0.003183
-0.162530 0.000603 0.002771
-0.178190 0.002301 -0.005915
-0.183940 0.003989 -0.005431
-0.152120 0.004697 0.001682
-0.074960 0.003834 -0.003979
-0.117110 0.000020 0.001910
-0.034278 0.001736 0.001337
-0.063202 0.004224 0.000595
-0.181340 0.003209 -0.005746
-0.038176 -0.000152 0.000539
-0.149560 0.000305 0.002521
-0.174670 -0.002638 -0.000644
-0.129770 0.005650 -0.000517
-0.148090 0.005684 -0.002948
-0.181270 0.006360 -0.000822
-0.168670 0.005654 -0.003557
-0.056607 0.004739 -0.002268
-0.065507 -0.001237 -0.000801
-0.175720 0.003703 -0.005470
-0.166360 0.003673 0.002608
-0.131440 0.000058 -0.004939
-0.173830 0.000443 0.002879
-0.092503 -0.001422 -0.000208
-0.181850 -0.000415 0.002598
-0.068382 0.000595 0.001523
-0.085163 0.000941 0.001857
-0.037851 -0.000903 -0.000922
-0.138460 0.003365 0.002350
-0.085985 0.000132 -0.004322
-0.174510 -0.002439 0.000004
-0.157990 0.002353 0.002864
-0.109830 0.000133 -0.004670
-0.116310 0.000252 0.002021
-0.103060 0.004029 -0.004262
-0.048399 0.000801 -0.004135
-0.153660 0.003549 0.002490
-0.142700 0.004341 -0.004625
-0.189470 -0.000674 -0.003967
-0.088124 0.000791 -0.004643
-0.074432 -0.001394 -0.001150
-0.138000 0.005699 -0.000282
-0.095486 -0.001426 -0.000091
-0.045499 -0.000117 -0.003510
-0.155190 0.004259 -0.004891
-0.184850 0.006131 -0.003003
-0.107770 -0.001821 -0.001348
-0.097416 0.002899 -0.004765
-0.071139 0.002807 -0.004454
-0.097758 0.003380 -0.004571
-0.177190 -0.001836 0.001276
-0.164420 -0.000500 -0.005072
-0.011919 0.004319 -0.001649
-0.154850 0.005934 -0.002412
-0.016993 0.000575 -0.003580
-0.124750 0.002823 -0.005128
-0.122490 0.005375 -0.002904
-0.006237 0.003153 -0.003416
-0.131360 -0.002108 -0.001078
-0.189470 0.004581 0.001331
-0.181930 -0.001636 -0.004386
-0.050279 0.002550 -0.004258
-0.009795 0.004289 -0.001130
-0.162210 -0.001771 0.001024
-0.167370 -0.001316 0.001688
-0.035971 -0.000080 0.000572
-0.121740 0.004194 -0.004417
-0.114420 0.004937 -0.003469
-0.176490 0.006295 -0.001979
-0.029483 0.000214 0.000742
-0.149280 0.000033 -0.005182
-0.105940 0.005318 -0.000357
-0.040355 -0.000141 0.000590
-0.042170 0.003363 0.001003
-0.080497 0.005004 -0.002386
-0.073869 -0.001070 0.000028
-0.016455 0.002141 0.001113
-0.087506 0.004289 -0.003762
-0.189410 -0.002847 -0.001266
-0.148960 -0.000226 0.002232
-0.156870 -0.000938 -0.004675
-0.075523 0.004664 -0.003021
-0.181640 -0.002651 -0.002336
-0.166650 0.006211 -0.001044
-0.023786 0.003320 0.000764
-0.085821 -0.000162 0.001354
-0.181940 -0.000982 0.002249
-0.001470 0.001270 -0.001312
-0.045500 0.004727 -0.001127
-0.131130 0.003606 0.002141
-0.124080 0.003899 -0.004657
-0.169840 0.005577 0.000947
-0.177780 0.006228 -0.000435
-0.099606 0.003702 -0.004425
-0.163700 0.005833 -0.003105
-0.144210 -0.001805 -0.003307
-0.171330 0.000199 0.002774
-0.034683 0.000832 -0.003967
-0.073072 0.003146 -0.004356
-0.174310 0.003987 0.002528
-0.090878 0.004867 -0.003043
-0.026789 0.004424 -0.002030
-0.009487 0.001275 0.000955
-0.096966 0.000488 -0.004664
-0.166080 0.004947 0.001663
-0.174430 0.000131 -0.005553
-0.103140 0.005417 -0.001772
-0.022387 0.002155 0.001186
-0.020390 0.000608 0.000840
-0.080462 0.000893 -0.004576
-0.065155 0.001732 -0.004524
-0.056794 0.001089 0.001526
-0.041190 -0.000695 -0.000157
-0.080583 -0.001464 -0.001832
-0.182520 0.003935 0.002680
-0.118660 -0.000333 0.001738
-0.051919 0.004705 -0.000631
-0.086338 -0.000765 -0.003574
-0.100180 0.000707 -0.004773
-0.065595 0.001636 0.001731
-0.141540 0.000020 -0.005063
-0.068228 -0.001188 -0.002318
-0.011714 -0.000438 -0.000474
-0.051314 -0.000239 -0.003493
-0.045250 -0.001029 -0.001567
-0.050841 -0.001090 -0.000989
-0.168310 0.001510 -0.005780
-0.151140 -0.002296 -0.002173
-0.020189 -0.000711 -0.001176
-0.164970 0.000056 -0.005407
-0.020319 0.002929 -0.003747
-0.058445 0.003809 -0.003730
-0.051634 0.003930 0.000698
-0.052855 0.000673 0.001344
-0.147950 0.004709 -0.004370
-0.124120 0.001088 0.002390
-0.189360 0.003766 0.002884
-0.142860 0.002404 -0.005450
-0.040297 -0.000025 -0.003509
-0.091574 -0.000945 0.000667
-0.069541 0.004256 -0.003482
-0.067065 0.000162 -0.004064
-0.001470 0.002646 -0.000715
-0.156450 0.006077 -0.001320
-0.085327 0.000468 -0.004506
-0.125400 0.005555 -0.002438
-0.008487 -0.000553 -0.001756
-0.093783 -0.000527 0.001158
-0.170000 -0.002590 -0.000921
-0.112960 0.004665 -0.003826
-0.150040 -0.000471 0.002117
-0.166860 -0.000377 -0.005186
-0.162060 0.005237 -0.004072
-0.119260 -0.001757 -0.000148
-0.086900 -0.001336 -0.002660
-0.117770 0.002168 0.002371
-0.088406 -0.000943 -0.003413
-0.109860 0.005513 -0.001358
-0.181780 -0.002767 -0.001706
-0.074168 0.000125 -0.004145
-0.123020 0.002632 -0.005150
-0.130700 0.005331 -0.003210
-0.171050 0.002779 0.002952
-0.158880 0.006098 -0.001568
-0.058549 0.004561 -0.000023
-0.099391 0.001785 0.002157
-0.055382 -0.001009 -0.000457
-0.189470 0.004605 0.000707
-0.161570 -0.001735 -0.003898
-0.008817 -0.000101 -0.002853
-0.097121 0.004429 0.000983
-0.093626 0.005316 -0.001070
-0.171660 -0.000497 -0.005180
-0.123410 -0.001269 0.000904
-0.115750 0.000317 -0.004854
-0.124160 -0.001296 0.000880
-0.028448 -0.000378 -0.002874
-0.115830 0.003278 0.002084
-0.157670 0.005714 0.000372
-0.057261 0.004353 0.000308
-0.165830 0.006181 -0.001572
-0.091869 0.004286 -0.003838
-0.134100 0.002721 -0.005268
-0.086159 -0.001448 -0.002215
-0.176140 0.000263 0.002867
-0.021336 0.002969 0.000928
-0.033746 0.002247 0.001319
-0.051381 0.002880 0.001374
-0.054274 -0.000022 0.000948
-0.057848 0.004511 0.000053
-0.189470 0.003990 0.000041
-0.120700 0.000345 0.002133
-0.127920 0.002367 0.002490
-0.063047 0.000028 0.001129
-0.189470 -0.000070 -0.002630
-0.077893 0.001442 -0.004670
-0.068056 0.001306 -0.004528
-0.025310 0.003310 0.000791
-0.110690 0.004123 0.001521
-0.149820 -0.002339 -0.001012
-0.185190 0.006274 -0.000235
-0.092453 0.001766 0.002071
-0.151980 0.006031 -0.001069
-0.114180 0.000939 -0.005025
-0.107070 0.001932 -0.005045
-0.182270 0.005718 -0.003764
-0.170090 -0.001781 -0.004013
-0.102160 0.000383 -0.004699
-0.083389 0.005075 -0.000520
-0.021172 0.000778 0.000950
-0.183990 0.003144 -0.005794
-0.131030 -0.001509 0.000703
-0.127600 -0.001152 -0.003913
-0.181180 0.002972 0.003023
-0.091309 0.005008 -0.000018
-0.189100 -0.002755 -0.002306
-0.110180 -0.000767 -0.004008
-0.070915 0.001350 0.001768
-0.136000 -0.002186 -0.001757
-0.078259 0.002018 -0.004688
-0.019844 0.000558 -0.003611
-0.084241 -0.000911 0.000546
-0.015635 -0.000590 -0.000846
-0.115920 -0.001924 -0.001358
-0.090420 0.005134 -0.000404
-0.182210 0.004897 -0.004761
-0.148510 0.002156 0.002753
-0.142520 0.001721 -0.005472
-0.086958 -0.000151 0.001377
-0.022270 0.000143 -0.003355
-0.181210 0.006363 -0.001679
-0.185080 -0.002362 -0.003348
-0.020566 0.000278 -0.003457
-0.125020 -0.000633 -0.004411
-0.148690 -0.002158 -0.000191
-0.029966 -0.000437 0.000006
-0.186730 -0.002240 -0.003621
-0.185760 0.006225 -0.002735
-0.177660 0.000182 -0.005610
-0.166770 0.000051 0.002631
-0.094282 0.003509 0.001667
-0.164550 0.002887 -0.005610
-0.129240 -0.001819 0.000079
-0.120990 0.001703 0.002428
-0.022956 0.000432 0.000775
-0.155640 0.004835 0.001596
-0.133600 -0.002032 -0.002336
-0.179870 0.006351 -0.001575
-0.165320 0.005386 -0.003909
-0.167060 0.000776 0.002869
-0.130940 -0.000915 -0.004229
-0.189470 0.004966 0.000171
-0.163700 0.000595 -0.005557
-0.064736 -0.000424 0.000747
-0.189470 -0.001338 -0.001750
-0.165420 -0.001023 0.001927
-0.003398 0.000623 -0.003411
-0.078236 0.002215 0.001878
-0.146780 0.005941 -0.001839
-0.026325 0.002122 0.001236
-0.174170 0.004739 0.002032
-0.026527 -0.000767 -0.001834
-0.054887 0.001791 0.001597
-0.085705 -0.000381 -0.003962
-0.088939 0.005260 -0.001368
-0.167090 -0.001410 -0.004358
-0.037633 0.001378 0.001349
-0.112120 0.002380 0.002293
-0.090829 0.000413 -0.004554
-0.069541 -0.001330 -0.001089
-0.116550 -0.000848 0.001250
-0.044975 0.001275 -0.004223
-0.078910 0.001878 -0.004697
-0.112810 -0.001867 -0.000864
-0.009565 0.001727 -0.003837
-0.120100 0.004983 0.000766
-0.165480 -0.001542 0.001445
-0.180760 0.003721 0.002787
-0.107800 -0.001237 0.000586
-0.142040 -0.000069 0.002217
-0.111850 0.005265 0.000032
-0.156670 -0.001137 0.001671
-0.172180 0.006241 -0.002052
-0.058282 0.002064 0.001635
-0.087776 -0.000909 0.000633
-0.148890 0.003673 0.002356
-0.109650 0.001396 -0.005057
-0.042022 -0.000253 -0.003314
-0.059005 0.002829 0.001488
-0.111160 0.000515 -0.004855
-0.087547 0.004758 -0.003145
-0.015170 0.000087 0.000364
-0.050745 0.004577 -0.002554
-0.075392 -0.000947 -0.003081
-0.081810 -0.000933 0.000454
-0.138060 0.005143 0.000932
-0.009442 0.003113 0.000676
-0.054421 0.003509 -0.003894
-0.086483 0.001933 -0.004791
-0.052826 0.004379 -0.002960
-0.029465 0.004530 -0.001681
-0.004145 0.000682 -0.003455
-0.126940 0.005722 -0.001275
-0.130460 0.000233 0.002212
-0.106190 -0.000531 -0.004178
-0.138990 0.005866 -0.001324
-0.124290 0.003567 0.002065
-0.079807 0.004545 -0.003308
-0.096234 0.001797 -0.004908
-0.075905 0.003787 0.001227
-0.181760 -0.000149 -0.005546
-0.079434 0.000963 -0.004584
-0.138970 0.005679 -0.000142
-0.076396 -0.000159 0.001201
-0.159310 -0.001232 0.001628
-0.109320 0.003320 0.001988
-0.076194 0.005094 -0.001686
-0.158610 0.002124 -0.005684
-0.055751 0.004839 -0.001845
-0.031735 0.003730 -0.003356
-0.060100 0.004907 -0.001338
-0.173320 0.004826 -0.004681
-0.181450 0.005871 0.000693
-0.003235 0.000792 0.000695
-0.182290 -0.002444 -0.003118
-0.100800 -0.001500 -0.000104
-0.186300 0.005220 -0.004529
-0.179630 -0.002645 -0.000446
-0.045813 0.004232 -0.003035
-0.143870 -0.002064 -0.000092
-0.102200 0.001495 -0.004970
-0.171950 -0.002152 -0.003394
-0.025221 0.000807 -0.003830
-0.144480 -0.001920 0.000360
-0.033231 -0.000532 -0.002731
-0.148050 -0.002337 -0.001583
-0.061665 0.000195 0.001207
-0.187700 -0.001662 0.001715
-0.008949 0.003329 -0.003352
-0.129990 0.003189 -0.005103
-0.001470 0.002757 0.000072
-0.186090 -0.001389 0.001941
-0.160000 -0.001801 0.000925
-0.077390 -0.001205 -0.000149
-0.002198 -0.000333 -0.000541
-0.183120 -0.002778 -0.001545
-0.034072 0.003350 -0.003698
-0.123700 -0.001460 -0.003409
-0.057660 0.003866 0.000866
-0.143270 -0.001967 0.000198
-0.109820 0.004031 0.001566
-0.104570 0.003376 -0.004666
-0.036014 0.004036 0.000311
-0.119420 -0.001970 -0.001421
-0.089088 0.003661 -0.004300
-0.171480 0.003756 0.002632
-0.108120 -0.000318 0.001591
-0.148850 0.004785 -0.004315
-0.127220 0.003699 -0.004807
-0.069716 0.004930 -0.002174
-0.178230 0.000579 0.002966
-0.102860 0.004485 -0.003832
-0.112480 0.005523 -0.001960
-0.103650 0.001897 0.002205
-0.167660 0.003404 -0.005517
-0.111470 0.004633 -0.003832
-0.132900 0.005018 0.000991
-0.054498 -0.001086 -0.000780
-0.143100 -0.001577 0.000880
-0.095002 0.003984 -0.004171
-0.179260 -0.000264 0.002641
-0.098719 0.000377 -0.004647
-0.189470 0.003951 0.000868
-0.040850 -0.000249 -0.003297
-0.059467 0.002384 0.001617
-0.052898 0.002999 -0.004157
-0.017652 -0.000331 -0.002682
-0.062776 0.003753 0.001058
-0.120440 0.002713 0.002318
-0.171580 -0.002635 -0.001606
-0.048859 -0.001073 -0.001740
-0.137400 0.005305 -0.003404
-0.103770 0.000022 -0.004513
-0.188080 -0.002452 0.000544
-0.103550 -0.001754 -0.001859
-0.189470 0.004380 -0.002042
-0.147250 -0.002071 -0.002885
-0.097476 0.002954 0.001947
-0.166010 0.005722 0.000574
-0.078972 -0.001052 0.000192
-0.119070 0.005439 -0.000186
-0.169710 0.005058 0.001609
-0.010481 0.003964 -0.002641
-0.173290 0.006015 -0.002905
-0.098434 0.005033 0.000120
-0.101140 0.005030 -0.003011
-0.062903 0.002120 -0.004497
-0.047534 0.004030 0.000524
-0.090808 -0.001291 -0.002849
-0.073798 0.003994 -0.003812
-0.039625 0.003739 -0.003484
-0.161010 -0.001057 -0.004626
-0.070478 -0.001337 -0.000972
-0.112360 -0.001739 -0.000386
-0.059351 0.003349 -0.004059
-0.124400 -0.000633 -0.004400
-0.010051 0.003531 -0.003179
-0.006811 0.002162 -0.003800
-0.061809 0.002210 -0.004481
-0.041979 -0.000895 -0.000682
-0.112620 0.005346 -0.002591
-0.171970 0.003692 -0.005424
-0.164920 0.002579 0.002932
-0.051473 -0.001110 -0.001329
-0.036868 0.004279 -0.000062
-0.092017 0.001198 0.002004
-0.187190 -0.000616 0.002568
-0.095996 -0.001190 0.000380
-0.177870 0.006325 -0.001612
-0.036865 0.001282 -0.004120
-0.156520 0.003997 0.002264
-0.043289 0.000134 0.000900
-0.079301 0.003125 0.001660
-0.146440 0.001731 -0.005520
-0.030313 -0.000837 -0.001648
-0.189470 -0.000105 0.001786
-0.146330 0.005868 -0.002277
-0.189470 0.003677 -0.001836
-0.123700 0.005450 -0.000013
-0.060248 0.000228 0.001205
-0.068445 0.003149 0.001501
-0.130220 -0.002020 -0.002198
-0.168220 -0.002539 -0.002073
-0.122410 0.002333 -0.005211
-0.102720 -0.001728 -0.001927
-0.036047 0.001175 0.001277
-0.172940 0.004003 -0.005273
-0.027362 0.001792 0.001250
-0.048074 -0.000958 -0.000615
-0.117820 -0.001714 -0.000071
-0.131540 0.005283 -0.003307
-0.145630 -0.002285 -0.000996
-0.047443 0.002816 0.001343
-0.081090 0.002903 -0.004555
-0.043875 0.003543 -0.003724
-0.012437 -0.000609 -0.001616
-0.100510 0.003874 -0.004337
-0.139850 0.004642 0.001521
-0.174990 0.006305 -0.001230
-0.164100 -0.000172 0.002475
-0.063845 0.004939 -0.000986
-0.049396 0.000337 0.001109
-0.119830 -0.001955 -0.000849
-0.154460 0.006043 -0.001614
-0.049087 0.004632 -0.000496
-0.108750 -0.000248 0.001642
-0.118860 0.000191 -0.004833
-0.090306 0.005153 -0.002304
-0.046143 -0.000518 0.000270
-0.030491 0.001401 -0.004069
-0.056519 0.000168 0.001115
-0.165940 0.003958 -0.005201
-0.169640 0.004320 0.002251
-0.113480 0.001177 -0.005081
-0.121470 0.005616 -0.000818
-0.129060 0.000938 0.002419
-0.150340 0.002842 0.002665
-0.122160 0.002978 -0.005060
-0.106670 0.005226 -0.002740
-0.097615 0.004929 -0.003100
-0.134750 -0.001608 0.000633
-0.139900 0.000776 0.002521
-0.092806 0.002462 -0.004811
-0.066921 0.001325 -0.004519
-0.016898 0.000262 0.000571
-0.096444 0.003866 0.001475
-0.053709 -0.000384 -0.003387
-0.110170 -0.001443 0.000311
-0.059451 -0.000955 -0.002645
-0.125930 -0.001462 -0.003466
-0.004976 0.000204 0.000298
-0.111400 0.002032 0.002297
-0.140240 0.004887 -0.004077
-0.149140 -0.002354 -0.001807
-0.124930 0.004696 -0.004003
-0.110760 -0.001614 -0.000047
-0.094137 0.004509 0.000844
-0.108430 -0.001814 -0.000944
-0.150200 0.002911 -0.005425
-0.177730 0.001322 0.003130
-0.176420 -0.002625 -0.000520
-0.156760 0.005650 -0.003294
-0.161540 -0.001377 0.001531
-0.126620 0.004682 0.001241
-0.107220 0.004059 -0.004303
-0.154350 0.005981 -0.000629
-0.165890 -0.002339 -0.002815
-0.013019 0.002998 -0.003604
-0.091974 0.001795 -0.004855
-0.142070 0.002790 -0.005352
-0.101930 0.003467 0.001801
-0.170620 0.004228 0.002324
-0.084241 -0.001411 -0.002271
-0.097078 0.001211 -0.004878
-0.187200 0.003932 -0.005506
-0.002177 0.002336 0.000887
-0.175420 0.006271 -0.000751
-0.153810 0.004829 0.001570
-0.181370 0.004427 -0.005164
-0.062211 0.001823 0.001690
-0.128400 -0.001410 0.000798
-0.125320 -0.000235 0.001892
-0.166340 0.006169 -0.002068
-0.156090 -0.000666 -0.004847
-0.064739 0.000161 0.001232
-0.109200 -0.000643 -0.004121
-0.187160 -0.001130 -0.005010
-0.105610 0.003054 0.002021
-0.106820 0.004692 0.000875
-0.081214 0.001285 -0.004693
-0.118950 0.004891 0.000878
-0.173920 0.001342 0.003086
-0.183390 0.005985 0.000528
-0.160920 -0.001770 0.000996
-0.164240 0.000232 -0.005452
-0.063286 0.002560 0.001620
-0.155410 -0.002372 -0.002081
-0.026344 0.002207 -0.004039
-0.084223 0.002265 -0.004749
-0.117840 0.004499 -0.004069
-0.096679 0.004948 -0.003045
-0.133350 0.000077 0.002171
-0.065751 0.004977 -0.001344
-0.165910 -0.002560 -0.001509
-0.130660 0.004928 -0.003853
-0.019431 0.002699 -0.003821
-0.189470 0.000288 0.002957
-0.081284 0.000058 -0.004207
-0.162280 0.005511 0.000877
-0.116530 0.005181 -0.003128
-0.012759 0.003282 0.000627
-0.033980 0.004219 -0.000030
-0.092825 0.000925 0.001952
-0.057869 0.004879 -0.001259
-0.005477 -0.000480 -0.001880
-0.083623 -0.001316 -0.002590
-0.135720 0.000337 0.002342
-0.181750 0.001598 0.003187
-0.164100 -0.001349 -0.004368
-0.123470 0.001953 0.002450
-0.160120 -0.000034 0.002491
-0.047359 0.001535 -0.004299
-0.145490 0.000154 -0.005187
-0.160070 -0.002357 -0.002407
-0.074240 0.003010 0.001630
-0.155890 -0.000986 0.001797
-0.139180 0.000837 0.002525
-0.186050 -0.002108 -0.003853
-0.079683 0.002648 0.001810
-0.116280 0.001004 -0.005072
-0.186240 0.002169 -0.006024
-0.044257 -0.000906 -0.000608
-0.098169 0.005372 -0.001087
-0.091941 -0.001341 -0.002785
-0.056941 0.002356 0.001591
-0.097943 0.003981 -0.004222
-0.087908 0.002244 -0.004800
-0.018582 0.003214 -0.003556
-0.033448 0.004262 -0.002687
-0.145970 -0.002202 -0.002292
-0.167980 0.004143 0.002339
-0.012604 0.000921 0.000899
-0.131580 -0.000730 0.001618
-0.186150 0.000723 -0.005886
-0.128990 -0.001289 0.001005
-0.028363 -0.000437 -0.000035
-0.155750 -0.001611 -0.003934
-0.082860 0.001498 0.001948
-0.181790 0.001808 -0.005956
-0.137860 0.004421 0.001715
-0.063539 -0.001094 -0.000381
-0.127920 0.004680 -0.004067
-0.108520 -0.000422 -0.004304
-0.175450 -0.000283 -0.005370
-0.022230 0.004445 -0.001622
-0.170610 -0.002097 -0.003461
-0.189470 -0.000121 -0.005448
-0.077407 0.001871 0.001880
-0.061178 0.003923 -0.003669
-0.101340 -0.001646 -0.000556
-0.158990 -0.002346 -0.002394
-0.189470 -0.001064 -0.000587
-0.122800 0.004600 -0.004057
-0.097328 0.005362 -0.001167
-0.070965 0.004837 -0.000227
-0.072383 -0.001291 -0.000659
-0.007407 0.001518 -0.003801
-0.164400 0.005058 0.001513
-0.090112 -0.000475 -0.003948
-0.039204 0.004568 -0.000721
-0.176000 -0.000426 0.002509
-0.116020 -0.001232 0.000788
-0.152680 0.001449 -0.005586
-0.105680 0.005464 -0.001020
-0.007493 -0.000073 -0.002867
-0.133110 0.002269 -0.005359
-0.103240 -0.001762 -0.001303
-0.079393 -0.000003 -0.004141
-0.113560 0.003460 0.001971
-0.084682 -0.000020 -0.004207
-0.136340 0.005204 -0.003542
-0.107020 -0.000492 -0.004231
-0.034917 0.001832 0.001346
-0.175840 0.005444 -0.004055
-0.126220 -0.000486 0.001753
-0.172650 0.006271 -0.001371
-0.084329 -0.001519 -0.001167
-0.008573 0.002343 0.000968
-0.169760 0.002869 0.002907
-0.183590 0.006179 -0.002795
-0.134730 0.002663 -0.005289
-0.093137 -0.000108 0.001494
-0.161900 -0.002496 -0.001904
-0.038615 0.004121 0.000249
-0.064363 0.004197 -0.003451
-0.115690 -0.000107 0.001823
-0.078087 -0.001300 -0.002383
-0.154810 0.004932 0.001477
-0.069247 0.005019 -0.001300
-0.143490 -0.000817 -0.004557
-0.173450 0.005779 -0.003467
-0.138810 -0.000740 -0.004547
-0.127640 -0.001855 -0.002746
-0.063267 0.004602 -0.002826
-0.093510 0.004525 0.000815
-0.095187 0.004928 -0.003043
-0.091306 0.005274 -0.000958
-0.163800 -0.002517 -0.001064
-0.102140 0.005275 -0.000376
-0.151850 -0.002388 -0.001806
-0.081877 0.002687 -0.004623
-0.078696 0.003397 -0.004300
-0.178910 0.005707 -0.003706
-0.117070 -0.001613 0.000191
-0.179290 -0.002085 -0.003716
-0.117350 -0.000605 -0.004303
-0.160140 0.003528 -0.005349
-0.027043 0.003095 -0.003747
-0.087392 0.000649 -0.004590
-0.109640 0.004474 -0.003957
-0.160250 0.001401 0.002923
-0.176310 -0.000552 -0.005214
-0.151140 -0.000611 0.002054
-0.043537 -0.000980 -0.000929
-0.104850 -0.001733 -0.002025
-0.135930 -0.002056 -0.002364
-0.016241 -0.000658 -0.001080
-0.152200 0.005437 0.000755
-0.151690 0.005988 -0.002093
-0.064776 0.003821 0.001034
-0.056302 -0.000049 -0.003769
-0.068493 -0.000813 0.000329
-0.107360 0.000707 0.002085
-0.093288 -0.001168 0.000351
-0.113640 -0.001135 -0.003675
-0.146660 0.004082 0.002068
-0.070467 -0.000003 -0.004010
-0.119340 0.005027 -0.003437
-0.171380 0.000803 0.002930
-0.067618 -0.000435 0.000788
-0.040574 0.004669 -0.001491
-0.090200 0.004931 -0.002915
-0.064862 0.004920 -0.001977
-0.119230 0.003256 0.002135
-0.111970 0.005024 -0.003275
-0.150390 -0.002079 0.000140
-0.135470 0.000085 -0.005013
-0.022549 0.003694 -0.003231
-0.029071 -0.000791 -0.001875
-0.128150 -0.001959 -0.002351
-0.182200 0.000088 0.002869
-0.153110 0.003509 -0.005263
-0.139960 0.005354 -0.003384
-0.063478 0.000012 -0.003917
-0.051469 -0.000323 0.000608
-0.157120 0.004911 -0.004334
-0.076366 0.002599 0.001780
-0.071716 0.003832 0.001138
-0.137140 -0.002010 -0.002634
-0.044338 0.001781 0.001464
-0.159570 -0.001232 -0.004411
-0.103650 0.003385 0.001872
-0.076671 -0.001427 -0.001284
-0.135190 0.004547 0.001540
-0.069556 0.003919 0.001021
-0.124710 -0.001989 -0.002024
-0.125910 -0.002018 -0.000736
-0.038484 0.001382 0.001360
-0.106890 -0.000227 0.001627
-0.101480 0.005278 -0.000423
-0.112060 0.003190 -0.004868
-0.141170 -0.001127 0.001414
-0.142690 0.002696 0.002611
-0.153470 -0.001120 -0.004421
-0.111110 0.004736 0.000904
-0.121130 -0.000618 0.001543
-0.130940 0.004524 0.001488
-0.050673 0.001827 -0.004347
-0.189470 0.004261 0.002014
-0.123020 -0.001914 -0.002258
-0.075394 -0.001298 -0.000537
-0.167800 0.000578 0.002833
-0.134610 0.004045 0.001916
-0.147650 0.001826 0.002755
-0.181640 0.001012 -0.005916
-0.112370 -0.000600 -0.004219
-0.091140 0.004021 0.001296
-0.082175 -0.001333 -0.002459
-0.119260 0.001763 0.002404
-0.079090 -0.000188 0.001221
-0.004203 0.003869 -0.002652
-0.049437 0.000028 -0.003723
-0.136680 -0.002162 -0.001944
-0.107420 -0.001522 -0.002857
-0.093694 -0.001436 -0.000201
-0.072395 -0.000714 0.000579
-0.135510 -0.001487 -0.003668
-0.174400 0.005575 0.001070
-0.133590 0.005596 -0.000084
-0.183370 0.004418 -0.005196
-0.128830 0.000300 0.002225
-0.169200 -0.002560 -0.000622
-0.138260 0.003914 0.002051
-0.045937 0.001713 0.001484
-0.009159 0.002043 0.001022
-0.014074 -0.000272 -0.002693
-0.183520 0.002979 0.003051
-0.189470 0.002930 -0.000522
-0.139220 0.002439 0.002628
-0.180820 0.005084 0.001780
-0.002051 0.004136 -0.001937
-0.103960 -0.001555 -0.002699
-0.150290 -0.000491 -0.004871
-0.147520 -0.002093 -0.000030
-0.118380 0.001074 0.002313
-0.160880 -0.001645 -0.003991
-0.064894 0.000465 -0.004209
-0.029504 0.003674 -0.003373
-0.180200 -0.001624 -0.004368
-0.180580 0.003260 -0.005725
-0.162480 -0.002403 -0.002345
-0.108690 0.003335 0.001973
-0.032013 0.003024 -0.003857
-0.032407 -0.000750 -0.002191
-0.011344 -0.000409 -0.002388
-0.099934 -0.001529 -0.000237
-0.095646 0.005230 -0.000529
-0.135100 0.005286 0.000595
-0.179880 -0.002000 -0.003891
-0.058243 0.002985 0.001431
-0.118330 0.001904 -0.005182
-0.049594 -0.000937 -0.002334
-0.101290 0.000694 0.002002
-0.092831 0.003472 0.001668
-0.186520 0.003005 -0.005858
-0.047480 0.000667 0.001264
-0.143020 0.005848 -0.000659
-0.017872 -0.000324 -0.000108
-0.164790 0.001695 -0.005744
-0.085251 -0.001044 -0.003162
-0.104460 -0.000302 0.001547
-0.072099 -0.001364 -0.001792
-0.045220 -0.000186 0.000633
-0.118460 0.005140 0.000439
-0.144190 0.002480 0.002688
-0.098284 0.005230 -0.002380
-0.128910 -0.002095 -0.001552
-0.144840 0.000980 0.002631
-0.131860 -0.001986 -0.000353
-0.051192 0.001228 -0.004291
-0.027473 0.000540 0.000905
-0.159060 0.002176 0.002884
-0.149220 0.004276 -0.004794
-0.031104 0.000646 0.001021
-0.182000 0.006397 -0.000943
-0.016884 0.003125 -0.003584
-0.170350 0.006170 -0.000584
-0.085872 -0.001010 -0.003236
-0.110580 -0.000113 -0.004528
-0.070202 -0.000653 0.000614
-0.173710 -0.001992 0.000945
-0.182480 0.005908 0.000651
-0.070319 0.004471 -0.003211
-0.122070 -0.001585 0.000368
-0.041110 0.004281 0.000038
-0.122380 0.005127 0.000566
-0.087709 -0.000128 0.001402
-0.033040 0.004217 -0.000050
-0.186700 0.005626 0.001293
-0.007312 0.004255 -0.001062
-0.125510 -0.001993 -0.002052
-0.182880 0.005460 -0.004190
-0.097243 0.005300 -0.002091
-0.042364 0.002445 0.001379
-0.039562 0.004657 -0.001525
-0.095748 0.005331 -0.001662
-0.153710 0.006043 -0.001351
-0.132600 0.001654 -0.005348
-0.184520 -0.000300 0.002697
-0.086263 0.003600 0.001495
-0.059470 0.003300 0.001287
-0.120060 -0.000604 -0.004351
-0.188530 0.003201 0.003048
-0.099962 0.004769 -0.003410
-0.115650 -0.001426 -0.003258
-0.101780 0.005406 -0.001625
-0.085227 0.005074 -0.002354
-0.090164 0.000447 0.001754
-0.036837 -0.000531 -0.002823
-0.034859 -0.000865 -0.001876
-0.187950 -0.002844 -0.001688
-0.095696 0.005180 -0.002439
-0.064667 -0.001145 -0.002305
-0.098264 0.001100 0.002061
-0.033742 0.002298 -0.004111
-0.164740 -0.001190 0.001760
-0.025028 0.004477 -0.001272
-0.153140 -0.002045 -0.003092
-0.089318 0.000353 0.001692
-0.083672 0.001143 -0.004687
-0.160880 -0.001317 0.001575
-0.165900 0.005742 -0.003355
-0.037738 0.004525 -0.002174
-0.177140 0.006095 0.000110
-0.180880 0.000023 0.002816
-0.129140 -0.001535 -0.003413
-0.149620 0.005699 -0.002963
-0.086572 0.005222 -0.001628
-0.179010 -0.001206 -0.004796
-0.128330 -0.000612 0.001672
-0.148810 0.005231 -0.003782
-0.177240 -0.000831 0.002308
-0.157730 0.004623 -0.004612
-0.069742 -0.000069 0.001170
-0.089034 -0.000995 0.000526
-0.131780 0.002472 -0.005296
-0.066935 0.004948 -0.001968
-0.156740 0.004512 0.001944
-0.164140 -0.000955 0.001968
-0.118920 0.000813 -0.005047
-0.147310 0.000458 -0.005304
-0.183540 0.005513 -0.004120
-0.112750 0.004430 0.001263
-0.188370 0.006328 -0.000301
-0.092181 -0.001610 -0.000960
-0.189470 0.002217 -0.002046
-0.177960 0.005446 -0.004100
-0.010038 -0.000284 -0.000240
-0.087543 -0.000956 -0.003370
-0.060040 0.003023 0.001442
-0.034331 0.002648 -0.004026
-0.077043 -0.000138 0.001232
-0.149530 -0.001063 -0.004410
-0.189470 0.001794 0.002349
-0.148500 0.001512 0.002776
-0.142850 0.005274 0.000819
-0.184790 -0.002043 0.001126
-0.155610 0.005707 0.000333
-0.095788 0.000324 -0.004575
-0.174270 0.005403 -0.004085
-0.185690 0.006433 -0.001265
-0.110220 0.004424 0.001224
-0.083294 0.003879 0.001277
-0.145500 -0.001628 0.000857
-0.055398 0.002490 0.001536
-0.181450 0.005016 0.001864
-0.004695 0.004154 -0.001995
-0.189470 -0.002137 -0.000788
-0.080366 0.004703 -0.003070
-0.013414 -0.000622 -0.001593
-0.134620 0.000849 0.002470
-0.092257 0.003920 0.001381
-0.173650 -0.002440 -0.000037
-0.137930 0.003069 -0.005236
-0.147200 0.000940 0.002652
-0.061148 -0.001225 -0.001783
-0.074216 0.002334 0.001821
-0.058725 0.004891 -0.001397
-0.130720 -0.001207 0.001152
-0.177200 -0.002456 -0.002939
-0.168100 0.000041 0.002644
-0.072217 0.005055 -0.001173
-0.179110 0.006203 -0.002533
-0.184180 0.006109 -0.003047
-0.144260 0.000204 -0.005186
-0.013514 0.000579 -0.003532
-0.162800 -0.002230 -0.003001
-0.008418 0.000246 -0.003210
-0.063533 -0.001240 -0.001853
-0.010900 0.004303 -0.001108
-0.039088 0.000846 0.001226
-0.072921 0.004617 0.000239
-0.076735 -0.001111 0.000030
-0.009678 0.002449 0.000954
-0.048507 0.004704 -0.002013
-0.181590 0.002435 -0.005927
-0.153220 0.006018 -0.001883
-0.146830 -0.001815 -0.003357
-0.053555 0.004827 -0.001291
-0.149020 0.001012 -0.005496
-0.062622 0.003347 -0.004106
-0.167020 0.005588 0.000854
-0.026406 0.004225 -0.002575
-0.081543 0.003541 -0.004262
-0.099839 0.005371 -0.001941
-0.039787 0.002688 -0.004085
-0.167960 -0.002456 -0.000331
-0.071401 0.002576 0.001721
-0.150960 0.001363 -0.005562
-0.030736 0.003649 -0.003420
-0.054914 0.003839 -0.003644
-0.002001 0.003944 -0.000342
-0.029040 -0.000214 -0.003119
-0.168130 0.006216 -0.001372
-0.152930 -0.002369 -0.001952
-0.026534 0.001314 0.001190
-0.114650 -0.001883 -0.001922
-0.144510 0.003540 -0.005128
-0.177400 0.003155 0.002918
-0.066648 0.001589 0.001744
-0.185960 0.003054 0.003060
-0.121020 -0.001856 -0.002397
-0.174240 -0.002046 -0.003654
-0.099220 -0.001337 -0.002986
-0.016792 0.000056 -0.003172
-0.035708 0.003636 0.000710
-0.132700 -0.001382 0.000945
-0.146800 -0.002095 -0.000067
-0.150220 0.004030 0.002152
-0.109670 -0.001842 -0.001280
-0.129380 -0.000896 0.001426
-0.005285 0.002549 -0.003681
-0.181600 -0.002742 -0.001085
-0.180710 0.001875 0.003164
-0.133960 0.004354 0.001713
-0.057404 0.002784 0.001482
-0.168000 0.005517 0.001013
-0.007065 -0.000310 -0.002453
-0.013467 -0.000441 -0.000427
-0.082161 -0.001486 -0.001021
-0.161740 -0.000029 -0.005327
-0.073470 -0.001305 -0.000659
-0.145650 0.003242 -0.005289
-0.077464 0.001169 0.001811
-0.145440 -0.001715 -0.003510
-0.165220 -0.002505 -0.000613
-0.152760 0.000630 0.002652
-0.139620 0.002217 -0.005448
-0.158630 0.000163 -0.005359
-0.140260 0.003709 -0.004980
-0.024371 0.001335 -0.003972
-0.184510 -0.002622 -0.002626
-0.141500 -0.000818 -0.004520
-0.108180 -0.001605 -0.000130
-0.028299 0.001917 -0.004068
-0.147450 0.004206 -0.004812
-0.056566 0.003852 0.000861
-0.070333 -0.001085 -0.002691
-0.159060 0.000689 -0.005526
-0.093251 -0.001160 -0.003160
-0.104430 -0.001329 0.000358
-0.113980 -0.001905 -0.001661
-0.130340 -0.000482 0.001823
-0.113910 0.002947 -0.004963
-0.077799 -0.000252 0.001139
-0.180990 -0.002521 -0.002871
-0.106820 -0.001793 -0.000902
-0.189470 0.005963 -0.000361
-0.140860 -0.000993 -0.004326
-0.106800 -0.001518 0.000092
-0.108830 0.002620 0.002195
-0.123610 -0.001700 0.000207
-0.168840 0.003998 0.002442
-0.123590 -0.000719 0.001491
-0.114870 0.004688 0.001023
-0.029596 0.002334 -0.004050
-0.158930 0.000401 0.002679
-0.021960 0.001252 0.001113
-0.001469 0.000653 -0.001229
-0.063834 0.004453 -0.003092
-0.164610 0.003697 0.002569
-0.044499 -0.000182 0.000625
-0.186330 0.005110 0.001852
-0.014879 0.004092 -0.002524
-0.189470 -0.002205 -0.000020
-0.041357 0.000212 -0.003719
-0.132300 0.005179 -0.003490
-0.073743 0.003055 -0.004413
-0.069236 -0.001084 -0.002663
-0.069916 -0.001333 -0.001806
-0.092986 -0.000812 -0.003645
-0.018747 -0.000610 -0.000768
-0.085631 0.004837 -0.002966
-0.037206 -0.000810 -0.002203
-0.185950 0.002723 -0.005915
-0.163180 0.002230 -0.005741
-0.131340 -0.001753 -0.003060
-0.155000 0.006050 -0.000893
-0.114530 0.004119 -0.004367
-0.157210 -0.002183 -0.002940
-0.181650 0.006187 -0.000049
-0.134160 0.001288 0.002565
-0.119170 -0.001131 0.001019
-0.077078 -0.000621 0.000772
-0.161940 0.005067 0.001460
-0.098551 -0.001428 -0.002797
-0.054027 0.000670 0.001359
-0.106560 0.002003 0.002237
-0.185160 0.002806 0.003125
-0.011710 0.000931 0.000890
-0.088006 0.003474 -0.004388
-0.091087 0.005235 -0.002040
-0.165290 -0.002036 -0.003435
-0.148460 0.005815 -0.000220
-0.017577 0.000527 0.000752
-0.183150 0.006407 -0.001133
-0.171880 0.006098 -0.002577
-0.185930 -0.001849 0.001463
-0.142010 0.003534 0.002337
-0.023685 -0.000668 -0.002070
-0.122470 -0.001180 0.001024
-0.147680 -0.001781 -0.003445
-0.170210 -0.000159 -0.005371
-0.114070 -0.000595 -0.004255
-0.120420 0.005406 -0.000013
-0.154480 0.004120 0.002157
-0.145930 0.005837 -0.000457
-0.108330 0.005489 -0.001498
-0.016023 0.000119 -0.003220
-0.150600 -0.002339 -0.000765
-0.160890 -0.000104 0.002465
-0.148610 -0.002130 -0.002752
-0.171080 -0.002614 -0.001222
-0.066975 0.001066 0.001653
-0.188460 0.004296 -0.005331
-0.131620 0.005422 0.000249
-0.182420 0.005208 0.001675
-0.100110 0.002251 0.002148
-0.069332 0.000083 -0.004048
-0.138300 0.000915 -0.005328
-0.117430 0.000245 -0.004843
-0.033875 0.001086 0.001224
-0.154100 0.001859 0.002834
-0.032012 0.000094 -0.003478
-0.164150 -0.002436 -0.000431
-0.028842 0.004521 -0.001058
-0.069352 0.004751 -0.002715
-0.045301 0.003809 0.000707
-0.060509 0.003636 -0.003907
-0.103160 0.003012 0.002003
-0.172020 0.005298 0.001392
-0.024663 -0.000340 0.000041
-0.143010 -0.000255 -0.004913
-0.157680 0.000006 0.002478
-0.096867 0.004587 -0.003623
-0.081240 0.004925 -0.000122
-0.056927 -0.001172 -0.001777
-0.078854 0.001681 0.001899
-0.088151 -0.000554 -0.003834
-0.145830 0.005040 -0.004018
-0.126080 -0.001906 -0.002466
-0.160090 0.003415 0.002614
-0.052649 0.003228 0.001230
-0.035730 -0.000394 -0.003029
-0.074304 0.000767 0.001667
-0.074855 0.003334 0.001488
-0.128190 0.003781 0.001989
-0.053983 0.003977 0.000692
-0.040698 0.002924 -0.004030
-0.152990 0.006038 -0.000951
-0.079127 0.004984 -0.002397
-0.015078 -0.000186 -0.002865
-0.073089 0.002396 0.001790
-0.143150 0.004917 0.001284
-0.023119 0.001890 -0.004004
-0.138980 0.003755 0.002162
-0.031787 0.002408 -0.004060
-0.105410 0.005087 0.000199
-0.094894 0.005175 -0.000348
-0.173410 0.005393 0.001315
-0.025788 0.002889 -0.003844
-0.060473 -0.000904 -0.002768
-0.118810 0.005383 -0.002727
-0.016879 0.001434 -0.003901
-0.025252 -0.000772 -0.001720
-0.138890 0.002100 -0.005440
-0.097757 0.004210 0.001225
-0.185560 0.005849 -0.003631
-0.036223 0.003325 0.000939
-0.055559 -0.001160 -0.001260
-0.085233 0.001387 -0.004758
-0.130550 0.004033 -0.004672
-0.122740 0.001697 0.002450
-0.043712 -0.000694 -0.002717
-0.164090 0.002918 0.002819
-0.054667 -0.000819 -0.000026
-0.188770 0.006193 0.000276
-0.117230 0.000817 -0.005027
-0.044745 0.004266 -0.002957
-0.180640 -0.002300 -0.003345
-0.178390 -0.001338 -0.004642
-0.045305 0.002157 0.001471
-0.089162 -0.000611 0.001001
-0.095476 0.004564 -0.003623
-0.185110 0.005020 0.001926
-0.174660 -0.002381 -0.003032
-0.006241 0.001587 0.000982
-0.165790 0.004486 0.002092
-0.032755 0.003113 -0.003818
-0.080215 -0.000388 -0.003858
-0.125090 0.002782 0.002357
-0.075470 -0.000374 0.000985
-0.180760 -0.002755 -0.001833
-0.001470 0.002668 0.000721
-0.071885 -0.000702 -0.003377
-0.128080 0.003083 -0.005107
-0.166000 -0.001777 -0.003937
-0.188130 0.006171 0.000302
-0.182910 -0.000699 0.002463
-0.051868 0.004551 -0.002633
-0.003534 0.004061 -0.002297
-0.012133 0.004036 -0.002555
-0.133460 -0.001259 0.001150
-0.097967 0.001697 0.002140
-0.184230 -0.002728 -0.000519
-0.055131 -0.001125 -0.001882
-0.156010 -0.002428 -0.001332
-0.074346 -0.001050 -0.002863
-0.136930 -0.002157 -0.000712
-0.046654 0.000489 0.001158
-0.155600 -0.000478 0.002193
-0.180740 0.005852 -0.003516
-0.170710 0.004666 -0.004786
-0.099366 0.005157 -0.002664
-0.115480 0.001653 -0.005138
-0.140380 0.000242 0.002358
-0.110130 -0.001678 -0.000283
-0.177440 -0.000715 -0.005128
-0.014716 -0.000374 -0.000278
-0.025261 -0.000711 -0.000825
-0.057550 -0.001067 -0.000552
-0.079689 0.004860 -0.002778
-0.016949 -0.000409 -0.000282
-0.106750 0.005327 -0.000354
-0.156210 -0.002418 -0.001923
-0.111420 0.004326 0.001349
-0.049747 0.002205 -0.004332
-0.179310 -0.002727 -0.001457
-0.072802 0.004963 -0.002198
-0.176150 0.001487 0.003121
-0.058276 0.003197 -0.004126
-0.181850 -0.001768 0.001495
-0.028719 0.002973 0.001031
-0.083416 0.004204 -0.003775
-0.143140 -0.002268 -0.001374
-0.114840 -0.000984 0.001090
-0.136170 -0.001886 -0.002939
-0.187800 -0.002806 -0.000713
-0.172660 -0.002546 -0.002292
-0.112310 0.005546 -0.001161
-0.186970 0.005702 -0.003897
-0.156800 0.003160 -0.005451
-0.143120 0.001890 0.002696
-0.087621 -0.001484 -0.000630
-0.166060 0.002436 0.002961
-0.092036 -0.001626 -0.001581
-0.118450 -0.000869 0.001264
-0.090261 0.001806 -0.004835
-0.155270 0.005793 -0.002887
-0.094068 0.000589 -0.004658
-0.095685 0.004456 0.000928
-0.106670 -0.001383 -0.003100
-0.066010 0.003529 0.001245
-0.040016 0.000819 0.001231
-0.031820 0.001418 -0.004090
-0.164990 -0.000159 0.002495
-0.080730 -0.000697 0.000761
-0.007049 0.000679 -0.003496
-0.038359 0.000529 0.001059
-0.128900 0.005667 -0.002215
-0.186290 0.006255 -0.000091
-0.163500 -0.002180 0.000372
-0.103770 0.000935 0.002094
-0.128200 -0.000050 0.002030
-0.182310 0.006119 -0.002938
-0.178090 0.005872 -0.003425
-0.019066 -0.000684 -0.001778
-0.112760 0.000953 -0.005011
-0.049423 0.003153 0.001226
-0.048188 0.004504 -0.000184
-0.167830 0.006190 -0.001992
-0.183850 0.004562 0.002306
-0.137710 0.002230 -0.005424
-0.125980 0.000222 0.002143
-0.172440 0.003557 0.002730
-0.187750 0.000012 0.002908
-0.165480 0.006159 -0.000801
-0.178570 -0.002040 -0.003782
-0.121170 0.002780 -0.005093
-0.030667 -0.000015 0.000543
-0.103780 0.005155 0.000030
-0.122630 0.001039 -0.005163
-0.145760 0.004162 0.002005
-0.182650 0.006385 -0.001555
-0.135660 -0.000576 -0.004604
-0.032097 0.000545 0.000976
-0.103400 -0.001599 -0.000316
-0.177270 -0.002697 -0.001351
-0.126270 0.005251 -0.003239
-0.176880 0.002070 -0.005906
-0.189470 0.001199 -0.004704
-0.125650 0.004677 -0.004032
-0.178910 0.002653 -0.005844
-0.135010 -0.000431 0.001922
-0.128850 0.003159 -0.005096
-0.182640 0.006332 -0.002258
-0.137960 -0.001460 -0.003771
-0.077568 0.005078 -0.001988
-0.133230 0.005697 -0.002295
-0.077119 -0.001181 -0.002690
-0.135300 -0.002172 -0.001465
-0.137330 0.003867 -0.004856
-0.016356 0.000641 -0.003609
-0.039955 -0.000442 -0.003052
-0.068648 0.003097 -0.004322
-0.021011 0.002247 0.001154
-0.038108 0.004184 -0.002938
-0.053295 0.003696 0.000957
-0.152580 0.000544 -0.005398
-0.137050 -0.001511 -0.003664
-0.189470 0.000191 -0.003621
-0.167690 0.002178 -0.005797
-0.168800 0.006229 -0.001243
-0.023063 0.002240 0.001182
-0.177440 -0.002209 0.000688
-0.133710 -0.000132 -0.004854
-0.096590 0.000519 0.001883
-0.151380 -0.002353 -0.000859
-0.056439 0.004294 0.000389
-0.073218 0.001263 0.001778
-0.142350 0.005763 -0.002455
-0.172960 0.001159 -0.005825
-0.095127 0.002935 -0.004726
-0.134480 0.005655 -0.002483
-0.176210 -0.001528 -0.004397
-0.062612 -0.000908 -0.002817
-0.115710 0.005089 0.000463
-0.124310 0.000905 -0.005145
-0.160340 0.006094 -0.000794
-0.161930 0.003179 -0.005511
-0.175620 0.005868 -0.003374
-0.123720 0.005675 -0.001518
-0.162740 0.005245 -0.004076
-0.098413 0.004127 0.001318
-0.089215 0.004743 -0.003206
-0.050431 -0.000723 -0.002837
-0.044543 0.003852 0.000651
-0.066954 0.004066 0.000830
-0.170710 0.001975 0.003036
-0.117970 0.003915 0.001756
-0.047158 0.004748 -0.001185
-0.179360 0.000305 -0.005670
-0.178370 0.003079 -0.005739
-0.094600 -0.001443 -0.000186
-0.116600 -0.000305 0.001724
-0.168880 0.005993 0.000106
-0.114870 -0.001899 -0.001047
-0.071966 0.004823 -0.000171
-0.055442 0.000153 -0.003889
-0.138610 0.004823 0.001304
-0.186020 -0.001558 -0.004545
-0.080635 0.003938 -0.003977
-0.087357 -0.000445 -0.003929
-0.079906 0.000610 0.001694
-0.009549 0.000862 -0.003635
-0.180080 0.003725 -0.005518
-0.150240 0.000074 -0.005220
-0.038812 0.002421 0.001339
-0.087762 0.005165 -0.002149
-0.179430 0.003997 -0.005365
-0.008474 0.001711 0.001011
-0.167670 -0.001238 -0.004554
-0.165680 0.003054 0.002798
-0.038134 0.002028 -0.004190
-0.145010 0.005324 0.000781
-0.176300 -0.001764 0.001370
-0.110500 0.005290 -0.000051
-0.150540 0.004614 -0.004502
-0.012151 0.000451 -0.003440
-0.118080 0.000177 -0.004814
-0.120210 0.004364 0.001464
-0.066478 0.004244 -0.003441
-0.018853 0.001419 -0.003923
-0.143910 0.005346 0.000710
-0.094814 -0.000979 0.000688
-0.122600 0.002868 0.002298
-0.154240 -0.000897 -0.004668
-0.130030 -0.001266 0.001066
-0.038929 0.004647 -0.001601
-0.130300 0.001290 -0.005307
-0.185340 0.003897 0.002745
-0.105740 0.004073 -0.004266
-0.074012 0.002012 -0.004635
-0.142410 -0.001411 0.001128
-0.165960 -0.002108 0.000576
-0.160400 0.004335 -0.004921
-0.141720 -0.002172 -0.002181
-0.148870 -0.000477 -0.004860
-0.151720 0.001188 0.002766
-0.126280 0.004324 -0.004371
-0.096703 0.002913 -0.004752
-0.109180 0.005033 0.000400
-0.181320 0.000938 0.003088
-0.043180 -0.000966 -0.001905
-0.119420 0.001098 0.002332
-0.023347 -0.000407 -0.002697
-0.120710 -0.001284 -0.003642
-0.011625 0.002911 -0.003635
-0.120130 0.002158 -0.005207
-0.145190 -0.001099 0.001509
-0.143520 -0.001150 0.001432
-0.144690 0.003411 0.002417
-0.046018 0.004585 -0.002334
-0.145130 0.005916 -0.001999
-0.170630 -0.001126 0.001921
-0.187740 -0.001512 -0.004626
-0.165700 0.000866 -0.005666
-0.101780 0.004950 -0.003161
-0.126700 0.003013 -0.005109
-0.117770 0.005438 -0.002503
-0.177640 0.003902 0.002629
-0.049920 0.004182 -0.003209
-0.132750 0.004661 -0.004164
-0.179020 0.006352 -0.001253
-0.007773 0.002952 -0.003556
-0.129720 0.002201 0.002518
-0.047627 0.004684 -0.000750
-0.158800 0.006043 -0.002221
-0.087013 0.004976 -0.002744
-0.118860 0.005603 -0.000901
-0.092024 -0.000633 0.001029
-0.091203 -0.000105 -0.004250
-0.163510 -0.001680 -0.004002
-0.102680 0.003281 -0.004691
-0.031532 0.004481 -0.000758
-0.054946 0.003149 -0.004106
-0.132140 0.005760 -0.001974
-0.039719 0.004494 -0.002374
-0.150160 -0.001484 0.001197
-0.066095 0.002067 0.001732
-0.142320 -0.002264 -0.001550
-0.140960 0.004450 0.001740
-0.047627 0.002609 -0.004207
-0.179770 -0.002118 0.000888
-0.163520 0.006157 -0.001477
-0.036013 0.004488 -0.002233
-0.023028 0.004455 -0.001587
-0.178790 0.005231 0.001585
-0.100550 0.001286 -0.004942
-0.172350 -0.000381 0.002482
-0.144150 -0.001540 0.000964
-0.116720 0.000170 -0.004790
-0.025507 0.001418 -0.004009
-0.025264 0.000032 0.000491
-0.115890 0.005021 -0.003369
-0.054751 0.004840 -0.001110
-0.030775 0.002046 0.001294
-0.128410 -0.000500 -0.004546
-0.076698 0.002254 -0.004657
-0.004771 0.000694 0.000660
-0.166420 0.000005 -0.005410
-0.137730 -0.002042 -0.000283
-0.009093 0.000486 -0.003416
-0.094271 0.002770 0.001962
-0.021085 0.001104 -0.003870
-0.070613 0.004274 0.000674
-0.112090 0.001034 -0.005026
-0.061080 0.004745 -0.000351
-0.105110 -0.001782 -0.001206
-0.124170 0.002462 0.002435
-0.189470 -0.000775 0.001639
-0.158540 0.005824 0.000187
-0.100920 -0.000882 0.000940
-0.176540 0.002140 0.003102
-0.096372 0.004702 0.000666
-0.137440 0.002188 0.002615
-0.024854 0.001892 0.001219
-0.089802 0.004227 0.001069
-0.088320 -0.000697 0.000899
-0.155850 -0.002041 -0.003172
-0.090332 0.004340 -0.003760
-0.021830 0.004157 -0.002583
-0.119770 0.002625 0.002335
-0.009554 0.004175 -0.002153
-0.105550 0.001204 -0.004986
-0.155430 0.000212 -0.005333
-0.057330 0.000099 0.001087
-0.139550 -0.000664 -0.004606
-0.146480 0.004945 0.001314
-0.096616 0.005259 -0.002217
-0.182340 -0.002748 -0.000988
-0.135410 0.002262 0.002587
-0.068712 -0.000099 0.001125
-0.094511 0.001468 -0.004874
-0.048894 0.001097 0.001424
-0.003800 0.002996 0.000661
-0.034931 0.000170 0.000795
-0.168870 0.005201 -0.004258
-0.154000 -0.001798 0.000787
-0.132030 0.003420 -0.005020
-0.168010 0.000946 -0.005721
-0.186830 -0.002587 -0.002912
-0.153040 -0.002376 -0.000913
-0.015213 0.001197 0.001009
-0.183160 0.003156 -0.005781
-0.111720 0.002490 -0.005041
-0.082463 0.002110 -0.004740
-0.075434 0.005091 -0.001534
-0.134250 0.005275 -0.003382
-0.186160 -0.002317 0.000723
-0.175020 0.002870 0.002975
-0.181580 0.005823 -0.003581
-0.138850 0.003852 -0.004885
-0.013780 0.004074 -0.002530
-0.028782 0.003403 -0.003591
-0.109410 0.005452 -0.000753
-0.063930 -0.000541 -0.003405
-0.150470 -0.002371 -0.001683
-0.178230 0.002047 0.003127
-0.101610 -0.001344 0.000264
-0.130910 -0.001979 -0.000370
-0.185750 -0.002564 -0.002950
-0.131090 0.004537 -0.004252
-0.137340 0.005708 -0.000355
-0.045168 0.001509 0.001473
-0.165710 -0.000265 0.002449
-0.117840 0.003108 0.002163
-0.142720 -0.000764 0.001778
-0.050903 0.003564 -0.003812
-0.097150 -0.001049 -0.003451
-0.170750 0.004930 0.001765
-0.118540 0.000315 0.002086
-0.157730 -0.002011 0.000535
-0.036152 0.004613 -0.001258
-0.153940 0.005531 -0.003419
-0.171080 0.006239 -0.000845
-0.154310 -0.002156 0.000058
-0.178270 0.004730 -0.004852
-0.113370 0.005326 -0.002687
-0.125810 0.003224 -0.005039
-0.098336 0.004991 -0.003011
-0.112680 0.003939 0.001665
-0.151410 0.000661 0.002642
-0.138710 0.000408 -0.005178
-0.189470 0.002479 -0.001064
-0.096527 -0.001480 -0.002615
-0.025611 0.004448 -0.000912
-0.173040 -0.000712 -0.005065
-0.116380 0.005587 -0.001499
-0.002796 0.000216 0.000270
-0.036354 0.000605 -0.003877
-0.128160 0.005570 -0.002502
-0.112010 0.003768 -0.004561
-0.137370 0.005089 0.000996
-0.172690 0.002966 0.002915
-0.176050 -0.001009 0.002123
-0.022249 0.002202 -0.003989
-0.169450 0.005433 -0.003928
-0.172370 0.005979 -0.002983
-0.099363 0.000697 -0.004759
-0.177360 -0.002653 -0.002090
-0.003831 0.002021 -0.003764
-0.044143 0.002429 0.001406
-0.028628 0.003972 0.000247
-0.094588 -0.001295 -0.002943
-0.068596 0.004899 -0.000560
-0.127810 0.005670 -0.000706
-0.175570 -0.002197 -0.003404
-0.009010 0.001201 -0.003739
-0.069281 -0.001283 -0.001988
-0.159320 -0.002060 -0.003229
-0.137210 0.000992 0.002536
-0.044646 0.004566 -0.002341
-0.138390 -0.001251 0.001247
-0.112500 0.005427 -0.000478
-0.036231 -0.000456 0.000134
-0.058339 -0.001145 -0.001975
-0.008400 -0.000365 -0.002392
-0.121790 -0.001992 -0.001204
-0.063841 0.004945 -0.001701
-0.126910 0.005696 -0.001989
-0.016466 0.004371 -0.001180
-0.107980 0.000849 0.002129
-0.089217 0.003967 0.001307
-0.101610 0.001285 0.002147
-0.015677 0.001097 -0.003798
-0.149810 0.005987 -0.000899
-0.180840 0.000147 -0.005640
-0.049205 0.002160 0.001519
-0.143950 0.005377 -0.003438
-0.022093 0.003018 0.000911
-0.002812 -0.000438 -0.000913
-0.052969 -0.000901 -0.002574
-0.119590 0.005179 0.000394
-0.028649 0.002054 0.001267
-0.181290 -0.002027 -0.003879
-0.051616 0.000557 -0.004070
-0.053617 0.004445 -0.002864
-0.107690 0.003620 0.001793
-0.161870 0.003644 0.002560
-0.188560 0.000986 0.003192
-0.152790 -0.002066 0.000284
-0.135250 0.000735 0.002452
-0.082635 -0.001304 -0.000246
