ply
format ascii 1.0
element vertex 1758
property float x
property float y
property float z
end_header
0.483108 0.117470 -0.000037
0.388176 0.696223 0.059051
0.188888 0.581241 0.000009
0.267590 0.272312 0.059056
0.460748 0.197563 0.059049
0.467876 0.389548 -0.000064
0.529693 0.132482 0.059067
0.706288 0.420951 -0.000013
0.105800 0.470041 0.059098
0.243562 0.410753 -0.000017
0.112749 0.149599 0.055935
0.368338 0.708661 -0.000051
0.114079 0.624395 -0.000002
0.552665 0.200752 -0.000015
0.392519 0.367395 0.059094
0.149041 0.540647 0.059126
0.315708 0.554447 0.059052
0.430089 0.039962 -0.000162
0.626721 0.273891 0.000001
0.217037 0.159341 0.000013
0.293192 0.636066 0.000011
0.385045 0.465992 0.000010
0.607774 0.293693 0.059130
0.377719 0.297555 -0.000002
0.455455 0.226381 0.059046
0.096117 0.168948 0.027456
0.451865 0.211785 0.059051
0.421036 0.337982 -0.000040
0.320434 0.697577 0.059052
0.516791 0.641380 0.000000
0.399031 0.278048 0.059054
0.381184 0.052288 -0.000013
0.618979 0.434320 0.000005
0.717898 0.583348 0.054085
0.509585 0.108957 0.000011
0.342057 0.316898 -0.000004
0.300765 0.597783 0.059118
0.014998 0.415661 0.025597
0.540233 0.303669 -0.000002
0.531133 0.208057 0.059047
0.637005 0.566448 0.059053
0.065475 0.416724 0.000007
0.056277 0.542440 -0.000096
0.297032 0.469074 0.000008
0.162515 0.243987 0.000005
0.590171 0.324267 -0.000010
0.150168 0.114740 0.002619
0.532805 0.687049 -0.000051
0.277684 0.599420 0.059066
0.262588 0.270006 0.000005
0.463273 0.489625 0.000016
0.438561 0.621957 0.059052
0.397970 0.214456 0.000007
0.686539 0.174411 0.002360
0.401721 0.491096 -0.000065
0.063019 0.585910 0.004957
0.739150 0.332598 -0.000011
0.674092 0.303930 0.059053
0.207993 0.112666 0.059044
0.359981 0.630851 0.059048
0.407600 0.758158 -0.000022
0.215063 0.207032 0.059130
0.267199 0.136062 -0.000072
0.589241 0.220595 -0.000004
0.394309 0.620584 0.000003
0.077625 0.467333 0.059065
0.752798 0.496162 0.008535
0.508269 0.521594 0.059054
0.041605 0.312184 0.059152
0.673672 0.266734 -0.000001
0.729750 0.382315 -0.000002
0.680629 0.638820 0.017093
0.146999 0.392460 0.059056
0.668444 0.339053 0.000003
0.404097 0.310899 0.000000
0.052159 0.438177 0.059054
0.385540 0.252845 0.000001
0.711483 0.424465 0.059051
0.548977 0.646074 -0.000050
0.340691 0.715423 -0.000001
0.515277 0.472151 -0.000044
0.732614 0.410975 0.059053
0.579474 0.566578 0.059044
0.471183 0.265205 0.000009
0.127037 0.670017 0.010080
0.466666 0.057323 0.059056
0.365928 0.161362 -0.000050
0.046398 0.258805 0.058733
0.398177 0.448712 0.059053
0.643798 0.222512 -0.000060
0.304403 0.767222 0.040952
0.322520 0.128259 -0.000052
0.191457 0.501711 0.059053
0.278456 0.162611 0.000001
0.378507 0.092681 -0.000052
0.492239 0.238063 0.059060
0.241831 0.747015 0.007332
0.141684 0.255414 -0.000043
0.381047 0.525336 -0.000069
0.342617 0.443230 0.059148
0.568995 0.268941 0.000008
0.200149 0.556282 0.000004
0.466460 0.707129 0.000001
0.633584 0.366233 0.059056
0.265524 0.725390 -0.000005
0.597854 0.506938 0.059088
0.249754 0.255213 0.059051
0.166331 0.108708 0.000052
0.650382 0.281347 0.059046
0.293279 0.479111 -0.000002
0.572932 0.729337 0.046644
0.275563 0.174654 0.000007
0.348889 0.136254 0.059117
0.541304 0.422150 0.000009
0.135049 0.218858 0.059081
0.680339 0.320566 0.000003
0.683664 0.445914 0.000001
0.358234 0.101546 0.059125
0.623838 0.346289 0.059123
0.389791 0.035013 -0.000210
0.469938 0.648246 0.000001
0.043541 0.258300 0.027904
0.164630 0.213800 0.059067
0.567542 0.582869 0.059055
0.594980 0.715967 0.018740
0.213680 0.222860 0.000005
0.287751 0.407694 -0.000003
0.347592 0.198452 0.059051
0.153138 0.377037 -0.000071
0.074684 0.273995 0.059107
0.386397 0.276436 0.059052
0.046593 0.250880 0.019384
0.525125 0.751900 0.005874
0.576174 0.635428 0.059053
0.372022 0.391273 0.059054
0.307219 0.625286 -0.000053
0.543653 0.350013 0.059050
0.578779 0.352583 0.059056
0.051183 0.240767 0.012971
0.037052 0.529744 0.008633
0.175976 0.474720 0.059049
0.582599 0.598008 0.059045
0.477820 0.392840 -0.000082
0.762741 0.363788 0.039377
0.354415 0.717909 -0.000014
0.545005 0.520113 0.059110
0.744940 0.419536 -0.000034
0.561867 0.335373 0.059092
0.555943 0.738348 0.012086
0.417365 0.379121 0.059048
0.279476 0.644671 0.059052
0.419608 0.462793 0.059050
0.225153 0.266840 0.000008
0.166292 0.225149 0.059054
0.575481 0.185471 -0.000040
0.556871 0.524773 0.059054
0.308369 0.688321 0.059048
0.388413 0.328523 -0.000000
0.314770 0.194495 0.059048
0.399263 0.260227 -0.000025
0.192181 0.352549 0.059052
0.314693 0.671624 0.059049
0.313782 0.487272 0.000002
0.614492 0.389029 -0.000006
0.393428 0.632898 0.000007
0.594097 0.282811 0.059115
0.500813 0.319185 -0.000022
0.457247 0.260776 0.059083
0.294372 0.347628 -0.000050
0.435424 0.643927 0.059069
0.044874 0.549406 0.039603
0.508839 0.378904 0.059066
0.570445 0.571150 0.059045
0.119657 0.480337 -0.000010
0.165474 0.702640 0.037061
0.382410 0.605461 -0.000001
0.536250 0.478385 0.059059
0.717462 0.517257 -0.000008
0.221331 0.440983 -0.000063
0.643515 0.389186 0.059058
0.676555 0.377852 0.059111
0.689920 0.599684 -0.000031
0.314045 0.462642 -0.000045
0.208677 0.436438 0.059052
0.381300 0.743622 -0.000073
0.729659 0.560050 0.004260
0.763349 0.371134 0.030288
0.135715 0.591776 0.059046
0.708400 0.596671 0.058595
0.112733 0.491571 0.059052
0.052817 0.305979 0.000001
0.344522 0.069079 0.000003
0.426474 0.711735 -0.000008
0.199245 0.468613 0.059059
0.297411 0.242435 0.059053
0.118125 0.482966 0.059053
0.514079 0.178348 0.000005
0.660936 0.566390 0.059050
0.159722 0.590336 0.059047
0.675843 0.350888 0.059062
0.157202 0.238056 0.059048
0.332634 0.665464 -0.000011
0.338321 0.160333 0.059073
0.494862 0.577588 -0.000069
0.428623 0.082620 0.000009
0.709826 0.343698 -0.000063
0.549227 0.251533 -0.000021
0.625478 0.174128 0.000005
0.702372 0.233440 -0.000016
0.435109 0.463322 0.000008
0.460268 0.341095 0.059136
0.513137 0.554564 0.059120
0.373123 0.648023 -0.000059
0.418284 0.760188 -0.000104
0.274687 0.738205 -0.000068
0.338354 0.733759 0.059074
0.576428 0.668922 0.059077
0.032296 0.392927 0.059052
0.289140 0.218308 0.059047
0.370497 0.774041 0.057281
0.546256 0.115660 0.059051
0.249949 0.433886 0.059060
0.543884 0.682225 -0.000039
0.514542 0.132609 -0.000070
0.416193 0.399170 0.059050
0.228597 0.429594 -0.000012
0.624384 0.459390 0.000007
0.229396 0.158014 -0.000047
0.319015 0.768569 0.000422
0.660239 0.545011 0.059055
0.513063 0.756173 0.036221
0.691838 0.541352 -0.000005
0.394055 0.189086 0.059085
0.594769 0.526747 0.000008
0.687767 0.210583 -0.000010
0.069777 0.360905 -0.000067
0.248914 0.749876 0.013942
0.342658 0.278123 0.059052
0.657803 0.594700 -0.000057
0.450462 0.032115 0.014622
0.547310 0.534039 -0.000042
0.477602 0.144378 0.000004
0.744533 0.520560 0.056727
0.499106 0.489175 0.000002
0.189678 0.455476 -0.000008
0.424566 0.421311 0.000004
0.483391 0.765374 0.047572
0.396885 0.128819 0.059100
0.584867 0.419580 -0.000064
0.700841 0.578814 0.059092
0.374742 0.697040 -0.000071
0.344146 0.379117 0.000002
0.503136 0.511281 0.059058
0.414026 0.312452 0.059051
0.189522 0.119346 0.000004
0.458684 0.304160 0.000004
0.485974 0.174167 0.059056
0.092795 0.562593 -0.000052
0.090351 0.507276 0.059101
0.545299 0.303962 0.059045
0.554194 0.065223 0.023787
0.549592 0.596939 0.059116
0.509961 0.330745 -0.000071
0.385474 0.264501 -0.000054
0.281445 0.362553 0.059099
0.081357 0.241081 0.000001
0.223080 0.524138 0.000005
0.536776 0.532113 0.000008
0.148705 0.325538 0.000005
0.747463 0.514386 0.021067
0.220424 0.093263 0.059067
0.589418 0.100419 0.059094
0.290910 0.723403 0.059046
0.755581 0.483975 0.037155
0.232532 0.656706 0.000005
0.753343 0.414123 -0.000204
0.761678 0.448679 0.023037
0.389363 0.058065 0.059075
0.438553 0.473876 0.059108
0.760162 0.343989 0.016235
0.304626 0.678847 0.059053
0.474889 0.043826 -0.000059
0.489750 0.289108 -0.000003
0.468109 0.035467 0.015658
0.095198 0.431361 0.059099
0.688980 0.409887 0.000002
0.642183 0.468876 0.000007
0.459978 0.558246 0.059061
0.469507 0.437525 0.059049
0.452857 0.166663 0.000010
0.431636 0.614986 0.059056
0.281780 0.654975 0.000017
0.251704 0.115824 0.059106
0.595530 0.416834 -0.000056
0.666107 0.413645 -0.000025
0.318325 0.413471 0.000003
0.065393 0.369832 -0.000056
0.433245 0.335542 0.059050
0.586125 0.444367 -0.000072
0.146782 0.481951 -0.000003
0.402041 0.070872 -0.000006
0.107697 0.522186 0.059105
0.476117 0.661136 0.059055
0.062247 0.373518 0.059043
0.131696 0.386882 0.059115
0.403778 0.747366 -0.000059
0.146737 0.459466 0.059137
0.697867 0.269471 -0.000005
0.059898 0.504425 0.059058
0.244529 0.360833 0.000010
0.329323 0.696047 0.000004
0.457637 0.249022 0.059090
0.067862 0.276527 0.000018
0.472593 0.746101 -0.000029
0.031158 0.511709 0.016243
0.298981 0.121642 0.059049
0.071375 0.567258 0.059090
0.377148 0.630483 0.059051
0.335541 0.537234 0.059052
0.295732 0.097275 0.059089
0.213275 0.696380 -0.000025
0.503172 0.695685 0.000008
0.088775 0.452780 0.000007
0.300681 0.250893 -0.000009
0.273660 0.758829 0.041753
0.493399 0.214199 0.000007
0.169997 0.123335 0.059058
0.419675 0.719285 0.059054
0.309954 0.617143 0.059054
0.537271 0.110153 0.059044
0.394482 0.130859 0.000006
0.573188 0.728517 0.056263
0.168091 0.099705 0.024976
0.415998 0.110176 0.000005
0.339715 0.189492 0.059049
0.341727 0.772133 0.001072
0.397734 0.165900 0.059060
0.264813 0.386537 0.000001
0.125946 0.559520 0.000001
0.461946 0.378639 -0.000042
0.700534 0.192469 0.022786
0.301978 0.177805 0.059045
0.668546 0.229902 0.000012
0.332084 0.217255 0.000002
0.677785 0.320899 0.059048
0.207218 0.291798 0.059052
0.205344 0.607270 0.059052
0.106336 0.647785 0.012007
0.388688 0.743723 0.059114
0.278705 0.187142 -0.000006
0.474135 0.767439 0.018593
0.574195 0.728549 0.033360
0.494242 0.149797 0.059122
0.245595 0.628234 0.059126
0.104804 0.601210 0.059070
0.443710 0.773170 0.029965
0.049890 0.417675 -0.000006
0.191343 0.215315 0.000001
0.088796 0.625906 0.036426
0.437723 0.245014 0.000005
0.653109 0.503900 0.000006
0.678984 0.163465 0.014484
0.726134 0.237309 0.054307
0.549144 0.269051 0.000007
0.468180 0.397597 0.059114
0.358239 0.051470 -0.000017
0.441371 0.663594 0.000006
0.612318 0.319353 0.059117
0.527549 0.750883 0.020966
0.109373 0.625161 0.059056
0.152903 0.692886 0.024332
0.684090 0.303878 0.059052
0.413026 0.146728 0.000009
0.617851 0.170666 0.059075
0.224750 0.351821 0.000001
0.457112 0.703338 0.059051
0.448426 0.459361 -0.000025
0.251421 0.079119 0.059061
0.314706 0.289825 -0.000007
0.570962 0.602099 -0.000001
0.290198 0.378570 -0.000008
0.175586 0.197859 0.000007
0.053172 0.310153 0.059061
0.604195 0.188512 0.059062
0.337413 0.030851 0.046934
0.225832 0.231356 -0.000001
0.327583 0.308211 0.000010
0.155220 0.194275 0.059059
0.601405 0.398854 0.059051
0.243392 0.356947 0.059051
0.366641 0.411889 0.059051
0.118888 0.340850 0.000005
0.121151 0.454513 0.059114
0.023349 0.481872 0.017845
0.571348 0.074168 0.028353
0.454581 0.626078 -0.000033
0.366801 0.669043 0.059060
0.099069 0.615008 0.059114
0.288445 0.525575 -0.000033
0.114944 0.230469 -0.000000
0.099847 0.590515 0.059063
0.435839 0.633517 0.059053
0.310652 0.206147 0.059053
0.330904 0.245285 -0.000002
0.525786 0.216904 0.059055
0.068370 0.471554 0.059045
0.642862 0.492279 0.000005
0.470961 0.248510 0.059033
0.546430 0.456901 0.059059
0.608713 0.471808 -0.000064
0.452075 0.637161 -0.000009
0.115678 0.146216 0.010843
0.248048 0.582323 0.059077
0.336895 0.423231 0.059083
0.318740 0.768826 0.057362
0.411321 0.458285 -0.000059
0.417569 0.727595 -0.000022
0.114140 0.613656 -0.000003
0.520336 0.547243 0.059101
0.740121 0.492585 0.059129
0.565657 0.149135 0.059103
0.271431 0.357810 0.059051
0.416216 0.098857 0.000005
0.561099 0.379486 0.059055
0.685555 0.373042 0.059089
0.327076 0.612672 -0.000030
0.601437 0.657986 -0.000057
0.664472 0.529706 -0.000029
0.171665 0.460557 0.000006
0.239666 0.217808 0.000003
0.047479 0.555439 0.018546
0.741182 0.271340 0.050077
0.203068 0.076894 0.017916
0.396878 0.198822 0.059061
0.710471 0.541822 0.059053
0.282617 0.318899 -0.000060
0.616054 0.210913 0.000002
0.515764 0.214515 0.059078
0.088813 0.343729 0.059051
0.195185 0.179741 -0.000036
0.231993 0.613322 0.059050
0.312400 0.137701 -0.000061
0.292266 0.431253 0.059059
0.251604 0.736929 0.059147
0.053523 0.236069 0.021107
0.210907 0.486007 0.000008
0.387179 0.036394 0.059174
0.106292 0.248801 0.059072
0.552072 0.175531 0.000005
0.307160 0.353934 0.059048
0.392971 0.285667 -0.000028
0.565770 0.419887 0.000002
0.321012 0.604336 0.000011
0.490588 0.551211 -0.000014
0.257844 0.151642 0.059066
0.355349 0.727806 -0.000038
0.095544 0.505133 -0.000008
0.026696 0.496162 0.035634
0.720842 0.543361 0.059104
0.233830 0.087129 0.000004
0.167060 0.191606 0.000010
0.059609 0.531361 -0.000012
0.639177 0.170453 0.059043
0.294203 0.229458 0.059051
0.582620 0.468489 -0.000060
0.169558 0.664699 -0.000015
0.655470 0.192521 0.059112
0.101545 0.417863 0.059052
0.670834 0.479623 0.000004
0.314447 0.504365 0.000005
0.468213 0.148343 0.000006
0.227356 0.245798 0.059118
0.338875 0.331235 0.059079
0.697050 0.306986 0.000011
0.299973 0.200781 0.059080
0.092658 0.575392 0.059060
0.108113 0.341285 0.059050
0.661165 0.143546 0.037689
0.164779 0.222834 0.000006
0.164780 0.566350 0.000011
0.376544 0.758247 0.059081
0.373049 0.220975 0.059114
0.166813 0.585705 -0.000028
0.493039 0.472306 0.059049
0.723206 0.328574 0.059042
0.612592 0.150551 0.000001
0.549758 0.313873 0.059060
0.381032 0.229158 0.059063
0.029310 0.505537 0.033149
0.300097 0.218670 0.059056
0.473763 0.694454 0.059052
0.715769 0.346444 0.059057
0.509497 0.407874 0.000003
0.392077 0.296453 -0.000034
0.333817 0.031414 0.027023
0.609883 0.618776 -0.000056
0.341238 0.150593 0.059104
0.738074 0.280554 -0.000087
0.204773 0.622394 -0.000043
0.538313 0.121200 0.059115
0.381219 0.547151 0.000009
0.277637 0.482298 0.059049
0.520403 0.101348 -0.000015
0.170412 0.669824 0.059091
0.287042 0.172570 0.059049
0.496585 0.541487 0.059109
0.409562 0.652773 -0.000027
0.609121 0.706331 0.052016
0.505534 0.487531 0.059055
0.461035 0.488681 0.059091
0.553880 0.518479 0.000012
0.311008 0.383484 -0.000060
0.347921 0.595707 0.059045
0.596103 0.590502 0.059050
0.112547 0.409878 0.059095
0.366093 0.303573 -0.000004
0.195099 0.355220 -0.000001
0.251548 0.126251 0.059059
0.243775 0.198226 -0.000066
0.617947 0.105449 0.057074
0.342165 0.558825 0.059086
0.241896 0.548317 0.059051
0.474218 0.407746 -0.000025
0.150174 0.374181 0.059055
0.590856 0.617668 -0.000017
0.313088 0.035120 0.039546
0.391093 0.257828 0.059117
0.232096 0.553746 -0.000081
0.692289 0.623668 0.044536
0.210700 0.088413 0.059079
0.691524 0.436159 -0.000024
0.259060 0.559182 0.059089
0.580916 0.724694 0.039587
0.216477 0.079914 0.059213
0.488338 0.192849 -0.000043
0.676811 0.533033 0.059051
0.561052 0.495208 0.000010
0.644660 0.127156 0.048061
0.096534 0.635923 0.035256
0.514275 0.093792 0.000010
0.157898 0.338058 0.059104
0.649048 0.179038 0.059051
0.555749 0.729306 0.059241
0.215163 0.467928 -0.000072
0.167718 0.236446 0.059068
0.044240 0.394255 0.059053
0.576623 0.149726 0.000008
0.294004 0.039520 0.017255
0.296267 0.281374 0.059105
0.015115 0.418433 0.036694
0.406898 0.447167 -0.000057
0.080991 0.494120 -0.000026
0.217594 0.397512 0.059131
0.639679 0.501894 0.000007
0.447706 0.741555 0.000006
0.665217 0.602912 -0.000020
0.741653 0.320114 -0.000089
0.364007 0.570871 0.000007
0.079875 0.455726 0.059143
0.102149 0.497030 -0.000023
0.703809 0.341549 0.059043
0.395796 0.028650 0.057411
0.285352 0.762239 0.020824
0.578956 0.395624 0.059047
0.423986 0.775551 0.019137
0.361531 0.387590 0.059045
0.371948 0.131534 0.000007
0.311886 0.115202 -0.000026
0.275251 0.141450 0.059050
0.472627 0.236623 0.059061
0.190961 0.560594 -0.000002
0.592600 0.129970 0.000012
0.376927 0.102884 -0.000083
0.195516 0.674035 0.059110
0.740356 0.392233 0.059053
0.466838 0.149943 0.059060
0.241748 0.411937 0.059052
0.215534 0.659027 -0.000003
0.353363 0.594517 0.000010
0.704759 0.505525 -0.000005
0.348785 0.324197 0.000006
0.193881 0.437016 0.059053
0.314936 0.300430 -0.000017
0.163683 0.486473 -0.000030
0.379591 0.384154 0.000009
0.017576 0.358612 0.003416
0.307265 0.534499 0.000008
0.757842 0.473578 0.046992
0.450340 0.062494 0.059051
0.626832 0.522033 -0.000006
0.703581 0.535404 -0.000006
0.318497 0.039265 0.058903
0.263490 0.739066 -0.000006
0.162371 0.361273 0.059048
0.153370 0.300622 -0.000057
0.400599 0.722533 0.059066
0.571042 0.693583 0.000003
0.217401 0.340628 0.000009
0.552344 0.064178 0.050330
0.253031 0.361999 0.059049
0.725340 0.521950 0.059162
0.255435 0.669195 0.059051
0.593232 0.353955 -0.000066
0.360967 0.463107 0.059161
0.747339 0.500700 0.058544
0.560258 0.571764 0.059053
0.540627 0.543774 0.000008
0.489603 0.040664 0.004181
0.632508 0.138510 -0.000043
0.363905 0.402650 0.059053
0.047939 0.476077 0.059049
0.033206 0.285701 0.021167
0.428777 0.409712 0.000005
0.060719 0.378822 -0.000061
0.350433 0.048105 0.059066
0.223337 0.444989 0.059059
0.258234 0.364278 -0.000066
0.689234 0.383237 0.059065
0.638627 0.254082 0.059052
0.702388 0.288158 0.000010
0.504059 0.150045 0.059100
0.473054 0.676867 0.059070
0.372731 0.433422 0.059046
0.063923 0.216848 0.055628
0.457782 0.058628 0.000012
0.123815 0.159642 0.059124
0.343997 0.146632 0.000012
0.434173 0.522905 -0.000039
0.425172 0.028953 0.021979
0.237334 0.609378 -0.000003
0.158160 0.201001 -0.000007
0.691170 0.349373 0.059047
0.254203 0.221931 0.059082
0.502042 0.404467 0.059047
0.582179 0.644418 0.000008
0.667870 0.496544 0.000008
0.069486 0.597125 0.036421
0.362428 0.195736 -0.000059
0.662275 0.518652 0.059060
0.340280 0.601814 0.059056
0.332290 0.618733 0.059124
0.431943 0.490633 0.000007
0.540461 0.417193 0.059087
0.467034 0.570177 0.000002
0.128191 0.281504 0.000007
0.551796 0.580070 0.059055
0.096490 0.335638 0.059051
0.134862 0.502071 0.059043
0.449811 0.613018 -0.000056
0.158814 0.393169 0.059088
0.098811 0.635819 0.057736
0.338110 0.131096 0.059100
0.265065 0.078267 -0.000003
0.584387 0.530223 0.000008
0.024504 0.449892 -0.000067
0.295757 0.209511 0.059058
0.249242 0.233061 0.000004
0.395345 0.777297 0.047286
0.115275 0.267339 0.059047
0.658621 0.181094 0.059059
0.501271 0.095806 0.059113
0.322374 0.144494 0.059049
0.585108 0.138339 0.000006
0.439564 0.053324 -0.000011
0.666871 0.149467 0.044360
0.189834 0.255937 0.000006
0.393200 0.472741 0.059049
0.310897 0.426779 0.000002
0.436414 0.274369 -0.000051
0.160410 0.105496 0.030103
0.669348 0.483911 0.059123
0.258762 0.489440 0.059086
0.427706 0.123193 -0.000018
0.111390 0.602821 -0.000058
0.561763 0.068875 0.044018
0.186287 0.545938 0.059049
0.582065 0.343818 -0.000006
0.444561 0.283676 -0.000038
0.514225 0.144355 0.000011
0.390652 0.419647 0.000010
0.200633 0.254012 0.059082
0.520710 0.120309 -0.000061
0.261567 0.089613 0.059046
0.439837 0.773645 0.020415
0.197551 0.101709 -0.000006
0.459036 0.235371 0.059124
0.259471 0.252418 0.059060
0.642779 0.186470 0.059090
0.289279 0.597935 0.000019
0.605769 0.668395 -0.000048
0.440718 0.215955 -0.000007
0.283361 0.487072 0.000001
0.673287 0.156639 0.010177
0.278208 0.437647 0.059070
0.435661 0.402253 0.059095
0.123947 0.616333 -0.000059
0.676665 0.593528 0.000003
0.646914 0.157424 0.059071
0.267859 0.307691 0.059050
0.189133 0.127044 0.059050
0.089548 0.376687 0.000013
0.457564 0.100373 -0.000020
0.330225 0.135072 -0.000066
0.119564 0.567712 0.059064
0.078909 0.282419 -0.000031
0.155264 0.187665 0.000014
0.249392 0.067509 -0.000089
0.287175 0.547706 -0.000050
0.475722 0.134224 0.000012
0.085878 0.551474 0.059067
0.202092 0.370386 -0.000051
0.391853 0.368094 -0.000032
0.644038 0.316732 -0.000062
0.219918 0.402874 -0.000066
0.303439 0.699325 0.000010
0.709577 0.401335 -0.000011
0.632257 0.469212 0.000006
0.344383 0.600458 0.000003
0.361098 0.302657 0.059054
0.089756 0.526388 -0.000036
0.574545 0.556112 0.000005
0.459182 0.713207 0.059053
0.712803 0.213709 0.002376
0.526240 0.367656 -0.000015
0.496972 0.086711 0.059102
0.556519 0.078235 0.059150
0.398154 0.620239 0.059063
0.357373 0.204581 0.059070
0.605161 0.445192 -0.000006
0.150190 0.257750 0.059042
0.243797 0.090335 -0.000038
0.118964 0.296548 0.059083
0.264042 0.644267 -0.000005
0.175561 0.127978 0.000010
0.452066 0.049512 0.059076
0.236942 0.486265 0.000008
0.658874 0.185521 0.000011
0.509498 0.067403 0.059107
0.697432 0.424839 0.000004
0.363803 0.617311 0.059066
0.348617 0.366121 0.000004
0.409984 0.390853 0.059050
0.748091 0.327201 0.059244
0.403308 0.259672 0.059082
0.650042 0.521164 0.059044
0.499384 0.556874 -0.000000
0.535479 0.091701 0.059057
0.109229 0.399481 0.059104
0.178846 0.308078 -0.000003
0.546365 0.279594 0.059045
0.199551 0.278690 0.059048
0.468858 0.596254 -0.000060
0.174216 0.660152 0.059119
0.535937 0.691033 0.059062
0.202555 0.726769 0.054020
0.126019 0.150096 0.059145
0.138991 0.400416 0.059092
0.428149 0.667099 0.059073
0.258810 0.170626 0.059047
0.655468 0.364509 0.059065
0.410011 0.691287 -0.000065
0.340172 0.735758 0.000003
0.426684 0.071170 0.000001
0.446854 0.114154 -0.000012
0.474638 0.615538 -0.000064
0.158783 0.652971 -0.000054
0.580396 0.218133 0.059045
0.269413 0.245881 0.059087
0.202907 0.580460 0.059063
0.527435 0.630611 -0.000056
0.660664 0.605104 0.059050
0.046645 0.333383 -0.000002
0.480880 0.444826 -0.000009
0.659320 0.273562 -0.000065
0.296375 0.553491 -0.000059
0.715278 0.562448 0.059085
0.735461 0.257077 0.043985
0.093967 0.180245 0.058839
0.343180 0.216561 0.000005
0.210574 0.262768 -0.000005
0.338713 0.048603 -0.000007
0.667315 0.150021 0.014871
0.224143 0.644587 0.059054
0.103456 0.450714 0.059050
0.514912 0.700786 0.000005
0.229327 0.478098 -0.000004
0.406025 0.472089 0.059057
0.501252 0.681065 0.059054
0.187363 0.200713 0.000009
0.169708 0.652341 -0.000021
0.470028 0.653154 0.059049
0.459283 0.476012 -0.000022
0.750884 0.502910 0.025785
0.166620 0.633419 -0.000057
0.366916 0.347008 -0.000040
0.134111 0.178765 0.000011
0.556378 0.665908 0.059072
0.721701 0.227692 0.008201
0.571733 0.138051 0.059125
0.379047 0.583140 0.059052
0.207604 0.200896 0.059120
0.139449 0.289710 0.059039
0.291965 0.040072 0.045723
0.365945 0.142933 0.059056
0.463100 0.664658 0.059050
0.337265 0.773375 0.045353
0.347628 0.668484 0.059055
0.161513 0.360629 -0.000018
0.213964 0.641676 0.059048
0.315830 0.122141 0.059094
0.032568 0.516441 0.034881
0.334573 0.619076 -0.000036
0.266748 0.749786 -0.000011
0.427115 0.239974 0.000011
0.564666 0.724781 0.059207
0.210691 0.125806 0.059091
0.172220 0.558393 0.000003
0.612801 0.191269 0.000002
0.367801 0.404906 -0.000024
0.608719 0.697473 -0.000318
0.108692 0.386081 0.000005
0.253128 0.652959 0.059059
0.253581 0.499585 0.059054
0.668239 0.184906 0.059061
0.482743 0.707864 0.000000
0.623937 0.216948 0.000008
0.030574 0.294977 0.053605
0.457055 0.579082 0.059050
0.279207 0.629797 0.059116
0.168433 0.276605 0.059107
0.649396 0.552975 0.059049
0.572396 0.729557 0.017671
0.685578 0.185942 0.059227
0.213101 0.275507 0.000010
0.115665 0.497739 0.000001
0.076407 0.554650 0.059044
0.688663 0.628580 0.052562
0.414657 0.714450 0.000007
0.545616 0.360024 0.059045
0.326124 0.115068 0.059110
0.565908 0.620080 0.059049
0.081252 0.299016 0.059111
0.152285 0.509283 0.000004
0.224914 0.688603 -0.000043
0.758839 0.336164 0.034439
0.639735 0.148788 -0.000018
0.624121 0.214302 0.059064
0.395428 0.071720 0.059051
0.457398 0.750768 0.000007
0.661065 0.473589 0.000006
0.025083 0.438900 -0.000149
0.570551 0.266679 0.059052
0.193933 0.156012 0.000004
0.247876 0.749231 0.024983
0.311654 0.449802 0.059054
0.378836 0.370514 0.000006
0.644102 0.126715 0.020383
0.638611 0.247347 -0.000063
0.095518 0.634566 0.021077
0.374218 0.311217 0.000005
0.184341 0.205296 0.059123
0.683303 0.187522 -0.000114
0.493437 0.668497 0.059053
0.040020 0.266768 0.021533
0.243704 0.609100 0.059085
0.757039 0.477225 0.004712
0.534826 0.414739 0.000007
0.034034 0.521008 0.011946
0.487969 0.688927 0.000008
0.113260 0.219706 0.059069
0.633144 0.436432 0.059117
0.507258 0.301495 0.059044
0.286938 0.554888 0.059109
0.545417 0.533002 0.059087
0.441717 0.591049 0.059060
0.605455 0.124863 0.059054
0.333733 0.031244 0.008454
0.680807 0.357026 0.000007
0.519543 0.152464 0.000008
0.712049 0.490521 0.059085
0.394198 0.307454 -0.000018
0.357214 0.256762 -0.000016
0.231823 0.713436 0.059044
0.209348 0.669130 0.059092
0.394790 0.248059 0.059048
0.575529 0.091896 0.059125
0.430657 0.484980 0.059057
0.537052 0.509002 0.059063
0.662082 0.576369 0.059049
0.581348 0.724434 0.024049
0.165239 0.530344 -0.000054
0.573032 0.331933 0.059107
0.416509 0.032949 0.058935
0.618918 0.342193 0.000006
0.250329 0.421530 0.000011
0.483540 0.219063 0.059052
0.132354 0.527748 0.000006
0.719478 0.377875 -0.000055
0.536077 0.660943 -0.000055
0.315179 0.395596 0.059072
0.713393 0.252144 -0.000030
0.459511 0.687506 0.059057
0.575931 0.727705 0.006054
0.692162 0.229525 0.000005
0.567703 0.493023 0.059074
0.197509 0.600040 0.059058
0.575590 0.495879 0.000008
0.265975 0.616280 0.000004
0.257911 0.635103 0.000003
0.241503 0.118957 0.059136
0.370934 0.351439 0.059050
0.599569 0.299811 -0.000005
0.507293 0.270125 0.059054
0.363063 0.182739 -0.000050
0.272471 0.045969 0.020363
0.309543 0.153939 0.059063
0.446859 0.629438 0.059060
0.317919 0.159106 0.059052
0.494687 0.444829 0.059060
0.110254 0.347608 0.000004
0.251919 0.188540 -0.000010
0.622599 0.511423 -0.000003
0.337150 0.295560 0.000010
0.509954 0.053071 0.059119
0.570614 0.483148 0.059053
0.637842 0.175848 0.000011
0.521405 0.753265 0.040240
0.268605 0.219307 0.000005
0.241893 0.175915 0.059108
0.375845 0.605098 0.059057
0.612322 0.577713 0.000003
0.470072 0.338018 0.059054
0.103074 0.558334 -0.000053
0.300659 0.151905 -0.000037
0.440537 0.291443 0.059054
0.702218 0.461167 -0.000023
0.333057 0.148633 -0.000000
0.644116 0.126703 0.007771
0.232310 0.550956 0.059047
0.478467 0.233757 0.000008
0.320603 0.720701 0.000005
0.576994 0.384706 0.059053
0.399240 0.557688 -0.000062
0.085044 0.391689 0.059127
0.163468 0.542165 0.059055
0.508752 0.610735 0.000012
0.753872 0.354770 -0.000338
0.109568 0.505237 0.000008
0.179145 0.665504 0.000007
0.566025 0.113856 0.059048
0.524145 0.250632 0.059051
0.287110 0.252086 0.059068
0.687694 0.264848 0.059053
0.064609 0.534732 0.059070
0.185803 0.190783 -0.000014
0.740529 0.466776 -0.000004
0.655309 0.506965 0.059052
0.174031 0.462236 0.059049
0.514885 0.243552 0.059089
0.170562 0.700190 -0.000132
0.517857 0.355899 -0.000007
0.176074 0.604751 0.059119
0.234366 0.481417 0.059122
0.644825 0.559623 0.000007
0.078198 0.610944 0.054037
0.019865 0.340274 0.026322
0.267139 0.117960 -0.000083
0.035152 0.494334 0.059201
0.085409 0.517812 0.000004
0.324571 0.166039 0.059055
0.480060 0.343638 0.059056
0.537876 0.614672 0.059066
0.096689 0.213819 0.000007
0.229161 0.537560 0.059045
0.681461 0.484363 0.059060
0.396073 0.652776 -0.000026
0.388462 0.357438 0.059054
0.563603 0.710984 0.059058
0.466297 0.278191 0.000011
0.272392 0.371369 -0.000049
0.452839 0.588380 0.059044
0.364195 0.776296 0.010001
0.127168 0.351328 0.059050
0.459877 0.077237 0.000001
0.198200 0.508250 0.000011
0.413110 0.523861 -0.000072
0.664455 0.321950 -0.000060
0.533627 0.483137 0.000004
0.277209 0.111778 -0.000088
0.419627 0.482122 0.059050
0.564378 0.127253 -0.000015
0.601326 0.149426 0.000008
0.043222 0.539643 0.000487
0.231536 0.117240 0.059119
0.094682 0.234110 0.059049
0.032993 0.427049 -0.000048
0.279218 0.472659 0.059054
0.577435 0.171427 0.000008
0.468975 0.478322 -0.000036
0.369861 0.027717 0.036485
0.371709 0.134739 0.059049
0.119688 0.537482 0.059111
0.460394 0.360869 0.059097
0.697406 0.494267 0.000005
0.710107 0.430227 -0.000040
0.670541 0.450166 0.059050
0.332333 0.051395 0.059069
0.060345 0.581408 0.051337
0.414605 0.425229 0.059108
0.106007 0.202079 0.059075
0.534235 0.306036 0.059055
0.300202 0.162872 -0.000027
0.515857 0.215337 -0.000068
0.582538 0.542871 0.059051
0.392355 0.177646 0.000013
0.268501 0.569117 -0.000013
0.317449 0.087169 -0.000051
0.405492 0.034657 0.059043
0.218203 0.735599 0.042296
0.591309 0.609471 0.059054
0.435420 0.397118 0.000006
0.528909 0.673391 -0.000064
0.195515 0.242273 0.000008
0.615019 0.548469 0.000001
0.602186 0.494731 -0.000001
0.615171 0.166855 0.000011
0.174561 0.247782 0.059107
0.611594 0.230352 0.059041
0.290264 0.113188 0.059050
0.586857 0.319626 0.059127
0.619407 0.105819 0.014344
0.373179 0.487960 -0.000062
0.249983 0.601519 0.059106
0.336323 0.669416 0.059052
0.593776 0.429567 0.059050
0.333519 0.259856 0.000004
0.328340 0.411706 -0.000024
0.081692 0.287467 0.059108
0.476780 0.526662 0.059046
0.040643 0.515637 -0.000146
0.540675 0.554348 0.000012
0.147541 0.593215 0.059050
0.194315 0.339504 0.059043
0.473656 0.419467 -0.000002
0.434639 0.758024 0.059093
0.506337 0.323646 0.059054
0.659236 0.214819 0.059052
0.174045 0.676613 -0.000028
0.561433 0.100811 0.000014
0.678712 0.231701 0.000009
0.364396 0.710258 0.059048
0.489421 0.481911 0.059045
0.139472 0.316430 0.000009
0.594248 0.116287 0.059050
0.581762 0.373268 0.059053
0.300147 0.189938 0.059086
0.554641 0.291101 0.059053
0.292646 0.041372 0.000501
0.746508 0.518069 0.044351
0.665987 0.625765 0.000006
0.459136 0.033702 0.018884
0.477375 0.164960 0.000003
0.468359 0.161019 -0.000009
0.392634 0.207781 0.059127
0.433467 0.500743 -0.000028
0.505680 0.468357 -0.000058
0.292954 0.584792 -0.000006
0.103725 0.211406 0.059075
0.212649 0.445330 0.059048
0.529344 0.078467 0.000001
0.086776 0.355878 0.059066
0.621099 0.688983 0.059199
0.426940 0.645411 0.000001
0.412429 0.050323 0.000001
0.667220 0.235045 0.059047
0.280278 0.333869 0.059054
0.572453 0.139017 -0.000016
0.719857 0.441635 0.000007
0.294625 0.764887 0.036660
0.188935 0.240382 0.059046
0.258241 0.716990 -0.000062
0.180272 0.431315 -0.000038
0.319951 0.453356 0.000002
0.454861 0.281985 -0.000032
0.464083 0.112492 0.059049
0.317882 0.532852 0.000011
0.686156 0.425615 0.000007
0.694421 0.569766 0.000009
0.541682 0.323262 0.000000
0.336942 0.511582 0.059102
0.298640 0.336859 -0.000052
0.418665 0.164086 0.059101
0.203235 0.632877 0.059049
0.522775 0.615592 0.059083
0.697242 0.454286 0.059051
0.496067 0.740880 -0.000069
0.339977 0.376128 0.059112
0.273997 0.102859 0.059104
0.468354 0.302831 0.059055
0.627405 0.424121 0.059122
0.475534 0.668029 -0.000061
0.544977 0.727253 -0.000040
0.631955 0.596201 0.059050
0.660673 0.369410 0.000010
0.335861 0.411940 0.059055
0.638869 0.292112 -0.000054
0.526572 0.110248 -0.000068
0.513297 0.716244 -0.000009
0.399014 0.453155 -0.000069
0.317221 0.625993 0.000013
0.570779 0.293038 0.059125
0.511337 0.135061 0.059058
0.421118 0.494077 0.000000
0.549784 0.371038 0.059051
0.329003 0.318015 -0.000000
0.378594 0.160335 0.059052
0.201378 0.726545 0.012266
0.618346 0.157548 0.059054
0.423952 0.226151 0.059123
0.363451 0.645781 -0.000055
0.368703 0.106815 0.059053
0.252655 0.544598 0.059063
0.169259 0.404959 0.059125
0.257412 0.579607 0.059046
0.747657 0.513658 0.035278
0.135344 0.360756 0.000004
0.526710 0.610158 -0.000062
0.709711 0.524398 -0.000037
0.515189 0.566437 0.000016
0.119054 0.467925 0.059113
0.297900 0.565081 0.059137
0.684638 0.255464 0.059050
0.060418 0.339222 0.059059
0.094871 0.202537 0.059073
0.466924 0.035240 0.028348
0.591392 0.180241 0.000000
0.620093 0.123990 0.059189
0.418690 0.523710 0.059116
0.159335 0.674004 0.059084
0.247058 0.559238 0.059094
0.206761 0.163659 0.000008
0.184994 0.406574 0.059096
0.173571 0.370435 0.000005
0.249481 0.157612 0.059048
0.603438 0.653920 0.059051
0.351151 0.311566 0.000008
0.385833 0.392386 0.000005
0.387267 0.514349 -0.000083
0.451816 0.675587 0.059090
0.646581 0.285849 -0.000040
0.332846 0.748831 0.059055
0.540560 0.640440 -0.000055
0.414025 0.195183 0.059052
0.267671 0.209615 0.000007
0.182161 0.582441 0.059083
0.556976 0.428441 0.059050
0.658041 0.196094 0.000009
0.414574 0.670354 0.059076
0.480272 0.696122 0.000001
0.276602 0.218482 0.059050
0.092070 0.367042 0.000006
0.129513 0.583459 0.059084
0.660552 0.204577 0.059072
0.634619 0.557654 0.000001
0.154843 0.109848 0.020279
0.471233 0.226737 0.059054
0.474179 0.126984 0.059055
0.016162 0.434652 0.006237
0.282426 0.131638 0.059049
0.431959 0.325378 0.000008
0.360497 0.135317 0.000007
0.156507 0.182572 0.059049
0.278603 0.043992 0.052474
0.094235 0.485771 -0.000048
0.043142 0.545074 0.026793
0.703860 0.527000 0.059052
0.202650 0.080180 0.058158
0.099460 0.552756 0.059116
0.066486 0.400736 0.059072
0.324647 0.062634 0.000010
0.291897 0.460209 0.000001
0.738914 0.265427 0.037861
0.694777 0.392990 0.059045
0.764243 0.420364 0.019773
0.260975 0.341728 0.059056
0.232972 0.129161 0.059101
0.255800 0.662225 0.000013
0.346108 0.124304 0.000005
0.333584 0.363390 0.059087
0.670495 0.518323 0.000002
0.334480 0.423031 -0.000055
0.565698 0.093076 0.059077
0.454069 0.271352 0.059048
0.132356 0.496966 0.000009
0.203570 0.553259 0.059087
0.410283 0.685691 0.059098
0.477363 0.329498 0.059048
0.357735 0.147889 0.000011
0.700608 0.593850 -0.000209
0.741927 0.530734 0.046466
0.370122 0.471920 0.059076
0.545402 0.061087 0.031080
0.271088 0.671642 0.059060
0.652644 0.582838 0.059057
0.555863 0.626338 0.059058
0.385800 0.777312 0.043834
0.236161 0.564892 -0.000057
0.245367 0.390672 0.059050
0.481834 0.457115 0.059041
0.451448 0.662908 0.000013
0.242316 0.686328 0.000008
0.350119 0.056972 0.000012
0.570583 0.082867 0.059268
0.487335 0.748565 0.059137
0.437438 0.433178 0.059060
0.609511 0.388523 0.059076
0.730485 0.463380 0.000006
0.612073 0.506879 0.059129
0.078583 0.356257 -0.000037
0.512060 0.598188 -0.000073
0.264064 0.755374 0.039402
0.587337 0.497212 0.000004
0.426553 0.493682 0.059053
0.368264 0.245424 -0.000048
0.661219 0.285415 -0.000069
0.511736 0.534501 0.000009
0.318240 0.034125 0.030563
0.209284 0.321575 0.059050
0.505552 0.586187 0.059052
0.699006 0.525972 -0.000014
0.230172 0.374992 -0.000067
0.568044 0.419619 0.059054
0.473484 0.448956 0.059058
0.736079 0.258749 0.015930
0.284989 0.178850 0.000009
0.512855 0.254781 0.000004
0.755197 0.357619 0.059096
0.194701 0.269987 0.059047
0.365457 0.561340 -0.000007
0.104678 0.476280 -0.000054
0.038522 0.533677 0.041195
0.467926 0.077036 0.059120
0.309836 0.182712 -0.000058
0.333815 0.067119 -0.000004
0.418170 0.333717 0.059084
0.331148 0.607970 0.059111
0.514719 0.630327 0.000010
0.263498 0.073446 0.059059
0.248380 0.346494 0.000008
0.679546 0.486341 0.000011
0.392737 0.027149 0.021786
0.693984 0.429290 0.059053
0.507162 0.708632 0.000006
0.169081 0.705557 0.050020
0.015135 0.421661 0.006507
0.488099 0.359369 0.059058
0.275066 0.388665 0.000010
0.261338 0.110118 -0.000070
0.493780 0.329814 -0.000056
0.233174 0.172037 0.000008
0.397892 0.042478 0.059156
0.464717 0.726656 0.059058
0.296970 0.535641 0.059129
0.180217 0.091161 0.040095
0.252873 0.616005 0.000011
0.435579 0.088755 0.059065
0.464006 0.207180 0.059056
0.605554 0.708789 0.008429
0.601522 0.642762 0.000014
0.530993 0.101725 -0.000032
0.699790 0.451837 -0.000008
0.444286 0.627720 0.000011
0.381985 0.570961 0.059050
0.352721 0.373830 0.059112
0.712046 0.210370 0.051350
0.422981 0.775119 0.054628
0.497311 0.648497 0.000009
0.079309 0.219340 -0.000037
0.117941 0.213794 0.000009
0.478765 0.196244 -0.000063
0.368278 0.685397 0.059053
0.351729 0.383955 0.059067
0.206761 0.545709 0.000007
0.600144 0.385559 0.059046
0.281750 0.236671 0.000004
0.205488 0.322149 0.000006
0.021279 0.472573 0.048387
0.709288 0.270005 0.000011
0.086751 0.402693 0.059079
0.540926 0.671410 -0.000061
0.228826 0.533420 -0.000043
0.375549 0.555727 0.000002
0.088139 0.353316 0.000000
0.281020 0.344178 0.059054
0.399373 0.028113 0.001977
0.018603 0.455288 0.033408
0.088221 0.473986 -0.000001
0.531455 0.268264 0.059052
0.197222 0.397534 0.059081
0.651195 0.149984 -0.000108
0.105648 0.514103 0.000010
0.062286 0.304001 -0.000080
0.040352 0.265759 0.009777
0.056408 0.545153 0.059182
0.462622 0.427640 0.059055
0.275767 0.611372 0.059045
0.600111 0.464765 -0.000047
0.565657 0.713553 -0.000025
0.256850 0.211286 0.059056
0.227930 0.394876 0.059112
0.232722 0.600658 0.000011
0.299254 0.758422 -0.000057
0.121181 0.354597 0.000001
0.417748 0.078829 0.000005
0.277636 0.748392 -0.000146
0.455117 0.394325 0.059075
0.352688 0.553595 0.059042
0.576830 0.310208 0.059115
0.436494 0.540174 0.059116
0.197758 0.168118 -0.000019
0.661963 0.590360 0.059045
0.673162 0.455142 -0.000007
0.240163 0.400056 0.059082
0.324508 0.542245 -0.000027
0.253137 0.335949 0.059049
0.370906 0.642625 0.059050
0.200131 0.160720 0.059089
0.611289 0.570858 0.059058
0.280728 0.573828 0.059074
0.403325 0.524943 -0.000088
0.679189 0.407822 0.000001
0.663865 0.289696 0.059049
0.255267 0.470260 -0.000003
0.556903 0.241299 -0.000021
0.741399 0.532175 0.029153
0.205938 0.501792 -0.000013
0.534866 0.056480 0.046238
0.078425 0.444719 0.059114
0.585354 0.434372 -0.000048
0.281840 0.089168 0.059085
0.436276 0.030220 0.034863
0.112942 0.278953 0.059064
0.351623 0.447355 0.059123
0.393319 0.642987 0.000016
0.139462 0.335389 0.059052
0.469531 0.737010 0.059100
0.268333 0.756919 0.020993
0.419871 0.160402 -0.000045
0.457582 0.303895 0.059051
0.077096 0.412752 0.000008
0.367219 0.207553 -0.000035
0.620596 0.611616 0.059063
0.198836 0.586597 0.000003
0.081274 0.459819 0.000011
0.136359 0.619534 0.059107
0.317599 0.654926 0.000005
0.401766 0.027366 0.014070
0.253586 0.059777 0.059005
0.558445 0.535058 0.059050
0.419219 0.541344 0.059112
0.349715 0.068064 0.059055
0.674727 0.506380 0.000007
0.325814 0.472812 0.000000
0.128301 0.477036 0.059135
0.241057 0.330760 0.059045
0.721525 0.272181 -0.000022
0.420579 0.472349 0.059048
0.235383 0.401791 -0.000050
0.129567 0.143005 -0.000134
0.299966 0.379689 -0.000081
0.427282 0.276895 0.059055
0.379637 0.690388 0.059048
0.524189 0.203378 0.000008
0.351272 0.349504 0.059105
0.418111 0.447994 -0.000054
0.394608 0.672499 0.059132
0.649880 0.587510 -0.000065
0.192560 0.554220 0.059051
0.109292 0.548390 0.059126
0.355267 0.256195 0.059052
0.287413 0.391689 0.059115
0.639931 0.601746 0.059059
0.301047 0.231073 0.000002
0.525648 0.216139 -0.000028
0.401835 0.692715 0.059071
0.185714 0.129222 0.000011
0.277493 0.155827 0.059054
0.566069 0.669310 0.059106
0.625168 0.686895 0.000004
0.459653 0.644663 0.000004
0.496860 0.694407 0.059054
0.202268 0.387392 0.059078
0.158812 0.402982 0.059103
0.333850 0.546976 0.000011
0.182471 0.209410 0.000009
0.169117 0.204053 0.059046
0.067094 0.445988 0.059072
0.713760 0.529161 0.059099
0.436744 0.774195 0.010152
0.274116 0.582499 0.059046
0.023014 0.323961 0.021759
0.422639 0.658413 0.059049
0.221891 0.706831 0.059046
0.429050 0.736858 0.059054
0.031382 0.510704 0.002868
0.274816 0.065708 -0.000000
0.261621 0.187644 -0.000002
0.457370 0.158068 -0.000022
0.256435 0.591359 0.059070
0.639842 0.532894 0.059060
0.287249 0.486877 0.059069
0.609655 0.514190 0.000003
0.446601 0.357715 0.059056
0.356430 0.498620 -0.000036
0.099003 0.165156 0.012724
0.472519 0.464929 0.059103
0.371885 0.188428 -0.000060
0.351774 0.579480 0.059072
0.434030 0.769794 -0.000038
0.628674 0.385023 0.059058
0.130323 0.152630 -0.000049
0.101301 0.405542 0.059044
0.739668 0.458522 0.059069
0.484842 0.738545 0.059113
0.136127 0.125606 0.011008
0.386453 0.377076 0.000011
0.504324 0.114431 0.059065
0.707606 0.362466 0.059051
0.497142 0.243374 0.000002
0.077840 0.193802 0.014717
0.401427 0.054049 0.059067
0.495775 0.201910 -0.000002
0.613364 0.685114 -0.000102
0.361074 0.182097 0.059049
0.761641 0.360920 0.002893
0.509722 0.046760 0.010855
0.243790 0.458853 -0.000060
0.236928 0.744603 0.033499
0.486768 0.625915 0.059125
0.452866 0.212348 0.000011
0.508983 0.186867 -0.000001
0.523282 0.081516 0.059099
0.141903 0.306446 -0.000000
0.383950 0.514960 0.059120
0.103899 0.464466 0.000002
0.134866 0.142436 0.059180
0.369624 0.056752 -0.000019
0.541696 0.469824 0.059041
0.148619 0.233678 0.059049
0.340184 0.636488 -0.000001
0.674871 0.461810 0.059060
0.255570 0.641557 0.059116
0.368846 0.746220 0.059047
0.406553 0.776721 0.029461
0.663530 0.388583 0.000006
0.256138 0.507516 0.000002
0.202436 0.705965 -0.000019
0.346460 0.029739 0.027279
0.337500 0.201352 0.059046
0.496568 0.438603 0.000008
0.259437 0.314576 0.059071
0.525342 0.164390 0.000011
0.763451 0.432549 0.008690
0.400663 0.049724 -0.000011
0.762846 0.439107 0.035629
0.713531 0.580888 0.000120
0.131059 0.130756 0.027540
0.265743 0.501165 0.059098
0.200833 0.726174 0.044045
0.113359 0.148677 0.043793
0.632181 0.515749 0.059056
0.543579 0.265460 0.059049
0.283821 0.100009 0.059065
0.409058 0.699863 0.059104
0.017236 0.444917 0.004475
0.637452 0.257972 0.000012
0.590660 0.718726 0.027631
0.436230 0.030310 0.055303
0.191151 0.109820 -0.000003
0.594978 0.476566 -0.000056
0.083235 0.186177 0.019280
0.069218 0.238824 -0.000018
0.159208 0.168624 0.059051
0.277260 0.270793 0.059062
0.016931 0.442447 0.015781
0.307246 0.096947 0.059109
0.396516 0.482783 0.059099
0.209852 0.460161 0.059075
0.439012 0.567747 0.059050
0.668177 0.472917 0.059127
0.055483 0.484313 0.059050
0.515482 0.343569 -0.000021
0.652884 0.362889 -0.000005
0.043698 0.489416 0.059120
0.429874 0.156589 -0.000041
0.515057 0.389903 -0.000053
0.744615 0.447425 0.059059
0.570923 0.314091 0.000001
0.584883 0.554899 0.059050
0.704248 0.573196 -0.000016
0.647220 0.210815 0.059046
0.711192 0.578341 0.059171
0.198592 0.529483 0.059064
0.033060 0.285858 0.009235
0.658810 0.513748 0.000011
0.706110 0.432482 0.059049
0.631670 0.266003 0.059129
0.568612 0.645052 -0.000062
0.214638 0.422606 -0.000024
0.555092 0.065586 0.008474
0.485250 0.635627 -0.000028
0.437197 0.709316 0.059063
0.149290 0.160141 0.059044
0.196484 0.320506 0.059053
0.582644 0.146268 0.059132
0.470792 0.685320 0.000009
0.608928 0.283932 0.059136
0.176922 0.421860 -0.000004
0.610782 0.704977 0.035219
0.679324 0.640326 0.035006
0.382055 0.678825 -0.000072
0.402956 0.536885 -0.000089
0.057528 0.277121 -0.000013
0.637863 0.380259 0.059048
0.640097 0.194899 0.000005
0.474831 0.062570 0.000010
0.691877 0.588736 -0.000016
0.642988 0.128231 0.058200
0.179651 0.231342 0.000009
0.208472 0.593136 0.000003
0.758623 0.463241 0.058247
0.114211 0.558710 -0.000047
0.663593 0.449333 0.000008
0.672862 0.442860 0.000000
0.056100 0.425959 0.059052
0.014819 0.407561 0.031240
0.623940 0.473998 -0.000019
0.633890 0.416869 0.059087
0.023050 0.323843 0.032523
0.403270 0.223070 0.000000
0.324857 0.771510 0.017663
0.416740 0.776282 0.010997
0.206619 0.638058 -0.000063
0.351936 0.565704 0.059107
0.181552 0.221161 -0.000003
0.019599 0.462595 0.014914
0.215650 0.469914 0.059058
0.055351 0.292669 0.000001
0.147625 0.205895 -0.000018
0.377024 0.513496 -0.000063
0.303330 0.635807 -0.000041
0.539888 0.262773 -0.000010
0.540591 0.703057 0.059045
0.527010 0.227000 0.059062
0.404669 0.417014 0.059077
0.416460 0.751740 0.059055
0.611882 0.116674 0.059145
0.220196 0.483228 0.000001
0.760841 0.349024 0.053882
0.517090 0.369760 0.059050
0.597205 0.239615 -0.000005
0.414326 0.710180 0.059071
0.449128 0.031928 0.029954
0.589496 0.383832 0.059048
0.445829 0.756635 0.059162
0.397781 0.377233 0.059116
0.235789 0.724089 0.059102
0.087347 0.563486 0.059080
0.289532 0.524860 0.059092
0.645277 0.626770 0.059050
0.494936 0.490009 0.059050
0.520470 0.604980 0.059044
0.401594 0.270856 -0.000075
0.319007 0.535091 0.059045
0.715112 0.504794 0.000008
0.206764 0.401488 0.059127
0.273455 0.538722 -0.000059
0.310161 0.161834 -0.000067
0.560664 0.090827 0.000006
0.405206 0.320899 -0.000008
0.416994 0.410162 -0.000011
0.432561 0.585386 0.000001
0.268359 0.660713 0.000011
0.724297 0.526648 -0.000058
0.505712 0.571864 -0.000003
0.465876 0.034900 0.044986
0.418432 0.704043 0.000004
0.600040 0.098456 0.059115
0.332723 0.521598 0.059106
0.746940 0.294685 0.001319
0.171020 0.136937 0.000011
0.520750 0.653166 0.059047
0.510306 0.161063 0.059050
0.274853 0.045041 0.006815
0.623126 0.181411 0.059115
0.459587 0.751997 0.059175
0.324619 0.057753 0.059049
0.372932 0.620635 0.059056
0.256319 0.692421 0.000012
0.320939 0.157426 -0.000055
0.153138 0.537613 -0.000006
0.089334 0.177434 0.049031
0.234461 0.347863 0.059052
0.087168 0.405670 -0.000055
0.354705 0.512251 -0.000013
0.564430 0.206511 0.000000
0.273004 0.758527 0.029647
0.489793 0.531813 0.059104
0.716127 0.217469 0.013117
0.455268 0.038206 0.059100
0.161746 0.350341 -0.000022
0.379524 0.371146 0.059072
0.370601 0.577707 0.059050
0.417775 0.205535 0.000003
0.174782 0.617054 0.059042
0.232520 0.191829 -0.000056
0.303054 0.454814 0.059044
0.691040 0.560517 0.000006
0.266450 0.604052 -0.000043
0.704034 0.372310 0.059051
0.763460 0.431704 0.018409
0.454934 0.727269 0.059051
0.541756 0.489699 0.000004
0.233973 0.676771 0.059134
0.358172 0.211721 -0.000017
0.614180 0.340701 0.059079
0.468033 0.674152 -0.000020
0.078637 0.272426 0.000002
0.706217 0.385062 -0.000004
0.695380 0.184959 0.018917
0.492145 0.727311 -0.000033
0.435192 0.030455 0.003277
0.232140 0.449538 0.059057
0.621025 0.285362 -0.000048
0.108256 0.376161 0.059134
0.277418 0.330448 -0.000021
0.588833 0.202850 0.000002
0.591243 0.497544 0.059050
0.411614 0.548528 0.059110
0.434787 0.029967 0.014921
0.524730 0.122972 0.059100
0.308980 0.579800 0.059125
0.573316 0.552688 0.059049
0.444295 0.728647 0.059054
0.168069 0.148780 0.000010
0.446068 0.031473 0.039242
0.344044 0.277284 0.000008
0.081771 0.532171 0.000002
0.545108 0.101317 -0.000018
0.401343 0.154980 0.059115
0.159190 0.424479 0.059126
0.206022 0.341071 0.059057
0.117326 0.379805 0.059122
0.462577 0.734563 0.000006
0.441668 0.346332 0.059044
0.699671 0.384094 0.059063
0.465654 0.216084 0.000010
0.014737 0.406624 0.019116
0.537710 0.439648 0.059128
0.477214 0.625337 -0.000076
0.018153 0.452106 0.012242
0.236383 0.687331 0.059102
0.272097 0.090842 0.059064
0.328056 0.094267 -0.000049
0.141996 0.121134 0.003106
0.226534 0.140334 0.000012
0.495367 0.042985 0.056058
0.571586 0.655172 -0.000051
0.473513 0.511512 0.000004
0.225883 0.656455 0.059040
0.325156 0.461449 -0.000002
0.105835 0.228885 0.059051
0.541945 0.177087 0.000007
0.217522 0.454391 0.059098
0.562891 0.069623 0.033370
0.606786 0.172559 0.000003
0.519437 0.334361 -0.000030
0.613840 0.608940 -0.000029
0.393962 0.177956 0.059053
0.201858 0.328631 0.059058
0.281694 0.563714 0.059077
0.326635 0.771912 0.051324
0.517119 0.456983 -0.000087
0.676241 0.603119 0.000009
0.375647 0.776712 0.007263
0.347409 0.774713 0.044647
0.294031 0.173397 -0.000021
0.105542 0.259929 0.059092
0.439800 0.737730 0.059052
0.434919 0.453276 -0.000029
0.384046 0.309009 -0.000029
0.640366 0.407282 -0.000017
0.255147 0.631421 0.059128
0.620117 0.497363 -0.000031
0.603976 0.409465 0.059054
0.418188 0.272505 0.059065
0.295399 0.708205 0.000009
0.214680 0.094061 -0.000005
0.170895 0.313894 0.000011
0.095409 0.169573 0.051470
0.493891 0.341624 0.000001
0.673662 0.329557 -0.000058
0.651656 0.307543 -0.000064
0.260444 0.392963 0.059050
0.052433 0.565998 0.035694
0.148218 0.531072 0.059108
0.764581 0.411090 0.023335
0.575519 0.350964 -0.000020
0.261938 0.540012 0.059112
0.348393 0.641566 0.000007
0.416728 0.206549 0.059094
0.438959 0.030560 0.025318
0.515417 0.360203 0.059058
0.572628 0.567432 0.000005
0.202760 0.727221 0.022839
0.663119 0.430082 0.059090
0.239275 0.273265 0.059046
0.395495 0.754385 -0.000021
0.307319 0.172411 -0.000074
0.281804 0.227054 0.059054
0.416601 0.644215 0.000003
0.316998 0.101688 0.059061
0.516966 0.534666 0.059042
0.420569 0.195567 0.000004
0.424356 0.093592 0.059071
0.361391 0.028054 0.047252
0.130014 0.340809 0.059055
0.687778 0.492588 -0.000001
0.664423 0.634892 0.059097
0.576256 0.653195 0.059052
0.451885 0.375421 -0.000015
0.518142 0.543247 -0.000002
0.606312 0.644665 0.059047
0.339192 0.500212 0.059117
0.406037 0.719519 -0.000003
0.418249 0.634336 -0.000028
0.459577 0.562395 -0.000022
0.106948 0.236548 0.000003
0.217013 0.574704 -0.000013
0.629808 0.355783 0.000000
0.451353 0.295042 0.059051
0.229072 0.296787 0.059049
0.764094 0.381533 0.024854
0.761232 0.452302 0.042652
0.675599 0.240150 0.059088
0.429692 0.170180 0.059058
0.182188 0.554751 -0.000003
0.330161 0.770775 0.001537
0.282558 0.042940 0.023998
0.327282 0.195422 0.059053
0.554675 0.260514 0.000011
0.169716 0.576272 0.000007
0.376845 0.360852 -0.000039
0.249739 0.403823 0.059063
0.653386 0.597833 0.059046
0.023595 0.477087 0.057236
0.337048 0.574739 -0.000009
0.586913 0.586901 0.059051
