ply
format ascii 1.0
element vertex 1671
property float x
property float y
property float z
end_header
-0.116200 0.014852 -0.001767
-0.117540 0.016202 -0.001736
-0.117080 0.018750 -0.000118
-0.116340 0.018749 -0.001766
-0.117280 0.017708 -0.001743
-0.116550 0.017685 -0.001761
-0.119490 0.018340 -0.000061
-0.119460 0.015339 -0.000060
-0.117010 0.016547 -0.000118
-0.119790 0.015202 -0.001683
-0.116730 0.017900 -0.000126
-0.115770 0.018258 -0.001779
-0.119780 0.016393 -0.001684
-0.118600 0.017302 -0.000081
-0.119130 0.015974 -0.000068
-0.119800 0.016328 -0.000053
-0.116380 0.014640 -0.000337
-0.117740 0.018340 -0.000102
-0.117060 0.016944 -0.001748
-0.120600 0.016698 -0.000034
-0.117320 0.015600 -0.000110
-0.120560 0.015328 -0.001665
-0.117220 0.017248 -0.000114
-0.118100 0.015052 -0.000092
-0.120340 0.015587 -0.000039
-0.119350 0.014639 -0.001277
-0.118170 0.018233 -0.001723
-0.117810 0.016572 -0.000099
-0.119490 0.017323 -0.001691
-0.116510 0.016419 -0.001761
-0.118720 0.014693 -0.001707
-0.117360 0.014640 -0.000111
-0.117950 0.014718 -0.001726
-0.114620 0.014640 -0.001553
-0.114400 0.015428 -0.001809
-0.113580 0.015173 -0.000198
-0.112630 0.018311 -0.000222
-0.113100 0.018446 -0.001842
-0.112860 0.015689 -0.000215
-0.115540 0.014640 -0.001599
-0.114870 0.016071 -0.001799
-0.111640 0.015465 -0.000243
-0.111940 0.016995 -0.001868
-0.111710 0.018277 -0.000244
-0.111590 0.015462 -0.001875
-0.112680 0.016934 -0.000220
-0.114810 0.018375 -0.001802
-0.111270 0.018637 -0.001885
-0.114030 0.016342 -0.001819
-0.113660 0.017918 -0.001828
-0.111300 0.014691 -0.000251
-0.115360 0.017830 -0.000158
-0.111000 0.014997 -0.001889
-0.114500 0.016743 -0.000177
-0.113390 0.015076 -0.001833
-0.115600 0.014640 -0.000195
-0.110740 0.017468 -0.000266
-0.114580 0.015316 -0.000174
-0.111480 0.017015 -0.000248
-0.113540 0.017007 -0.000200
-0.114810 0.016003 -0.000169
-0.115270 0.018538 -0.000160
-0.113510 0.017870 -0.000201
-0.112250 0.018103 -0.001861
-0.114890 0.017388 -0.001799
-0.113590 0.014640 -0.001169
-0.115230 0.015374 -0.001790
-0.113980 0.018498 -0.000190
-0.115430 0.015629 -0.000155
-0.111070 0.017385 -0.001889
-0.115570 0.016660 -0.000152
-0.111920 0.017586 -0.000238
-0.112610 0.016198 -0.001852
-0.114410 0.017840 -0.000180
-0.114020 0.015862 -0.000188
-0.111740 0.014768 -0.001871
-0.112790 0.014640 -0.001283
-0.111980 0.016483 -0.000236
-0.113460 0.017185 -0.001833
-0.112740 0.016998 -0.001849
-0.110800 0.015758 -0.001894
-0.115520 0.016488 -0.001784
-0.113380 0.015795 -0.001833
-0.110940 0.016649 -0.001891
-0.112920 0.014757 -0.000213
-0.112850 0.017704 -0.001847
-0.112690 0.015244 -0.001849
-0.114210 0.017204 -0.001815
-0.112350 0.015172 -0.000226
-0.114840 0.014640 -0.000286
-0.111150 0.016376 -0.000255
-0.111650 0.016313 -0.001874
-0.113260 0.016344 -0.000206
-0.114010 0.014640 -0.000472
-0.108630 0.016883 -0.001946
-0.107760 0.017388 -0.000335
-0.105800 0.016554 -0.002012
-0.107440 0.014641 -0.001494
-0.110370 0.018584 -0.001906
-0.108550 0.017758 -0.001948
-0.106030 0.015468 -0.002006
-0.107230 0.018678 -0.000349
-0.108280 0.015801 -0.000322
-0.106730 0.014641 -0.001545
-0.109190 0.015120 -0.001931
-0.108120 0.018594 -0.000328
-0.108990 0.015512 -0.000305
-0.106520 0.018097 -0.001996
-0.106110 0.014641 -0.000531
-0.106880 0.017412 -0.000356
-0.107360 0.017839 -0.001976
-0.108950 0.018069 -0.000308
-0.109390 0.017337 -0.001928
-0.108890 0.017186 -0.000309
-0.110220 0.016361 -0.001908
-0.107390 0.016461 -0.000344
-0.107770 0.018415 -0.001967
-0.105900 0.018574 -0.002011
-0.110560 0.018446 -0.000271
-0.108630 0.014641 -0.000944
-0.108230 0.014640 -0.001699
-0.106670 0.016080 -0.000360
-0.108940 0.015812 -0.001938
-0.110340 0.016671 -0.000275
-0.108800 0.016339 -0.000310
-0.106760 0.017272 -0.001990
-0.108660 0.018454 -0.001946
-0.109850 0.014640 -0.001788
-0.110590 0.015516 -0.000268
-0.106800 0.018842 -0.001990
-0.106380 0.016849 -0.000368
-0.105800 0.018092 -0.000382
-0.106260 0.018718 -0.000372
-0.106780 0.015324 -0.001988
-0.107270 0.016430 -0.001977
-0.107450 0.015516 -0.000342
-0.109610 0.016272 -0.000291
-0.107840 0.017021 -0.001964
-0.107510 0.015446 -0.001971
-0.109720 0.018495 -0.000290
-0.108020 0.015977 -0.001959
-0.109510 0.016636 -0.001925
-0.110210 0.017185 -0.001909
-0.109850 0.017662 -0.000287
-0.105860 0.014724 -0.002009
-0.110170 0.015311 -0.001908
-0.108110 0.016654 -0.000327
-0.106870 0.015057 -0.000355
-0.109670 0.015862 -0.001920
-0.109650 0.014641 -0.000451
-0.109490 0.018228 -0.001926
-0.108380 0.015074 -0.000319
-0.107520 0.014714 -0.000339
-0.110500 0.014782 -0.000270
-0.106020 0.015537 -0.000375
-0.109810 0.015423 -0.000286
-0.102650 0.018108 -0.002086
-0.101280 0.017538 -0.002118
-0.101110 0.016710 -0.000491
-0.103820 0.015496 -0.002057
-0.102740 0.015294 -0.002083
-0.102950 0.014641 -0.001749
-0.103310 0.017579 -0.000440
-0.101210 0.015294 -0.002118
-0.104250 0.015252 -0.000416
-0.103880 0.018005 -0.002058
-0.103850 0.018067 -0.000428
-0.101100 0.018722 -0.002123
-0.104790 0.015537 -0.002035
-0.105200 0.016642 -0.000395
-0.103480 0.016198 -0.002066
-0.101820 0.018727 -0.002106
-0.103710 0.016886 -0.000430
-0.101830 0.017111 -0.000474
-0.104290 0.017419 -0.000417
-0.102200 0.015981 -0.002096
-0.103650 0.018742 -0.002063
-0.105310 0.015627 -0.000392
-0.102440 0.018247 -0.000461
-0.103720 0.016020 -0.000429
-0.101360 0.018172 -0.000486
-0.101870 0.014829 -0.000472
-0.105480 0.018803 -0.000390
-0.104980 0.018098 -0.000401
-0.105470 0.017411 -0.000389
-0.102570 0.017261 -0.000457
-0.102220 0.017532 -0.002096
-0.102970 0.016461 -0.000447
-0.105100 0.014641 -0.001674
-0.105300 0.014780 -0.000391
-0.104500 0.018834 -0.000413
-0.105530 0.017696 -0.002019
-0.101800 0.015703 -0.000474
-0.102830 0.017112 -0.002082
-0.104060 0.016996 -0.002053
-0.103340 0.015012 -0.000438
-0.104770 0.016591 -0.002036
-0.104620 0.018086 -0.002040
-0.100960 0.016531 -0.002125
-0.102580 0.015727 -0.000456
-0.102590 0.014642 -0.000474
-0.104560 0.014641 -0.000886
-0.102140 0.016751 -0.002098
-0.102110 0.014840 -0.002097
-0.104690 0.017346 -0.002038
-0.103750 0.014702 -0.002058
-0.104490 0.016166 -0.000411
-0.101500 0.014641 -0.001588
-0.100980 0.017441 -0.000494
-0.102180 0.016355 -0.000466
-0.104240 0.016080 -0.002048
-0.101130 0.015293 -0.000490
-0.104400 0.014641 -0.001793
-0.100850 0.014642 -0.000533
-0.095693 0.017782 -0.000619
-0.100280 0.018055 -0.002142
-0.097831 0.016211 -0.002198
-0.096183 0.014903 -0.000605
-0.098611 0.016978 -0.002180
-0.097071 0.018499 -0.002218
-0.097253 0.017288 -0.000582
-0.097851 0.015320 -0.002197
-0.098822 0.017913 -0.000545
-0.097001 0.015676 -0.002217
-0.096743 0.018340 -0.000594
-0.098932 0.014642 -0.000546
-0.097391 0.016994 -0.002209
-0.097813 0.017993 -0.000569
-0.098882 0.015740 -0.000543
-0.099460 0.016058 -0.002160
-0.099790 0.016777 -0.002153
-0.096383 0.017196 -0.000602
-0.096763 0.016020 -0.000592
-0.095913 0.018782 -0.000614
-0.097553 0.018688 -0.000576
-0.098282 0.015091 -0.000556
-0.096251 0.018167 -0.002237
-0.099783 0.014642 -0.000565
-0.097173 0.015429 -0.000582
-0.100200 0.016184 -0.002143
-0.095712 0.018677 -0.002250
-0.100520 0.018225 -0.000506
-0.100630 0.014641 -0.001959
-0.100590 0.017351 -0.002134
-0.100430 0.015446 -0.002137
-0.096231 0.014908 -0.002235
-0.099592 0.017335 -0.000527
-0.100460 0.015962 -0.000506
-0.096721 0.016519 -0.002225
-0.098980 0.014771 -0.002170
-0.098072 0.016141 -0.000562
-0.100370 0.016974 -0.000508
-0.098270 0.014711 -0.002187
-0.098021 0.017379 -0.002195
-0.099002 0.016511 -0.000540
-0.095703 0.016438 -0.000618
-0.098630 0.016047 -0.002179
-0.099500 0.017806 -0.002160
-0.097403 0.016424 -0.000578
-0.098222 0.017074 -0.000559
-0.097301 0.017695 -0.002212
-0.099790 0.014824 -0.002151
-0.095931 0.016636 -0.002243
-0.098801 0.018035 -0.002177
-0.096083 0.015824 -0.000608
-0.099682 0.015867 -0.000524
-0.098191 0.018561 -0.002191
-0.096561 0.017398 -0.002229
-0.097476 0.014641 -0.002022
-0.099752 0.018126 -0.000524
-0.099720 0.018519 -0.002155
-0.097624 0.014642 -0.000649
-0.098493 0.018608 -0.000554
-0.100250 0.015205 -0.000510
-0.092482 0.017963 -0.002325
-0.093962 0.018380 -0.002290
-0.091722 0.017043 -0.002342
-0.092754 0.017527 -0.000687
-0.092234 0.018275 -0.000700
-0.091484 0.015635 -0.000716
-0.094592 0.015517 -0.002274
-0.094655 0.014642 -0.002004
-0.092842 0.017158 -0.002316
-0.093684 0.017445 -0.000666
-0.093284 0.016280 -0.000674
-0.091192 0.015308 -0.002353
-0.094493 0.015590 -0.000645
-0.094602 0.017824 -0.002275
-0.093546 0.014642 -0.002036
-0.091085 0.018218 -0.000727
-0.090973 0.016367 -0.002359
-0.093802 0.015368 -0.002292
-0.091774 0.016703 -0.000710
-0.093072 0.015398 -0.002309
-0.094788 0.014642 -0.000853
-0.092302 0.016166 -0.002328
-0.094322 0.016940 -0.002281
-0.095312 0.017960 -0.002259
-0.094394 0.018095 -0.000649
-0.094483 0.016503 -0.000646
-0.091334 0.014646 -0.000719
-0.093792 0.017684 -0.002294
-0.091613 0.017829 -0.002345
-0.090914 0.016178 -0.000730
-0.095581 0.015931 -0.002251
-0.093644 0.018337 -0.000667
-0.095563 0.014642 -0.001892
-0.091463 0.018538 -0.002349
-0.094752 0.016268 -0.002270
-0.093542 0.016672 -0.002299
-0.094883 0.017164 -0.000637
-0.092934 0.015471 -0.000682
-0.091624 0.018672 -0.000715
-0.092374 0.016195 -0.000695
-0.095312 0.017007 -0.002258
-0.091074 0.016951 -0.000726
-0.093152 0.018315 -0.002309
-0.092062 0.014749 -0.002333
-0.090963 0.017540 -0.002360
-0.093504 0.015017 -0.000668
-0.095273 0.015711 -0.000627
-0.091634 0.017493 -0.000714
-0.092802 0.014642 -0.002314
-0.094722 0.018724 -0.002273
-0.092264 0.015222 -0.000697
-0.093784 0.015722 -0.000662
-0.092844 0.014717 -0.000683
-0.087514 0.016480 -0.002440
-0.089145 0.014943 -0.000770
-0.089955 0.017253 -0.000753
-0.088685 0.017311 -0.000783
-0.090275 0.016610 -0.000745
-0.090379 0.014643 -0.000926
-0.090353 0.016708 -0.002374
-0.088935 0.016577 -0.000776
-0.086806 0.016603 -0.000826
-0.086031 0.014643 -0.001927
-0.090115 0.018705 -0.000750
-0.086096 0.018849 -0.000844
-0.085836 0.016382 -0.000849
-0.085726 0.018005 -0.000852
-0.089813 0.018342 -0.002388
-0.085884 0.016725 -0.002479
-0.089895 0.015502 -0.000753
-0.090253 0.017593 -0.002377
-0.086244 0.017889 -0.002471
-0.089403 0.017320 -0.002397
-0.086564 0.015056 -0.002462
-0.090013 0.015206 -0.002381
-0.086314 0.018610 -0.002470
-0.086126 0.015709 -0.000842
-0.090533 0.018793 -0.002371
-0.087574 0.017450 -0.002440
-0.090634 0.015400 -0.000736
-0.086260 0.014643 -0.001023
-0.089003 0.015062 -0.002405
-0.088283 0.016158 -0.002422
-0.087006 0.018222 -0.000823
-0.087943 0.015511 -0.002430
-0.086236 0.017426 -0.000840
-0.088945 0.018197 -0.000777
-0.087333 0.015025 -0.002444
-0.088485 0.014642 -0.002066
-0.089603 0.015820 -0.002391
-0.087479 0.014643 -0.001845
-0.088307 0.014643 -0.000881
-0.087574 0.018262 -0.002440
-0.088823 0.017989 -0.002411
-0.090433 0.015864 -0.002372
-0.087126 0.017313 -0.000819
-0.086634 0.017150 -0.002461
-0.088324 0.018762 -0.002423
-0.087975 0.017908 -0.000800
-0.089083 0.018667 -0.002405
-0.086844 0.015797 -0.002456
-0.090492 0.014642 -0.002340
-0.089352 0.014642 -0.001914
-0.087955 0.015297 -0.000798
-0.089525 0.016175 -0.000762
-0.088335 0.016106 -0.000790
-0.085714 0.015812 -0.002482
-0.087405 0.015854 -0.000812
-0.087166 0.014643 -0.000837
-0.087585 0.016615 -0.000808
-0.088643 0.016862 -0.002414
-0.088155 0.018807 -0.000796
-0.089333 0.016604 -0.002398
-0.087386 0.018855 -0.000814
-0.090645 0.017573 -0.000737
-0.086705 0.015242 -0.000828
-0.089815 0.017975 -0.000757
-0.081315 0.016558 -0.002586
-0.080766 0.018567 -0.002600
-0.082989 0.014643 -0.002299
-0.082137 0.016620 -0.000936
-0.084045 0.016874 -0.002522
-0.085164 0.017022 -0.002496
-0.083205 0.016675 -0.002541
-0.083347 0.017762 -0.000908
-0.081203 0.014643 -0.002502
-0.081157 0.017023 -0.000959
-0.084075 0.018316 -0.002522
-0.080685 0.016093 -0.002600
-0.081387 0.016042 -0.000953
-0.082185 0.016955 -0.002566
-0.081415 0.015373 -0.002583
-0.084575 0.017549 -0.002510
-0.083245 0.018619 -0.002542
-0.081137 0.018366 -0.000960
-0.083495 0.017483 -0.002535
-0.082277 0.018103 -0.000933
-0.083844 0.015565 -0.002526
-0.082177 0.015657 -0.000934
-0.082207 0.017402 -0.000935
-0.085447 0.014644 -0.000904
-0.082455 0.015151 -0.002558
-0.083426 0.014728 -0.000904
-0.082967 0.016092 -0.000916
-0.085066 0.016294 -0.000867
-0.085334 0.018161 -0.002493
-0.082827 0.018714 -0.000921
-0.084916 0.015534 -0.000870
-0.085044 0.015396 -0.002498
-0.084384 0.014806 -0.002513
-0.082245 0.016171 -0.002564
-0.081675 0.017950 -0.002578
-0.085052 0.014643 -0.001983
-0.083576 0.015561 -0.000901
-0.085036 0.018253 -0.000869
-0.084396 0.017887 -0.000884
-0.084176 0.016608 -0.000888
-0.082685 0.017655 -0.002554
-0.085644 0.014916 -0.002483
-0.084167 0.018649 -0.000889
-0.084864 0.016224 -0.002502
-0.083437 0.016626 -0.000905
-0.082475 0.018661 -0.002560
-0.085046 0.017467 -0.000868
-0.084697 0.014643 -0.001352
-0.081185 0.017359 -0.002589
-0.082737 0.014997 -0.000921
-0.081717 0.014710 -0.000944
-0.083916 0.017342 -0.000894
-0.083155 0.015390 -0.002542
-0.084286 0.015178 -0.000884
-0.081577 0.017748 -0.000950
-0.075879 0.018384 -0.001084
-0.077477 0.017951 -0.002677
-0.077238 0.016676 -0.001051
-0.076027 0.017018 -0.002710
-0.078938 0.016119 -0.001010
-0.077198 0.015669 -0.001051
-0.079508 0.016629 -0.000997
-0.076668 0.017391 -0.001064
-0.076739 0.018095 -0.001063
-0.079026 0.018621 -0.002641
-0.080287 0.016976 -0.000979
-0.080368 0.018167 -0.000978
-0.076377 0.018290 -0.002703
-0.077786 0.014657 -0.002667
-0.079656 0.016031 -0.002624
-0.077856 0.017063 -0.002667
-0.077856 0.014644 -0.001383
-0.078798 0.017043 -0.001014
-0.080396 0.017299 -0.002608
-0.079358 0.018302 -0.001002
-0.078780 0.014644 -0.001548
-0.078198 0.015594 -0.001027
-0.079486 0.014692 -0.002627
-0.076586 0.015141 -0.002696
-0.077728 0.018329 -0.001040
-0.076618 0.015142 -0.001064
-0.079656 0.017590 -0.002625
-0.078806 0.015144 -0.002644
-0.075969 0.016391 -0.001080
-0.077876 0.016064 -0.002666
-0.078986 0.016984 -0.002641
-0.079641 0.014644 -0.001130
-0.077788 0.017392 -0.001038
-0.075767 0.017736 -0.002717
-0.076856 0.016337 -0.002690
-0.075909 0.017557 -0.001082
-0.075727 0.014827 -0.002716
-0.077316 0.015382 -0.002679
-0.078058 0.016446 -0.001031
-0.076697 0.017344 -0.002694
-0.080385 0.014643 -0.002595
-0.078718 0.017819 -0.001017
-0.080235 0.015384 -0.002610
-0.076272 0.014644 -0.002072
-0.078046 0.018599 -0.002664
-0.079707 0.015588 -0.000992
-0.077308 0.014949 -0.001048
-0.078816 0.017781 -0.002645
-0.079836 0.016818 -0.002621
-0.080266 0.018000 -0.002611
-0.076137 0.015825 -0.002707
-0.080447 0.016055 -0.000975
-0.080657 0.015369 -0.000970
-0.078616 0.015886 -0.002649
-0.075918 0.015658 -0.001081
-0.079658 0.017579 -0.000994
-0.078418 0.018656 -0.001024
-0.078938 0.015111 -0.001010
-0.080250 0.014644 -0.001528
-0.074201 0.017525 -0.001122
-0.071157 0.014810 -0.001192
-0.073037 0.015571 -0.001148
-0.071595 0.017835 -0.002814
-0.070702 0.016988 -0.001204
-0.075329 0.017101 -0.001096
-0.075047 0.016002 -0.002732
-0.073769 0.018704 -0.001133
-0.075513 0.014644 -0.001280
-0.075307 0.016761 -0.002727
-0.073397 0.014645 -0.001543
-0.075127 0.018175 -0.002732
-0.071951 0.018298 -0.001176
-0.070735 0.015638 -0.002833
-0.071798 0.017596 -0.001179
-0.071232 0.018294 -0.001192
-0.071336 0.015668 -0.001188
-0.073420 0.017196 -0.002771
-0.072476 0.018027 -0.002794
-0.071028 0.018259 -0.002828
-0.074417 0.018394 -0.002749
-0.073450 0.017802 -0.001140
-0.075049 0.018285 -0.001103
-0.071738 0.016628 -0.001180
-0.071891 0.017095 -0.002807
-0.071699 0.015638 -0.002811
-0.073184 0.016383 -0.001145
-0.072904 0.018816 -0.002784
-0.074018 0.015048 -0.002756
-0.072697 0.017342 -0.001157
-0.075149 0.016308 -0.001099
-0.073761 0.017835 -0.002764
-0.070958 0.014827 -0.002827
-0.073615 0.018606 -0.002768
-0.073690 0.016334 -0.002764
-0.074598 0.016554 -0.002743
-0.072955 0.015454 -0.002781
-0.070709 0.013976 -0.001202
-0.072076 0.015660 -0.001171
-0.074152 0.016352 -0.001123
-0.072654 0.014645 -0.001377
-0.074749 0.017287 -0.002740
-0.074459 0.014661 -0.001114
-0.074847 0.015523 -0.001106
-0.073044 0.018788 -0.001150
-0.073255 0.014644 -0.002703
-0.073760 0.015504 -0.001131
-0.072758 0.016591 -0.002786
-0.072751 0.018102 -0.001157
-0.074661 0.014644 -0.002545
-0.074591 0.015467 -0.002743
-0.071282 0.016660 -0.002821
-0.072315 0.014955 -0.002796
-0.072458 0.016524 -0.001163
-0.070989 0.017425 -0.002828
-0.068073 0.016198 -0.001265
-0.067178 0.015992 -0.001286
-0.066246 0.015888 -0.002939
-0.066832 0.015257 -0.002924
-0.067055 0.017707 -0.002921
-0.066479 0.015333 -0.001302
-0.069113 0.015929 -0.002871
-0.070210 0.015259 -0.001215
-0.066526 0.016717 -0.001302
-0.067132 0.014276 -0.001286
-0.066067 0.016064 -0.001312
-0.068994 0.017412 -0.002875
-0.069928 0.014299 -0.001220
-0.068454 0.014858 -0.001255
-0.067753 0.016864 -0.001273
-0.070211 0.018207 -0.002847
-0.068217 0.014958 -0.002892
-0.066992 0.018477 -0.002923
-0.068923 0.014509 -0.002875
-0.068264 0.014111 -0.002890
-0.069448 0.015335 -0.001232
-0.068905 0.016961 -0.001246
-0.066886 0.016879 -0.002924
-0.068457 0.014059 -0.001255
-0.067432 0.017847 -0.001281
-0.067564 0.015890 -0.002908
-0.066109 0.017185 -0.002943
-0.070192 0.017498 -0.002847
-0.069657 0.018708 -0.002861
-0.069864 0.017861 -0.001224
-0.065995 0.018747 -0.001316
-0.065963 0.018756 -0.002947
-0.070594 0.016420 -0.002837
-0.066881 0.018867 -0.001295
-0.068501 0.017545 -0.001256
-0.068296 0.018304 -0.001261
-0.068992 0.015213 -0.002874
-0.068977 0.018274 -0.002876
-0.069223 0.018597 -0.001240
-0.070438 0.014231 -0.002839
-0.069929 0.016091 -0.002852
-0.068638 0.015593 -0.001251
-0.067884 0.016903 -0.002901
-0.069532 0.016173 -0.001231
-0.065769 0.016422 -0.002950
-0.066692 0.018101 -0.001299
-0.067465 0.014838 -0.002909
-0.067275 0.015058 -0.001283
-0.069891 0.016837 -0.001223
-0.070421 0.015991 -0.001210
-0.069181 0.014667 -0.001238
-0.070513 0.018276 -0.001209
-0.069840 0.014619 -0.002853
-0.066317 0.017498 -0.001307
-0.066521 0.014565 -0.002931
-0.066367 0.017973 -0.002937
-0.068246 0.015685 -0.002892
-0.069636 0.016993 -0.002860
-0.067843 0.018018 -0.002903
-0.065765 0.014442 -0.001318
-0.068636 0.016664 -0.002883
-0.065771 0.016761 -0.001320
-0.065970 0.015077 -0.002944
-0.067124 0.017180 -0.001288
-0.063100 0.014842 -0.003012
-0.062967 0.015020 -0.001384
-0.065531 0.017537 -0.001326
-0.063350 0.017993 -0.001377
-0.062902 0.016731 -0.001387
-0.064344 0.018002 -0.002985
-0.064192 0.014558 -0.002986
-0.061742 0.014670 -0.001413
-0.065227 0.017274 -0.002963
-0.061138 0.017737 -0.003059
-0.061250 0.017850 -0.001426
-0.063457 0.015973 -0.003004
-0.064562 0.014098 -0.001346
-0.062046 0.018784 -0.001408
-0.062275 0.014012 -0.003030
-0.061971 0.017937 -0.001409
-0.062137 0.015264 -0.001404
-0.065276 0.014272 -0.002960
-0.062098 0.014873 -0.003035
-0.063399 0.018118 -0.003007
-0.063624 0.016445 -0.001370
-0.061953 0.015617 -0.003039
-0.064469 0.017789 -0.001351
-0.061828 0.018321 -0.003044
-0.062320 0.017278 -0.003031
-0.063859 0.018647 -0.001366
-0.065042 0.014687 -0.001335
-0.062163 0.017231 -0.001404
-0.060856 0.016379 -0.003065
-0.064407 0.015306 -0.002981
-0.063669 0.014080 -0.001367
-0.061237 0.014760 -0.003055
-0.062671 0.015572 -0.003022
-0.061178 0.018662 -0.003059
-0.061288 0.013997 -0.003054
-0.061543 0.015983 -0.001418
-0.064510 0.016577 -0.002980
-0.061304 0.016784 -0.001424
-0.062677 0.018416 -0.003024
-0.062731 0.015705 -0.001390
-0.062816 0.016559 -0.003019
-0.063806 0.016684 -0.002996
-0.062629 0.018191 -0.001394
-0.063800 0.014788 -0.001364
-0.060940 0.015611 -0.003063
-0.060962 0.014472 -0.001431
-0.063804 0.017418 -0.001366
-0.065095 0.018068 -0.002967
-0.060827 0.015231 -0.001434
-0.065224 0.015032 -0.002962
-0.061810 0.013955 -0.001411
-0.062695 0.014356 -0.001390
-0.063384 0.017395 -0.003007
-0.065385 0.015762 -0.002959
-0.061810 0.016612 -0.003043
-0.064459 0.017288 -0.002981
-0.064534 0.016676 -0.001349
-0.063558 0.015690 -0.001371
-0.065122 0.018403 -0.001336
-0.064268 0.015858 -0.001354
-0.065291 0.015457 -0.001330
-0.065314 0.016186 -0.001330
-0.062887 0.017445 -0.001388
-0.064561 0.015203 -0.001347
-0.056922 0.013991 -0.001525
-0.060034 0.015766 -0.001453
-0.059554 0.014997 -0.003095
-0.057214 0.018782 -0.001521
-0.059607 0.013913 -0.001462
-0.055848 0.016888 -0.003183
-0.055824 0.015071 -0.003182
-0.056228 0.017544 -0.001544
-0.057905 0.015143 -0.001503
-0.056438 0.014873 -0.001537
-0.059424 0.014810 -0.001467
-0.056063 0.017775 -0.003179
-0.059090 0.016549 -0.003107
-0.056042 0.014151 -0.003177
-0.057068 0.017661 -0.001524
-0.055832 0.016009 -0.003183
-0.059291 0.015558 -0.001471
-0.059920 0.018206 -0.001458
-0.060189 0.015352 -0.003080
-0.058573 0.018025 -0.001489
-0.060615 0.017354 -0.001441
-0.059199 0.013975 -0.003102
-0.058734 0.014761 -0.003114
-0.058795 0.015580 -0.003113
-0.056522 0.014791 -0.003166
-0.058280 0.014046 -0.001493
-0.058339 0.017000 -0.001494
-0.058373 0.017338 -0.003124
-0.057818 0.018236 -0.001507
-0.058683 0.015003 -0.001485
-0.058177 0.018224 -0.003129
-0.057647 0.017237 -0.001510
-0.059810 0.017588 -0.003091
-0.057422 0.015827 -0.003145
-0.059449 0.017027 -0.001468
-0.056540 0.018321 -0.001537
-0.057317 0.016263 -0.001517
-0.060140 0.016398 -0.003082
-0.057503 0.018567 -0.003145
-0.057210 0.014144 -0.003149
-0.060287 0.016547 -0.001448
-0.060114 0.014654 -0.001451
-0.057840 0.014744 -0.003135
-0.057395 0.014550 -0.001514
-0.057033 0.016857 -0.003155
-0.056767 0.016936 -0.001531
-0.056669 0.018292 -0.003165
-0.056603 0.015901 -0.003165
-0.056076 0.015637 -0.001546
-0.056958 0.015510 -0.001525
-0.059108 0.017285 -0.003107
-0.058401 0.016201 -0.001492
-0.058864 0.018379 -0.003113
-0.060315 0.014577 -0.003077
-0.059613 0.015850 -0.003094
-0.058127 0.016320 -0.003129
-0.057078 0.017690 -0.003155
-0.060300 0.018281 -0.003080
-0.059596 0.018875 -0.003096
-0.060567 0.017230 -0.003073
-0.056437 0.016266 -0.001538
-0.059479 0.016319 -0.001467
-0.051543 0.017864 -0.001241
-0.054701 0.015362 -0.001578
-0.052693 0.014919 -0.001625
-0.053932 0.015443 -0.001596
-0.055203 0.016415 -0.001567
-0.051128 0.015579 -0.001014
-0.050711 0.016110 -0.000786
-0.050912 0.017619 -0.003042
-0.051389 0.016746 -0.001156
-0.053126 0.015885 -0.003246
-0.054781 0.015215 -0.003207
-0.054449 0.014463 -0.003214
-0.055266 0.017484 -0.003197
-0.050718 0.014681 -0.000789
-0.053786 0.017203 -0.003232
-0.052281 0.017408 -0.001636
-0.050903 0.017658 -0.000892
-0.050725 0.018645 -0.000795
-0.053943 0.018178 -0.001598
-0.054058 0.018019 -0.003226
-0.052210 0.015565 -0.001605
-0.052198 0.018397 -0.001600
-0.054370 0.017156 -0.001587
-0.052983 0.018129 -0.001620
-0.052096 0.014309 -0.001541
-0.055056 0.016001 -0.003201
-0.054045 0.016203 -0.001594
-0.053302 0.013999 -0.001610
-0.053126 0.015070 -0.003246
-0.051491 0.018055 -0.003286
-0.055127 0.017891 -0.001570
-0.051422 0.015355 -0.003286
-0.051765 0.014678 -0.003277
-0.052696 0.016279 -0.001626
-0.050717 0.014922 -0.002934
-0.051255 0.013944 -0.001082
-0.055235 0.014498 -0.003196
-0.053018 0.015608 -0.001618
-0.051301 0.016354 -0.003253
-0.053498 0.014872 -0.001606
-0.051781 0.016997 -0.003278
-0.052895 0.018733 -0.003253
-0.052221 0.017677 -0.003269
-0.055036 0.018372 -0.003203
-0.052269 0.015225 -0.003266
-0.053385 0.017136 -0.001610
-0.053565 0.014106 -0.003235
-0.053169 0.017985 -0.003246
-0.055654 0.014220 -0.001555
-0.054644 0.014075 -0.001579
-0.051025 0.018766 -0.003105
-0.051579 0.014780 -0.001260
-0.052902 0.017296 -0.003252
-0.055441 0.018682 -0.001563
-0.052331 0.015934 -0.003265
-0.054232 0.016140 -0.003220
-0.053982 0.015417 -0.003226
-0.051347 0.018807 -0.001135
-0.052233 0.013949 -0.003266
-0.053248 0.016657 -0.003244
-0.050967 0.014251 -0.003070
-0.051815 0.016234 -0.001389
-0.054469 0.017421 -0.003216
-0.055538 0.014959 -0.001558
-0.054758 0.016765 -0.003209
-0.055609 0.017045 -0.001558
-0.052872 0.014413 -0.003251
-0.052478 0.016686 -0.003262
-0.051945 0.018633 -0.003276
-0.050433 0.016985 -0.002780
-0.049850 0.015755 -0.002460
-0.049764 0.013970 -0.002413
-0.047525 0.015238 0.000956
-0.047673 0.016049 0.000874
-0.047420 0.016858 0.001012
-0.047811 0.017584 0.000798
-0.046482 0.014042 0.001526
-0.048413 0.017498 -0.001676
-0.050546 0.015861 -0.002841
-0.049543 0.016933 -0.002293
-0.050024 0.017596 -0.002557
-0.047367 0.015838 -0.001103
-0.047595 0.017792 -0.001230
-0.046447 0.015892 0.001545
-0.048772 0.014768 -0.001871
-0.047869 0.016610 -0.001378
-0.050025 0.018668 -0.002558
-0.049643 0.016227 -0.000202
-0.045747 0.014173 0.001928
-0.049141 0.017362 0.000071
-0.049941 0.015445 -0.000365
-0.048179 0.018435 -0.001549
-0.048503 0.018192 0.000419
-0.049177 0.015562 0.000053
-0.049421 0.014787 -0.002226
-0.046692 0.015779 -0.000735
-0.050473 0.017138 -0.000656
-0.049756 0.017039 -0.000265
-0.049027 0.015647 -0.002011
-0.045851 0.018413 -0.000276
-0.048449 0.015932 0.000451
-0.048060 0.014150 0.000664
-0.048068 0.018836 0.000657
-0.050250 0.013967 -0.000533
-0.046220 0.018447 0.001667
-0.049344 0.014676 -0.000038
-0.046645 0.016848 -0.000709
-0.047185 0.014438 -0.001003
-0.049618 0.018271 -0.000190
-0.048502 0.017191 0.000421
-0.046482 0.015050 -0.000620
-0.045701 0.014869 -0.000193
-0.046703 0.016953 0.001404
-0.048503 0.016279 -0.001725
-0.047457 0.018682 0.000990
-0.046036 0.014819 0.001769
-0.046065 0.016882 0.001752
-0.050096 0.014604 -0.002594
-0.045837 0.016113 0.001878
-0.047959 0.014491 -0.001426
-0.048265 0.015307 -0.001594
-0.047083 0.018223 -0.000950
-0.048926 0.016384 0.000189
-0.045771 0.015843 -0.000232
-0.049108 0.017592 -0.002056
-0.046327 0.017655 0.001609
-0.048062 0.016646 0.000661
-0.046891 0.014701 0.001303
-0.050240 0.018033 -0.000529
-0.045714 0.016978 -0.000201
-0.046976 0.016277 0.001255
-0.047166 0.017807 0.001150
-0.047445 0.015078 -0.001146
-0.046552 0.017558 -0.000659
-0.048636 0.014423 0.000349
-0.049282 0.018437 -0.002151
-0.045846 0.014118 -0.000271
-0.048233 0.015137 0.000569
-0.046493 0.018631 -0.000628
-0.049133 0.016401 -0.002069
-0.047389 0.017118 -0.001116
-0.043404 0.016543 0.003207
-0.041489 0.017812 0.002108
-0.043406 0.015577 0.001061
-0.042950 0.014998 0.003456
-0.043667 0.015338 0.003064
-0.043821 0.018276 0.002978
-0.045516 0.017954 0.002052
-0.043457 0.018644 0.001032
-0.043607 0.017134 0.000950
-0.042454 0.014542 0.001582
-0.040805 0.015952 0.004618
-0.042786 0.015710 0.003546
-0.044299 0.014204 0.000574
-0.040688 0.016632 0.002441
-0.042270 0.014807 0.003827
-0.045412 0.016710 0.002109
-0.043918 0.016482 0.000781
-0.044251 0.018162 0.000598
-0.041792 0.016810 0.001943
-0.040972 0.014822 0.002392
-0.040757 0.017378 0.004616
-0.044806 0.016993 0.002441
-0.045077 0.014542 0.002294
-0.042349 0.018039 0.001638
-0.041165 0.018171 0.004430
-0.043332 0.013904 0.003248
-0.042471 0.014126 0.003719
-0.042964 0.018113 0.001302
-0.042502 0.017878 0.003699
-0.041000 0.014851 0.004522
-0.041891 0.017022 0.004033
-0.042285 0.016311 0.003819
-0.044925 0.017368 0.000230
-0.044771 0.015468 0.000315
-0.042594 0.015292 0.001506
-0.043209 0.018582 0.003312
-0.043211 0.017280 0.003312
-0.041242 0.016766 0.004389
-0.044252 0.014571 0.002745
-0.045280 0.015392 0.002183
-0.041838 0.013912 0.004064
-0.045025 0.018705 0.002320
-0.043924 0.017490 0.002922
-0.044207 0.014956 0.000624
-0.041666 0.015377 0.002012
-0.041720 0.017772 0.004126
-0.041793 0.013995 0.001944
-0.042178 0.018804 0.003875
-0.042324 0.015994 0.001652
-0.045189 0.018553 0.000085
-0.044396 0.016220 0.002665
-0.043097 0.014487 0.001231
-0.044238 0.017372 0.000606
-0.043634 0.014128 0.000938
-0.042847 0.016900 0.001366
-0.044514 0.017974 0.002600
-0.041440 0.016206 0.002136
-0.044883 0.014700 0.000255
-0.041519 0.015841 0.004238
-0.044919 0.016361 0.000234
-0.041118 0.017197 0.002311
-0.042580 0.017055 0.003657
-0.044577 0.015505 0.002566
-0.042133 0.015590 0.003902
-0.043541 0.014570 0.003134
-0.045370 0.017861 -0.000014
-0.039740 0.016363 0.002419
-0.039694 0.014220 0.004594
-0.038518 0.014538 0.002391
-0.036374 0.018761 0.002338
-0.037335 0.018444 0.002361
-0.037754 0.013930 0.002374
-0.039736 0.014053 0.002420
-0.038143 0.018258 0.002380
-0.036344 0.018264 0.004512
-0.037555 0.016393 0.002368
-0.036304 0.015767 0.004513
-0.037080 0.017966 0.004530
-0.037768 0.018856 0.004545
-0.036325 0.017079 0.004513
-0.037066 0.014830 0.002357
-0.039210 0.017456 0.002406
-0.040617 0.017699 0.002439
-0.039213 0.017238 0.004580
-0.035921 0.018098 0.002328
-0.038895 0.018106 0.002398
-0.038274 0.013900 0.004560
-0.037209 0.015775 0.004534
-0.035989 0.014937 0.002332
-0.036587 0.014260 0.004521
-0.039398 0.015181 0.002412
-0.037829 0.016150 0.004549
-0.039643 0.016456 0.004591
-0.038405 0.015682 0.004562
-0.040339 0.018200 0.004606
-0.038308 0.016486 0.002385
-0.039997 0.015223 0.004600
-0.036699 0.016478 0.004522
-0.037914 0.014983 0.004551
-0.039933 0.017284 0.004597
-0.036368 0.016416 0.002340
-0.035770 0.015043 0.004501
-0.036788 0.015634 0.002350
-0.037841 0.014796 0.002375
-0.040361 0.014544 0.004609
-0.039473 0.015714 0.004587
-0.040475 0.015333 0.002437
-0.038459 0.017516 0.002388
-0.038779 0.016582 0.004571
-0.038780 0.014692 0.004572
-0.039222 0.018208 0.004580
-0.038040 0.017967 0.004552
-0.037546 0.017004 0.004541
-0.039988 0.018040 0.002424
-0.039578 0.018703 0.002414
-0.036266 0.014205 0.002339
-0.038521 0.017381 0.004564
-0.036153 0.017261 0.002334
-0.037520 0.014157 0.004543
-0.038484 0.015265 0.002390
-0.037721 0.015658 0.002372
-0.035807 0.017610 0.004500
-0.036846 0.016960 0.002351
-0.037540 0.017365 0.002367
-0.036879 0.017795 0.002351
-0.036693 0.014974 0.004523
-0.040274 0.014645 0.002433
-0.038855 0.015984 0.002398
-0.040449 0.016636 0.004610
-0.035914 0.016437 0.004504
-0.035737 0.014216 0.004501
-0.040076 0.017207 0.002426
-0.034224 0.015345 0.004465
-0.034211 0.018464 0.002288
-0.035062 0.017564 0.002308
-0.033115 0.014393 0.002265
-0.035489 0.016937 0.002319
-0.033069 0.016260 0.004437
-0.032100 0.017289 0.002239
-0.033259 0.017082 0.004441
-0.031319 0.018417 0.002220
-0.034229 0.016175 0.002290
-0.035403 0.018734 0.002316
-0.035296 0.016250 0.002315
-0.031150 0.016936 0.002217
-0.034861 0.014904 0.002305
-0.033357 0.015418 0.004444
-0.031371 0.016200 0.004397
-0.034197 0.017121 0.002289
-0.033268 0.014325 0.004443
-0.035261 0.018575 0.004487
-0.030740 0.015057 0.004383
-0.035074 0.014918 0.004485
-0.034356 0.018665 0.004465
-0.032567 0.015032 0.002252
-0.033261 0.017248 0.002266
-0.035371 0.015454 0.002317
-0.032422 0.016984 0.004421
-0.031850 0.014566 0.004409
-0.031274 0.015072 0.002221
-0.032262 0.014151 0.002245
-0.032602 0.015357 0.004427
-0.030836 0.018871 0.004383
-0.032549 0.018851 0.004423
-0.033387 0.018352 0.002269
-0.033935 0.016058 0.004457
-0.033756 0.013925 0.002280
-0.034299 0.014534 0.004467
-0.031427 0.017794 0.004397
-0.032672 0.016527 0.002253
-0.032990 0.015881 0.002261
-0.031204 0.017672 0.002218
-0.031605 0.015282 0.004403
-0.033578 0.018853 0.004447
-0.031893 0.016417 0.002235
-0.032721 0.017963 0.004428
-0.031300 0.016959 0.004395
-0.032152 0.016079 0.004415
-0.031181 0.014091 0.004394
-0.034180 0.017006 0.004463
-0.035415 0.016977 0.004491
-0.031365 0.014180 0.002224
-0.033996 0.017943 0.004457
-0.030800 0.015702 0.002210
-0.035091 0.015822 0.004485
-0.033597 0.014934 0.002276
-0.032691 0.018232 0.002252
-0.031749 0.018504 0.004405
-0.034713 0.017672 0.004475
-0.031673 0.015730 0.002230
-0.034975 0.014216 0.004483
-0.034682 0.013974 0.002302
-0.033505 0.016451 0.002273
-0.032089 0.018601 0.002238
-0.035558 0.014217 0.002322
-0.033855 0.017748 0.002280
-0.033804 0.015612 0.002280
-0.034682 0.016427 0.004475
-0.032531 0.014248 0.004426
-0.027104 0.018409 0.002121
-0.029983 0.017615 0.002189
-0.025978 0.016470 0.002096
-0.027542 0.017190 0.004307
-0.027852 0.015138 0.004315
-0.030347 0.015972 0.004373
-0.029186 0.014369 0.002173
-0.028927 0.014290 0.004341
-0.030459 0.015000 0.002202
-0.027890 0.015416 0.002142
-0.030561 0.014252 0.002205
-0.029597 0.017539 0.004355
-0.025869 0.014736 0.004269
-0.028562 0.018690 0.002155
-0.029699 0.014576 0.004359
-0.028637 0.016373 0.002159
-0.027589 0.016032 0.004309
-0.026943 0.014492 0.004294
-0.026008 0.013904 0.004273
-0.026482 0.018269 0.004281
-0.027473 0.016493 0.002131
-0.026309 0.016612 0.004278
-0.029505 0.015485 0.004354
-0.028914 0.016812 0.004339
-0.027122 0.015535 0.002124
-0.026383 0.015168 0.002107
-0.026870 0.015448 0.004292
-0.030403 0.018473 0.002199
-0.028571 0.015266 0.004332
-0.025716 0.017203 0.004264
-0.029037 0.016114 0.004343
-0.027988 0.014457 0.002145
-0.027471 0.017990 0.004304
-0.027918 0.017332 0.002141
-0.027341 0.018861 0.004301
-0.027242 0.014662 0.002127
-0.028728 0.017666 0.004334
-0.030391 0.016664 0.002200
-0.025960 0.015748 0.002096
-0.026074 0.018541 0.002097
-0.029829 0.016725 0.004361
-0.027050 0.017151 0.002121
-0.026014 0.015713 0.004272
-0.028864 0.017353 0.002163
-0.028045 0.018081 0.002144
-0.025997 0.014438 0.002098
-0.026648 0.014115 0.002113
-0.026776 0.016338 0.002115
-0.029339 0.016113 0.002175
-0.028730 0.015032 0.002162
-0.029523 0.018502 0.002178
-0.029842 0.018267 0.004360
-0.028165 0.018456 0.004320
-0.030600 0.017053 0.004378
-0.028190 0.013992 0.004324
-0.026709 0.017589 0.004287
-0.028201 0.016753 0.004322
-0.029457 0.015316 0.002178
-0.025802 0.017536 0.002091
-0.030346 0.017753 0.004372
-0.028958 0.018466 0.004339
-0.030093 0.015725 0.002193
-0.024236 0.013900 0.004231
-0.021825 0.014095 0.002000
-0.020764 0.015743 0.004149
-0.024488 0.017858 0.004235
-0.022559 0.016068 0.002016
-0.025312 0.015339 0.002081
-0.022787 0.018725 0.003596
-0.023240 0.016123 0.004207
-0.024233 0.018585 0.004228
-0.021756 0.016575 0.001997
-0.022192 0.017477 0.002007
-0.022061 0.014050 0.004180
-0.021037 0.014838 0.004156
-0.022624 0.016853 0.004192
-0.021514 0.017263 0.003167
-0.020859 0.016379 0.002164
-0.022162 0.014787 0.002008
-0.024671 0.015672 0.002066
-0.023565 0.014855 0.004215
-0.022548 0.018527 0.002807
-0.022613 0.016809 0.002017
-0.025127 0.015020 0.004252
-0.022840 0.018528 0.002021
-0.021608 0.015713 0.004169
-0.023340 0.016108 0.002035
-0.022559 0.015384 0.004191
-0.022800 0.014718 0.004197
-0.021941 0.017842 0.003884
-0.024720 0.016073 0.004241
-0.021051 0.016666 0.003336
-0.024031 0.014539 0.002052
-0.022001 0.017881 0.002670
-0.023694 0.017801 0.002042
-0.025030 0.017185 0.002074
-0.021007 0.016423 0.004154
-0.024164 0.016200 0.002054
-0.022689 0.018140 0.004192
-0.021930 0.017125 0.004175
-0.024991 0.014696 0.002074
-0.021018 0.015338 0.001981
-0.023606 0.016901 0.002040
-0.024155 0.016628 0.004228
-0.021721 0.015004 0.004172
-0.025002 0.017097 0.004247
-0.023412 0.017889 0.004209
-0.023408 0.016864 0.004210
-0.023887 0.015725 0.004222
-0.023281 0.013884 0.002035
-0.023917 0.017375 0.004222
-0.024987 0.016451 0.002073
-0.022315 0.016117 0.004185
-0.023471 0.015312 0.002038
-0.021526 0.017242 0.001993
-0.025070 0.018648 0.004248
-0.025134 0.018335 0.002075
-0.022565 0.014119 0.002018
-0.021946 0.015541 0.002002
-0.022887 0.017620 0.002023
-0.023490 0.018804 0.002036
-0.025526 0.017992 0.004259
-0.024314 0.018424 0.002056
-0.021306 0.014647 0.001988
-0.024400 0.015080 0.004234
-0.023177 0.014634 0.002032
-0.151760 0.022144 -0.000938
-0.154890 0.020606 0.000767
-0.151470 0.021021 0.000687
-0.152550 0.023197 -0.000920
-0.151110 0.021584 -0.000953
-0.153940 0.022439 -0.000887
-0.151420 0.019748 -0.000944
-0.150790 0.019605 0.000672
-0.152720 0.023261 0.000715
-0.152900 0.020329 -0.000910
-0.153250 0.021886 -0.000903
-0.152120 0.021408 0.000702
-0.154830 0.022582 -0.000866
-0.154110 0.023585 -0.000884
-0.153380 0.023707 -0.000901
-0.151360 0.022697 0.000683
-0.151450 0.022913 -0.000946
-0.155040 0.019447 -0.000859
-0.150940 0.022296 -0.000957
-0.152590 0.021384 -0.000918
-0.150870 0.020734 -0.000958
-0.153960 0.019094 -0.000884
-0.154220 0.020952 0.000751
-0.152460 0.022294 -0.000922
-0.155660 0.022745 -0.000256
-0.151060 0.018893 0.000679
-0.153560 0.020044 0.000736
-0.154600 0.021666 0.000760
-0.153510 0.020923 0.000735
-0.152430 0.022170 0.000709
-0.154050 0.023845 0.000745
-0.153770 0.020855 -0.000890
-0.155650 0.022008 0.000318
-0.151200 0.021909 0.000680
-0.151920 0.021176 -0.000933
-0.155500 0.022201 -0.000850
-0.152820 0.021227 0.000718
-0.155670 0.018887 -0.000793
-0.155560 0.019524 0.000784
-0.155660 0.023738 -0.000179
-0.155670 0.023363 -0.000797
-0.153150 0.019337 -0.000903
-0.151890 0.023521 -0.000936
-0.154960 0.023517 -0.000864
-0.155660 0.020290 -0.000265
-0.154490 0.022406 0.000757
-0.153480 0.021641 0.000734
-0.155040 0.020720 -0.000860
-0.151760 0.023389 0.000692
-0.152290 0.019777 0.000707
-0.152170 0.019413 -0.000926
-0.155640 0.023503 0.000712
-0.154050 0.019833 -0.000883
-0.155640 0.020880 0.000659
-0.152920 0.020476 0.000721
-0.153040 0.019536 0.000725
-0.150800 0.023548 0.000669
-0.154160 0.023144 0.000749
-0.155660 0.021138 -0.000071
-0.150690 0.019924 -0.000961
-0.151790 0.020342 0.000695
-0.154320 0.021542 -0.000877
-0.151910 0.020277 -0.000933
-0.154440 0.019696 0.000757
-0.153340 0.023798 0.000729
-0.155130 0.021487 -0.000858
-0.153580 0.022358 0.000735
-0.155640 0.020196 0.000491
-0.155340 0.021528 0.000777
-0.150860 0.018900 -0.000957
-0.155560 0.022560 0.000782
-0.153570 0.019067 0.000737
-0.151640 0.019472 0.000692
-0.154870 0.023588 0.000765
-0.153170 0.022769 -0.000905
-0.155660 0.019631 -0.000015
-0.150870 0.020359 0.000673
-0.150880 0.023388 -0.000959
-0.147550 0.022472 0.000594
-0.150450 0.021771 0.000662
-0.149370 0.023666 0.000636
-0.148740 0.019483 -0.001007
-0.148250 0.019230 0.000613
-0.145860 0.020854 -0.001075
-0.150030 0.022123 -0.000978
-0.145680 0.019652 -0.001079
-0.147230 0.022826 -0.001045
-0.148170 0.023209 -0.001023
-0.147170 0.019209 -0.001044
-0.146700 0.020727 -0.001056
-0.149320 0.021839 -0.000995
-0.147570 0.019847 0.000596
-0.145890 0.023162 0.000555
-0.148120 0.020507 -0.001022
-0.147180 0.022050 -0.001045
-0.146550 0.021608 -0.001060
-0.146830 0.019797 0.000579
-0.148650 0.020674 0.000621
-0.146740 0.020768 0.000576
-0.147710 0.019763 -0.001031
-0.147990 0.023615 0.000604
-0.146440 0.019156 -0.001061
-0.147000 0.023118 0.000581
-0.146110 0.023288 -0.001071
-0.148970 0.022981 0.000627
-0.149720 0.021154 0.000646
-0.148960 0.023375 -0.001004
-0.149380 0.022682 -0.000994
-0.148300 0.018908 -0.001017
-0.148810 0.021898 0.000624
-0.147620 0.020595 0.000597
-0.150120 0.020203 0.000656
-0.149070 0.019506 0.000632
-0.149630 0.021925 0.000643
-0.147730 0.021537 0.000599
-0.150180 0.023122 -0.000976
-0.147020 0.019995 -0.001048
-0.148470 0.021494 -0.001015
-0.150040 0.021048 -0.000977
-0.150020 0.019200 -0.000977
-0.146090 0.021296 0.000561
-0.149040 0.020266 -0.001000
-0.145850 0.022204 -0.001076
-0.146960 0.021864 0.000581
-0.146080 0.020209 0.000561
-0.147390 0.021208 -0.001040
-0.149840 0.020065 -0.000982
-0.146570 0.023847 0.000570
-0.146110 0.022253 0.000560
-0.150400 0.020974 0.000662
-0.146090 0.019089 0.000562
-0.150550 0.022564 0.000664
-0.146260 0.020126 -0.001065
-0.148650 0.022203 -0.001011
-0.146500 0.022601 -0.001062
-0.147890 0.022032 -0.001029
-0.146810 0.018986 0.000579
-0.149950 0.023267 0.000650
-0.150060 0.019362 0.000655
-0.146830 0.023677 -0.001054
-0.148220 0.022698 0.000610
-0.147540 0.023565 -0.001038
-0.144420 0.019598 -0.001108
-0.144590 0.022619 0.000525
-0.141720 0.019075 -0.001171
-0.142750 0.021045 0.000482
-0.141120 0.021912 -0.001187
-0.143390 0.018908 -0.001132
-0.145380 0.022422 0.000543
-0.145160 0.021178 -0.001092
-0.141300 0.019210 0.000450
-0.143430 0.021098 -0.001132
-0.141070 0.021695 0.000443
-0.140780 0.022762 -0.001196
-0.143510 0.022209 -0.001131
-0.141860 0.021562 0.000461
-0.144430 0.019773 0.000523
-0.144270 0.023342 0.000517
-0.144390 0.021489 -0.001110
-0.141550 0.023045 0.000453
-0.143150 0.023705 -0.001141
-0.144240 0.020314 -0.001113
-0.143510 0.023854 0.000498
-0.141410 0.019938 0.000452
-0.143510 0.020358 0.000501
-0.142180 0.020321 0.000470
-0.143410 0.022566 0.000497
-0.143390 0.019994 -0.001133
-0.142720 0.019623 0.000483
-0.141160 0.020719 -0.001185
-0.142170 0.022438 -0.001163
-0.145130 0.020836 0.000538
-0.145100 0.023355 0.000536
-0.141410 0.022354 0.000450
-0.145310 0.023602 -0.001090
-0.142060 0.023781 0.000464
-0.144880 0.022352 -0.001099
-0.142150 0.022410 0.000467
-0.143960 0.022061 0.000510
-0.141770 0.023643 -0.001173
-0.145420 0.018952 -0.001084
-0.142370 0.023144 -0.001159
-0.141390 0.020686 0.000451
-0.142450 0.023180 0.000474
-0.145330 0.019418 0.000544
-0.141270 0.019947 -0.001182
-0.143210 0.022984 -0.001139
-0.145450 0.022822 -0.001086
-0.142060 0.021720 -0.001165
-0.141500 0.022804 -0.001179
-0.142760 0.021668 -0.001149
-0.142070 0.020148 -0.001164
-0.142470 0.019472 -0.001154
-0.143940 0.023635 -0.001122
-0.144290 0.018902 0.000520
-0.143430 0.019131 0.000500
-0.145080 0.021614 0.000537
-0.144120 0.021170 0.000514
-0.145070 0.020078 0.000537
-0.144140 0.022925 -0.001117
-0.140820 0.022752 0.000436
-0.144390 0.020499 0.000521
-0.142190 0.020893 -0.001161
-0.143310 0.021622 0.000495
-0.142860 0.020598 -0.001145
-0.141990 0.019510 0.000466
-0.145360 0.020318 -0.001087
-0.138950 0.022326 -0.001238
-0.137280 0.022408 -0.001277
-0.136350 0.021520 -0.001299
-0.135990 0.019369 0.000325
-0.139210 0.022852 0.000398
-0.139080 0.023731 -0.001236
-0.140070 0.020249 -0.001211
-0.139100 0.021511 -0.001234
-0.136530 0.020557 -0.001294
-0.137010 0.021006 0.000348
-0.139730 0.022331 0.000411
-0.140100 0.021538 -0.001211
-0.138560 0.020570 -0.001246
-0.138210 0.022835 -0.001256
-0.138750 0.019501 -0.001241
-0.136140 0.022424 -0.001304
-0.140580 0.023602 0.000430
-0.139350 0.022913 -0.001229
-0.138290 0.023752 -0.001255
-0.139400 0.021089 0.000404
-0.139270 0.023631 0.000399
-0.138390 0.020591 0.000381
-0.140030 0.021577 0.000418
-0.138130 0.022048 -0.001257
-0.139240 0.020288 -0.001230
-0.136410 0.022211 0.000333
-0.138270 0.021294 -0.001253
-0.137110 0.019082 0.000352
-0.138650 0.022166 0.000386
-0.139890 0.022338 -0.001216
-0.137600 0.023280 -0.001271
-0.137330 0.021982 0.000355
-0.137930 0.019201 0.000371
-0.140620 0.019534 -0.001197
-0.137660 0.019172 -0.001266
-0.139580 0.020981 -0.001223
-0.137620 0.020701 -0.001268
-0.140070 0.022982 0.000418
-0.137100 0.021497 -0.001281
-0.140410 0.023390 -0.001205
-0.138460 0.023465 0.000380
-0.139060 0.019416 0.000397
-0.135740 0.019542 -0.001312
-0.137830 0.019900 -0.001263
-0.137410 0.023183 0.000356
-0.138740 0.021457 0.000388
-0.135820 0.021291 0.000320
-0.139220 0.020124 0.000400
-0.140490 0.020545 0.000430
-0.136760 0.019619 -0.001288
-0.138130 0.022783 0.000373
-0.140210 0.019876 0.000424
-0.135830 0.020207 0.000321
-0.136180 0.023575 0.000327
-0.139780 0.019307 0.000414
-0.136660 0.019903 0.000340
-0.136660 0.023182 -0.001292
-0.137790 0.020021 0.000367
-0.135740 0.022977 0.000317
-0.138010 0.021336 0.000371
-0.136080 0.023845 -0.001307
-0.139630 0.019628 -0.001220
-0.136790 0.022800 0.000342
-0.130800 0.020993 -0.001428
-0.131310 0.019491 -0.001415
-0.134410 0.020125 -0.001343
-0.133840 0.020884 -0.001357
-0.133530 0.021759 -0.001365
-0.132020 0.019821 -0.001399
-0.132630 0.021904 0.000245
-0.132890 0.020695 0.000252
-0.132430 0.023125 -0.001392
-0.133170 0.023113 -0.001374
-0.133150 0.022439 0.000257
-0.131800 0.019097 0.000227
-0.131730 0.020566 -0.001406
-0.134340 0.023250 -0.001347
-0.133700 0.019062 0.000272
-0.133000 0.019363 0.000255
-0.132030 0.023115 0.000230
-0.131940 0.022112 0.000228
-0.132410 0.022121 -0.001391
-0.130850 0.019052 0.000205
-0.135470 0.022224 0.000311
-0.132930 0.023651 0.000251
-0.135290 0.021694 -0.001324
-0.135640 0.020856 -0.001315
-0.131740 0.021022 0.000224
-0.131170 0.023407 -0.001421
-0.133330 0.020394 -0.001369
-0.131140 0.020053 0.000211
-0.131080 0.021868 0.000208
-0.133860 0.023731 0.000272
-0.131360 0.021795 -0.001416
-0.130840 0.022561 0.000202
-0.131890 0.022626 -0.001404
-0.133780 0.022920 0.000271
-0.135090 0.021576 0.000303
-0.135490 0.023338 -0.001320
-0.132500 0.020400 -0.001388
-0.134550 0.022301 -0.001341
-0.134060 0.022127 0.000278
-0.131000 0.023560 0.000205
-0.135170 0.020308 -0.001325
-0.133100 0.019649 -0.001374
-0.135400 0.023800 0.000308
-0.133360 0.021641 0.000262
-0.131900 0.020056 0.000229
-0.134720 0.022681 0.000293
-0.135460 0.022603 -0.001320
-0.130820 0.020869 0.000203
-0.135280 0.020799 0.000308
-0.134820 0.021141 -0.001334
-0.134990 0.019406 -0.001329
-0.134210 0.020898 0.000282
-0.133930 0.019388 -0.001354
-0.133840 0.019942 0.000274
-0.134230 0.021586 -0.001348
-0.134610 0.023816 0.000290
-0.134500 0.019350 0.000290
-0.134570 0.020116 0.000291
-0.132690 0.021358 -0.001384
-0.135240 0.019690 0.000307
-0.131910 0.021305 -0.001403
-0.131940 0.023838 0.000227
-0.127220 0.023873 -0.001514
-0.129510 0.019511 0.000173
-0.130580 0.022632 -0.001435
-0.129820 0.020093 -0.001451
-0.129500 0.023482 -0.001460
-0.129680 0.021115 -0.001455
-0.127840 0.021877 -0.001498
-0.127800 0.019312 0.000133
-0.126480 0.023611 -0.001531
-0.128320 0.019232 -0.001485
-0.126340 0.023341 0.000096
-0.127100 0.021477 -0.001515
-0.128200 0.020261 -0.001489
-0.125820 0.019641 0.000086
-0.128360 0.021031 0.000145
-0.128510 0.022963 0.000147
-0.127330 0.022520 -0.001511
-0.126870 0.021250 0.000110
-0.130110 0.023861 0.000184
-0.130220 0.023337 -0.001444
-0.127500 0.022643 0.000124
-0.128700 0.019035 0.000154
-0.126550 0.022101 -0.001529
-0.127110 0.022023 0.000115
-0.127600 0.019543 -0.001502
-0.129490 0.023067 0.000170
-0.130350 0.023069 0.000190
-0.130370 0.021904 -0.001439
-0.129460 0.021867 -0.001460
-0.126620 0.018887 -0.001525
-0.128600 0.022134 0.000150
-0.125770 0.020872 -0.001546
-0.129680 0.021373 0.000176
-0.127160 0.020132 0.000118
-0.126220 0.020930 0.000095
-0.127890 0.023597 0.000132
-0.128590 0.021353 -0.001480
-0.129480 0.022287 0.000171
-0.128600 0.022163 -0.001481
-0.127920 0.023152 -0.001497
-0.125700 0.021821 -0.001549
-0.128710 0.022901 -0.001479
-0.129040 0.020353 -0.001469
-0.126490 0.019884 0.000102
-0.129150 0.019287 -0.001466
-0.126600 0.020497 -0.001526
-0.130610 0.019319 -0.001432
-0.130210 0.022052 0.000188
-0.127100 0.019370 0.000117
-0.128500 0.020146 0.000149
-0.126320 0.022100 0.000096
-0.126420 0.022813 -0.001532
-0.125960 0.019930 -0.001541
-0.127610 0.020883 -0.001503
-0.127830 0.021763 0.000132
-0.129620 0.022745 -0.001457
-0.126760 0.019691 -0.001522
-0.130030 0.020305 0.000185
-0.127150 0.023715 0.000115
-0.129190 0.020789 0.000165
-0.127490 0.020911 0.000125
-0.130640 0.020110 -0.001432
-0.125760 0.022640 0.000083
-0.126390 0.021238 -0.001532
-0.127330 0.020230 -0.001509
-0.130540 0.019687 0.000197
-0.121940 0.021891 -0.001637
-0.124110 0.023024 0.000044
-0.124530 0.023002 -0.001577
-0.124750 0.022739 0.000059
-0.120720 0.022089 -0.001666
-0.125490 0.020270 0.000078
-0.125300 0.019360 -0.001556
-0.123160 0.022201 -0.001608
-0.124960 0.021576 -0.001566
-0.120970 0.019755 -0.001658
-0.121030 0.020836 -0.001657
-0.124450 0.021449 0.000053
-0.123120 0.020672 0.000022
-0.123750 0.021167 -0.001594
-0.123250 0.020275 -0.001605
-0.123420 0.019069 -0.001600
-0.122960 0.022913 0.000017
-0.121920 0.023848 -0.001639
-0.123780 0.020063 0.000038
-0.124880 0.020853 0.000063
-0.121230 0.021778 -0.000023
-0.125160 0.020104 -0.001560
-0.122960 0.023684 -0.001614
-0.125600 0.021719 0.000080
-0.122570 0.020760 -0.001621
-0.122950 0.021354 -0.001613
-0.122950 0.018902 0.000020
-0.123210 0.022212 0.000023
-0.123710 0.023759 -0.001596
-0.121120 0.019375 -0.000024
-0.124380 0.019520 -0.001578
-0.121860 0.020795 -0.001638
-0.122430 0.019595 0.000007
-0.123060 0.021505 0.000020
-0.121780 0.022586 -0.001641
-0.121380 0.023275 -0.001651
-0.123980 0.020838 0.000042
-0.122380 0.019981 -0.001625
-0.124540 0.020930 -0.001575
-0.121710 0.022615 -0.000012
-0.123450 0.023601 0.000028
-0.120710 0.020198 -0.000034
-0.125610 0.023421 0.000079
-0.124110 0.022221 0.000045
-0.122490 0.023021 -0.001625
-0.122390 0.022314 0.000004
-0.122030 0.023385 -0.000005
-0.125260 0.023185 -0.001560
-0.122360 0.019240 -0.001625
-0.121580 0.019335 -0.001643
-0.122370 0.020613 0.000005
-0.123620 0.019374 0.000035
-0.124500 0.023717 -0.001578
-0.121790 0.019950 -0.000008
-0.124540 0.019753 0.000056
-0.122070 0.021539 -0.000003
-0.121360 0.020844 -0.000019
