ply
format ascii 1.0
element vertex 1710
property float x
property float y
property float z
end_header
2.151193 1.393839 0.654864
0.396146 -2.526374 0.505221
3.711470 2.354796 3.040565
3.558120 0.950760 1.765565
0.867534 0.025237 0.251590
1.608513 -2.441467 0.495919
-2.629183 0.090324 0.770138
-0.472216 -1.395968 0.258936
-0.143585 -3.516490 0.824171
3.657389 0.640713 2.980128
1.907475 3.414637 1.478767
0.589884 4.219792 1.935208
1.751432 -3.866052 2.100461
3.100153 2.626727 2.445278
1.100915 -4.576386 3.149606
-3.407151 1.178944 2.160072
4.018764 0.562716 2.872439
0.026543 4.607080 3.149606
-0.598167 3.811630 1.650703
-1.977680 1.189142 0.240030
-0.910290 1.167876 0.011108
2.819766 -2.308636 1.868104
-0.504953 -4.340755 3.149606
3.660811 -1.095619 2.179321
-0.049346 -4.374163 2.171805
-2.395481 1.194371 0.760153
0.861587 -1.823159 0.336468
4.154340 -0.856121 2.879788
1.113150 2.070351 0.448194
0.047254 -2.155626 0.097084
2.003422 -0.641959 0.438645
1.990852 -3.523889 2.570598
2.408070 0.578196 0.642369
-0.774364 -2.715456 0.652739
1.200360 -3.549055 1.153367
-3.631740 0.722395 2.898839
3.793466 -1.219351 3.149606
-1.253084 2.890188 0.588623
1.046516 3.416258 0.926220
1.069742 4.081357 2.816883
3.609906 0.135059 1.713119
3.768471 0.575801 3.149606
-0.172892 -0.326750 0.251590
2.133331 -2.860710 1.081673
2.714008 -2.291404 1.686917
0.252995 4.439432 2.352617
-3.308888 -1.569519 2.257380
-1.079510 -4.028244 1.753376
0.645923 -3.737419 1.538136
1.831625 2.275710 0.523726
1.864651 -3.684136 3.149606
-1.455254 0.264158 0.019767
-1.728933 -4.451586 2.913554
-1.681664 -4.145790 3.149606
1.461766 3.735079 2.169012
3.369469 -2.122667 2.423357
2.475749 -3.864797 2.872439
1.263878 -4.412798 2.872439
-2.947370 2.138875 1.415370
-3.838323 -0.274697 2.469032
-0.078441 3.479554 0.807382
3.305612 -0.615471 1.234321
0.595937 -3.675982 1.045049
-1.498792 -2.544185 0.490726
3.727380 0.010537 2.003959
0.882398 -1.183097 0.262459
1.729881 3.978287 2.504608
1.263258 3.731836 1.401743
1.385807 2.099133 0.266791
-1.511892 -1.067785 0.332090
1.946031 -3.028916 1.102745
1.633818 4.065633 2.698490
-1.165879 -4.068721 2.880965
3.174541 1.006278 1.564109
-3.305925 0.085213 1.580951
3.689106 -1.521621 2.795223
-0.539314 2.945424 0.747306
2.716147 1.916457 1.397644
-3.703447 0.202602 2.965747
0.919765 -0.242500 0.251590
0.222718 -1.313512 0.251590
3.751224 -1.424341 3.149606
-2.044264 3.491948 2.621389
3.319961 -3.020675 3.041227
-3.363695 1.059309 1.446375
2.423311 -2.863467 1.405139
1.632908 2.114732 0.359689
-2.204760 3.390235 2.741974
-3.476310 -1.721706 2.154534
-2.364935 0.955221 0.674128
-0.264699 2.728168 0.316929
3.523664 -1.405022 1.938166
2.242396 -1.437498 0.728695
-2.495991 -0.727794 0.732217
0.297510 -4.245720 2.946037
-0.701761 4.133842 1.720834
-1.970346 -4.136765 3.149606
-1.746718 2.853799 0.820210
0.290156 3.284209 0.974806
-3.936556 -1.767643 3.133713
-1.055789 -0.585909 0.251590
3.257066 -0.156694 1.081355
-1.178852 2.094376 0.481229
2.732312 -2.611267 2.166268
-1.209134 -0.751001 0.264302
-2.648596 3.286185 2.618023
0.731714 3.014100 0.841761
0.292013 4.285432 1.926501
-1.950991 0.732503 0.425346
-1.187408 -4.697351 3.083300
1.247784 -3.387429 1.001832
4.026767 -0.448611 2.872439
0.347362 2.568240 0.249718
-0.865711 -1.891069 0.093496
0.965062 3.727640 1.697817
-2.013437 -1.156780 0.241078
-1.276967 -2.062967 0.492851
-2.235746 -1.962186 0.612514
-2.463279 -2.628041 1.661787
2.444942 3.186560 3.148965
-0.517103 -3.071580 0.537560
3.097003 -2.052359 2.233705
2.370517 3.262362 2.969946
-3.113738 1.587550 1.317996
2.894597 0.675225 1.068345
-3.013924 2.757025 2.438775
-2.884611 -3.561015 2.890220
-2.684247 2.034047 1.408186
2.935541 3.509143 2.954141
-0.743445 -2.924284 0.776032
-0.424056 -0.196127 0.000000
4.121960 1.066729 2.872439
0.362444 -4.455563 2.643836
-1.509894 3.811792 2.416425
-0.274214 -2.249997 0.397548
-3.440860 1.577778 3.149606
-1.363323 -3.683918 1.937696
-1.967747 0.263269 0.137635
1.259468 -3.243520 1.227031
2.289818 -2.653533 1.073983
1.504490 3.763633 1.663959
-0.713531 4.218390 1.912730
-3.558059 -0.656960 1.665915
1.705034 4.235717 2.872439
-2.993664 2.057575 1.970112
-2.854090 -0.004626 0.980123
-1.321683 -3.946135 2.607180
-1.161255 3.633840 1.241557
-3.480928 0.137255 1.422225
3.553176 0.244785 2.216677
3.227175 0.538713 1.091065
2.409336 3.573177 2.872439
3.197251 -0.160798 1.401020
2.870381 -1.740336 1.079559
-0.417259 4.430675 3.149606
-1.376559 2.176591 0.571549
1.130071 1.812924 0.383258
0.336206 -3.829019 1.647691
-1.039888 -3.204953 1.088347
0.869087 -0.173745 0.000000
-3.560774 1.137730 3.088937
-2.412778 1.413722 0.845469
3.422612 1.236003 2.322496
3.126939 2.498887 2.283603
0.461154 2.089017 0.096553
2.878324 -1.147089 1.176397
-0.556755 -4.432128 2.635928
-1.775162 -3.744829 1.923561
-0.780163 -4.792153 3.143132
0.330216 0.969654 0.251590
0.321868 3.951202 1.824711
-3.530223 -1.985996 3.149606
2.773310 -2.090847 1.568153
1.749628 3.281677 1.196511
1.744048 3.417609 1.843131
-2.185114 -2.590402 0.942120
-2.837705 2.406066 1.500993
-2.342192 3.249406 2.545016
2.703115 -3.261136 2.824053
1.256778 -1.784872 0.140550
1.212322 4.059734 3.149606
1.576388 1.108207 0.353503
1.937528 3.515054 1.663538
-2.053438 0.539369 0.450930
-2.195458 -3.600296 2.232301
0.046107 4.194994 2.466456
0.265820 -4.409389 3.149606
-0.302550 -3.725539 1.459237
2.305159 -3.282214 1.783800
-0.186973 -1.352370 0.251590
1.702297 4.452664 2.872439
2.418419 -0.471193 0.359110
0.014433 3.883363 1.698019
3.492186 1.237565 2.647989
-4.058526 0.660769 2.872439
-0.850676 3.562245 1.417092
-3.436833 -1.295383 2.446581
0.148957 -4.361329 2.177659
-3.726039 -1.469000 3.149606
-2.609731 -0.116639 0.764275
-2.752152 2.740841 1.760419
2.454495 -2.568150 1.180127
-0.883891 2.751967 0.415905
2.012543 -2.513699 1.090261
1.193632 -0.208597 0.252758
1.714867 -3.672460 2.366808
3.096367 0.692145 0.944141
1.361312 4.240460 3.149606
0.077161 -0.650953 0.000000
1.259791 0.899530 0.020361
4.124456 -1.027589 3.024789
-2.889139 1.404824 0.944616
0.677373 -1.160373 0.253142
-0.056783 -0.804649 0.251590
-1.278007 3.826365 1.582220
2.730380 -1.453930 0.803038
1.112966 2.576480 0.381997
-2.286837 -1.076163 0.658675
2.376456 1.388864 0.788581
0.227964 -2.047624 0.078715
-0.875578 2.315814 0.490150
0.879891 4.098170 2.636799
-0.250835 -3.220175 0.916610
0.799697 4.152347 2.870327
-2.755491 1.257667 1.095216
1.007950 4.109841 3.020467
-1.763713 -2.038379 0.676614
2.925702 -3.531173 3.149606
-1.983117 3.059010 1.595834
0.432688 2.982462 0.767372
-2.382149 2.209675 1.214565
-1.340872 3.186581 0.839516
-2.486715 3.042663 2.411022
-3.086339 -2.160112 1.702695
-3.611021 0.656870 2.654554
-3.642748 -0.228126 1.802607
1.061731 3.843857 1.961957
0.144421 -0.392931 0.251590
-1.507980 -3.869255 1.861695
-1.123026 2.569115 0.664810
-2.834989 2.758090 1.960142
-0.032328 3.451544 1.131918
3.405488 2.508048 2.872439
0.644926 2.603056 0.574151
-2.460309 -3.993165 2.933554
0.382610 -4.344779 2.179439
-0.307660 2.963845 0.741094
1.024704 -1.981742 0.409625
-2.377019 -2.115451 0.791628
-2.941221 -2.165983 2.008701
-2.665936 -1.916333 0.956324
3.772156 0.281675 2.196331
2.656526 -3.813930 3.079715
-0.481526 -4.861673 3.023281
2.892033 -2.374840 1.547385
2.805590 -1.835461 1.458169
3.610986 -0.931682 3.149606
2.460106 2.594858 1.613891
3.601175 0.630946 2.503069
-2.850095 1.401423 1.263598
-1.139111 -4.012940 2.504477
2.645407 -2.775772 2.271380
-3.645828 -0.832476 3.014586
2.717871 2.337940 1.292425
-0.638851 -3.269935 0.704361
-1.788974 -1.235426 0.441586
-1.708636 3.933182 2.196391
-3.245877 2.556133 3.149606
-1.105080 -4.582891 2.872439
-3.453555 -1.123697 2.315483
3.671762 1.545049 2.872439
0.342250 1.171279 0.000000
2.049224 3.297426 2.032205
1.127697 4.684934 3.149606
4.116011 1.151777 3.088132
2.072444 3.472524 2.486403
3.275758 1.331783 1.967947
-1.143853 1.525957 0.323876
-3.455049 1.534229 2.953183
-3.942846 0.997726 3.149606
-3.573284 0.851370 2.625366
-1.549861 3.106993 0.906689
-1.966361 -1.089446 0.482635
2.257360 -1.947319 0.941591
-1.804819 -3.007493 0.965352
0.161304 -0.948677 0.000000
2.911058 2.132309 1.894306
1.138644 -2.675864 0.726495
2.265069 0.884806 0.605709
-1.031525 -4.071766 2.695291
-1.116747 2.844666 0.830470
-1.004709 2.335324 0.245416
-0.630133 -3.926105 1.402705
-0.871226 4.228501 2.072928
2.907235 3.521371 3.149606
-2.589130 1.175104 0.583900
-4.030765 1.565185 2.955209
0.057918 -1.592499 0.013101
-2.853896 -2.962246 3.149606
2.244959 2.944952 1.312094
2.475653 3.975523 3.149606
-1.838549 -2.194907 0.785533
1.662719 0.304321 0.311531
-0.537074 -3.876536 1.782487
-0.561102 4.226490 3.132000
0.136038 -2.728710 0.590001
-2.241325 2.889457 1.217042
3.223384 -3.115492 2.872439
0.609564 0.710442 0.251590
3.192934 1.915135 2.286989
-0.337002 -3.888930 1.723741
-1.292328 4.113956 2.220724
-0.008957 4.279323 1.935560
2.469299 -1.904465 1.086031
-2.288427 -3.590922 2.462329
-1.154052 -1.619966 0.085688
3.247569 1.686451 2.165478
3.554309 -1.174824 2.940925
-0.564558 0.985759 0.251590
2.730363 1.837913 0.975677
-2.217770 3.272803 1.664311
1.641739 3.743681 2.515351
3.638422 1.680691 3.149606
-2.247727 0.603558 0.558784
-3.593720 -0.568088 2.457937
1.061274 1.063078 0.014120
2.574852 0.217800 0.743155
2.025201 0.720511 0.191035
-3.475671 -1.416432 3.091026
-3.976646 1.707203 3.116810
-2.904971 3.564923 2.973772
-1.293997 -3.594657 1.715889
1.475733 3.332485 1.077531
-1.101644 -2.501321 0.346834
0.568523 1.245406 0.001562
-2.863857 3.041363 2.784303
-3.772940 2.181721 2.917502
0.545867 -3.841549 1.243592
-2.975524 -2.343691 2.387525
3.602753 -2.578158 2.884046
-3.464181 -1.883801 2.292714
-3.239328 2.036735 3.015175
3.745765 -0.267670 2.012790
-2.488247 0.074660 0.374064
2.599280 -2.288274 1.520078
2.632462 -1.865531 1.243782
0.165150 3.633277 0.943052
-2.099070 -0.901919 0.522249
1.594457 3.955733 2.174321
-3.410875 -1.638804 3.102402
3.847081 0.499077 2.615143
0.784592 3.901420 1.945604
2.713655 3.157200 2.460636
0.251435 1.388674 0.254320
-3.891431 0.202356 2.661880
-1.351335 -3.979456 3.090505
3.471799 -0.532805 1.478842
-0.293772 -3.968414 1.355507
-1.522810 3.850512 1.790067
-2.645221 1.380586 0.705082
3.153661 -1.434480 1.747081
-3.167678 2.438461 2.176960
2.067013 0.945081 0.235204
-0.643651 0.530127 0.251590
-3.222834 1.614721 1.506212
-3.813270 0.205523 2.256462
-0.826998 4.172092 3.132386
-2.450741 -0.990932 0.753687
0.144600 1.902493 0.304195
2.371815 -0.920017 0.375706
-0.063904 -4.890209 3.142590
3.908751 -1.865357 3.134124
1.111223 -0.393414 0.251590
-1.786814 0.867559 0.387052
3.162545 1.942454 1.620053
-3.088622 0.468044 1.286060
3.562574 -1.650111 2.387044
0.803079 4.346272 2.466812
3.271186 -1.323519 1.876701
-0.712863 4.369860 3.149606
-1.675683 -3.781605 2.838315
-0.141655 -4.316504 1.998289
1.155811 4.030536 1.799914
-2.079904 -1.867980 0.479458
1.494678 -2.301663 0.674190
3.229105 0.025936 1.465904
-2.553689 -3.075801 2.969796
-0.759513 -3.897557 1.922782
-2.887080 2.456891 2.266789
2.347073 2.120033 1.116939
-1.029605 -3.511298 1.400238
-1.535356 -3.750492 2.340891
2.550044 1.430493 0.945472
0.207327 4.691806 3.149606
0.799029 -3.627897 1.474837
-2.364995 2.987152 1.455952
0.115342 0.782671 0.251590
1.952316 2.583682 1.114407
2.909376 2.548919 2.589824
-2.098549 -2.340727 0.711118
1.929945 1.364825 0.257203
-2.511473 0.534960 0.426515
-1.348805 -2.303017 0.324558
-2.439057 2.798494 1.856727
0.638417 4.076354 1.659586
1.652348 -3.775622 2.531821
4.009262 -1.631225 3.073881
1.623764 -0.062179 0.298733
-0.939191 -2.992469 0.558757
-0.150377 -2.085644 0.082242
0.683407 3.897549 1.381523
-2.679094 1.658701 1.198371
-1.884565 -2.493606 0.671524
0.026268 0.678105 0.000000
-2.662896 -2.632864 1.446961
2.328061 -2.402280 1.306321
-1.287398 -4.248618 2.604384
-1.694304 3.729902 1.744563
3.318729 2.282804 2.542353
1.743992 1.436698 0.199284
-1.820361 -3.953389 3.149606
2.168338 2.355197 0.763179
3.881217 0.032221 2.681983
-1.581159 2.711739 0.961971
-0.040587 -1.149689 0.251590
0.883020 2.316960 0.495456
-0.129610 4.338783 2.099038
-1.505658 -3.848577 2.654878
3.556018 1.996740 3.149606
-0.458945 0.387301 0.000000
-1.211590 -1.857044 0.413808
-3.383980 -1.144980 2.109321
-3.274342 0.764716 1.673778
-0.771269 -3.146407 0.954288
0.405901 1.423841 0.006576
-2.869635 -1.582824 1.361625
1.324108 -0.394222 0.264210
3.461126 -0.993618 1.617163
2.643148 2.121022 1.455134
0.474849 4.863227 3.084858
-2.300188 -4.116000 2.872439
-0.905058 -1.381650 0.021457
3.106655 -2.622299 2.407619
-0.695721 -4.155975 2.734999
-0.206634 1.398023 0.253797
2.010120 -0.383999 0.160645
3.096599 -0.488935 1.303667
2.896465 2.754491 2.034368
-1.421018 -1.820492 0.192157
2.837111 1.070691 0.783727
0.346511 -2.955192 0.737472
3.793962 -1.651241 3.149606
-1.222343 -0.729541 0.012282
1.226782 3.567508 1.612719
1.400370 -3.948927 3.070756
-3.176366 1.067549 1.157847
0.424040 4.411252 3.149606
3.335732 1.893702 2.951450
3.724385 0.553085 2.077685
-0.983566 4.762091 2.897263
-2.120187 3.416999 1.769187
-2.181751 -0.431563 0.502215
-1.884123 -1.818534 0.353127
-0.639602 -1.172127 0.251826
0.906802 -4.664479 3.149606
1.563917 -0.510014 0.299409
-1.045022 -2.520178 0.625088
-0.544031 -3.686139 1.071734
0.810208 -1.615119 0.297685
1.315327 -1.975820 0.475937
0.685545 -4.228229 1.931404
-0.299820 0.802786 0.251590
-3.362568 1.690886 2.734382
-2.160325 -2.975221 1.712588
-1.864640 -2.129529 0.471053
-3.662919 -2.439216 2.896699
3.260478 2.362587 3.149606
-2.213132 -3.907841 3.149606
2.158624 -2.548563 1.246031
-0.153110 4.459972 3.149606
-0.681100 4.297149 2.095679
1.511485 -4.281676 3.149606
0.136631 -3.572127 0.902416
-1.142325 3.219312 0.802478
-0.435259 1.262492 0.000000
3.010154 -0.286980 0.798270
1.883930 3.677979 3.149606
-2.514338 3.437401 2.631749
-2.412195 -1.258312 0.484259
0.892251 2.136366 0.166675
-3.778584 0.696130 3.149606
-3.316158 -1.829362 2.621633
0.795670 3.078583 0.581494
4.198438 0.180201 2.872439
2.879545 2.345297 1.533463
2.992094 0.804042 1.222227
2.932687 -1.919702 1.724081
-3.308945 -2.168569 2.256039
0.664739 0.484908 0.251590
0.776917 -1.562778 0.029492
1.674853 2.832449 0.747747
-3.261525 -2.022730 3.122408
-2.409015 1.873649 0.685106
-2.492878 -1.939144 1.158769
3.313814 -1.845430 2.856558
0.333372 2.790881 0.349355
-3.422773 -1.543484 2.792949
-3.547466 1.050059 2.692328
-3.168758 2.169497 1.871774
0.439329 4.611111 3.149606
-3.649695 1.379786 2.335708
0.119871 -2.445768 0.191512
1.574460 -3.457638 1.719488
-1.292568 -0.469001 0.011355
2.690704 1.460441 1.096731
1.030561 4.733862 2.941765
-1.424297 -3.932390 2.878198
-1.508398 3.276300 1.025791
0.929519 -2.774914 0.736290
0.160933 -4.176373 1.726214
-2.778615 -3.027557 2.289472
-3.094672 2.266139 2.588898
1.779508 -1.335436 0.187107
0.991730 1.349765 0.024209
0.398164 2.271234 0.149156
2.848179 -3.639405 2.891991
-3.657249 -0.468946 1.879148
2.671518 3.756806 2.872439
-3.330488 -0.314526 1.674772
3.051964 -3.352740 3.149606
-2.337198 3.563953 2.578512
1.896149 2.022702 0.732401
3.087735 1.258988 1.123379
0.741168 2.631762 0.320203
-0.645902 1.596262 0.022876
-1.969887 3.600672 2.974643
-2.046440 -3.526591 2.583402
-0.832970 4.156354 2.824338
-0.376638 -3.335502 0.707960
-1.105318 4.194057 3.149606
0.249431 -3.333909 1.026215
-1.391050 -0.260453 0.266871
2.067449 -3.506520 1.867122
2.418876 -3.503794 2.592957
0.728943 1.032553 0.000000
1.460242 3.799027 2.358482
0.066000 -3.423394 0.761185
-1.852957 3.588822 2.433983
0.587431 2.373562 0.195114
-3.104383 -0.638392 1.325076
-1.665024 1.211086 0.131449
-2.620519 2.615799 1.940854
1.456426 -1.085232 0.321534
0.519729 1.126038 0.251590
1.385138 3.639991 1.870161
1.465153 2.260869 0.351096
0.755413 -1.385810 0.267895
0.624768 4.199042 2.979764
-2.436730 -2.436354 1.422865
-3.232006 1.592327 2.066049
0.082631 -3.720326 1.456184
1.797804 -3.430089 1.953123
1.851427 0.983680 0.421096
-0.645581 -0.388452 0.251590
-0.665033 1.799393 0.058101
-2.887061 2.568776 1.768137
0.622635 3.215352 0.981597
3.419815 1.550015 2.785201
2.082216 1.628447 0.694460
-0.156535 -0.065692 0.251590
3.201827 2.126529 2.991927
3.449528 0.235512 1.921631
-0.417897 -4.151052 1.699738
-1.350838 -3.860629 2.354836
1.873327 0.932462 0.159425
0.228602 1.702900 0.273118
3.546367 -1.007828 1.804782
1.763579 -1.871490 0.607717
-4.099554 1.084728 2.872439
1.997503 2.584131 0.796613
-0.602102 0.554992 0.000000
-1.941003 -2.997330 1.473512
-0.664351 0.322176 0.000000
1.893470 -1.911253 0.398046
3.875766 0.703650 2.872439
-3.520011 0.963304 2.448547
0.724807 -4.646581 2.872439
-1.950816 -3.275985 1.343656
-0.113848 -4.487097 2.622324
-0.252384 0.383117 0.000000
0.515805 3.829501 1.693141
4.228447 -0.022610 3.060810
-0.142278 0.955979 0.251590
-0.687119 -3.718703 1.571254
3.031346 2.557385 2.084071
-0.192171 1.647812 0.269207
-2.984018 0.358352 1.136661
2.532828 3.140510 1.983745
-4.194591 -0.597280 3.074834
-2.500676 0.256590 0.680921
0.277651 -1.357641 0.000407
0.203278 -3.305055 0.673493
1.747357 -3.979006 2.422566
-0.950005 3.187159 0.720219
3.466442 2.780839 3.117700
-2.645340 -2.515304 1.810114
-3.216858 -1.969190 1.737651
0.793890 1.365965 0.015453
-3.032933 1.385139 1.090406
3.309062 -1.126273 1.868441
1.589316 0.023138 0.036284
0.704540 0.735615 0.000000
-0.016448 -0.197637 0.000000
-2.333913 2.052492 1.062925
1.191982 -1.837066 0.405312
-3.224241 -1.621721 2.054593
3.417061 -0.864555 2.038054
-1.665982 3.869815 1.976800
3.567424 1.728763 2.550077
-3.035448 -0.459222 1.218378
-3.181944 -0.154173 1.011579
-2.393126 -0.846348 0.389220
-0.303596 3.248970 0.634015
-0.078370 0.860246 0.000000
-2.469126 -3.133343 2.765730
-3.343831 -0.094578 1.677462
-0.217878 0.718176 0.000000
-1.266415 0.481173 0.009146
-1.974441 -3.734065 3.149606
1.850822 2.720537 0.788709
-3.790209 1.789353 3.149606
-0.811452 -0.049356 0.000000
-3.646629 -0.359679 2.707582
1.723515 -4.214903 3.149606
3.303833 -0.215361 1.562348
-2.437752 -3.352683 2.230042
-0.162069 4.161433 2.400551
1.715286 2.016995 0.643526
-0.829419 0.930566 0.251590
-2.565443 -3.190585 2.143639
2.255324 -2.233639 1.116635
2.153592 2.167739 0.964312
-1.631411 0.733567 0.326213
2.424940 2.362127 0.971738
-1.157316 -3.461630 1.027722
2.493862 0.023701 0.677258
2.011740 2.313358 0.640657
-0.718297 4.680956 3.149606
-2.170439 1.220311 0.338904
2.164800 -3.612425 2.285200
0.448822 2.801316 0.658902
-0.949943 2.478971 0.574493
3.290239 3.087212 2.947147
0.926448 -4.360764 2.652786
-1.485098 -4.205886 3.149606
-1.768738 -1.237547 0.171606
0.500399 -1.487286 0.013134
2.091911 -3.744152 3.149606
0.069853 4.211256 1.758782
1.479675 -4.554003 2.872439
2.548051 -3.434162 2.758348
1.967239 2.805803 0.937044
-0.223241 3.907355 1.770336
1.697006 -1.357975 0.429898
-0.391409 2.314222 0.419917
-1.895924 3.454246 2.152032
-1.323854 1.404725 0.081817
3.085534 1.597980 1.724274
0.787530 4.129805 1.831755
-1.538205 0.910940 0.066906
3.706148 -0.252061 2.944682
2.294044 -1.246363 0.709060
1.880648 1.174485 0.194922
2.882724 1.891148 1.173830
-1.112699 -2.246381 0.243662
-3.303280 2.696625 2.872439
1.723680 1.694344 0.249734
-3.949130 -1.724491 2.882833
-1.268547 -4.215026 2.407433
-2.501378 1.957771 1.148845
3.548351 0.703673 2.300566
1.456738 -2.587247 0.511080
-3.398969 -0.708903 1.856811
-0.872287 -4.761722 2.872439
-3.596191 -0.773135 2.514602
1.327607 -0.788573 0.273331
-2.624499 -0.438282 0.787539
-1.860147 3.560616 1.683411
0.095185 1.616272 0.013885
-3.129500 2.355898 1.973040
3.266509 -2.358181 2.416451
-1.842189 2.830443 1.224262
2.651324 0.433851 0.510343
3.316610 -1.856712 3.099442
-3.535046 -1.352956 2.012940
1.975766 -2.057764 0.502977
2.649777 -0.853330 0.881431
-2.801007 -2.635777 1.682843
-3.489560 1.433046 1.883325
3.439944 -1.575444 3.149606
3.380317 1.832335 1.973398
-1.251367 -0.264434 0.004813
-2.766326 0.170939 0.889040
-2.447647 -2.722349 1.295867
-2.639360 -2.482341 1.298265
3.422611 1.911063 2.160349
-3.354746 1.404405 2.170556
2.223206 3.412398 3.114694
-2.282003 3.390243 3.149606
2.831547 0.057476 0.638091
1.427530 0.753265 0.030514
-3.331970 -0.026230 1.205100
-2.430620 3.053825 1.632995
-1.040717 -0.481693 0.000000
-0.052741 4.471803 2.601299
2.442168 3.052506 1.684945
3.127496 3.313638 3.140688
2.919490 -0.498169 1.089318
-2.480647 1.465133 0.597357
-2.188800 -1.192714 0.333617
2.317227 0.534087 0.301401
-1.719615 0.271643 0.067760
-3.349787 1.009521 1.923840
2.472705 -3.690410 3.149606
-1.811137 4.439200 2.872439
-2.077157 3.266954 2.055975
-1.209242 2.174461 0.243974
-1.803742 -3.173941 1.105064
-3.639003 -0.736054 2.807643
2.121830 -1.698695 0.730217
-2.313467 3.314228 1.860532
3.575448 -0.020090 2.249034
-0.874409 4.537686 3.149606
-1.279988 3.322754 1.325313
0.409539 -1.238894 0.251590
-2.447124 3.232323 2.954535
-0.294431 -2.585992 0.252184
2.549082 0.816415 0.489810
-3.235115 0.571472 1.535400
-0.490212 -4.707301 3.149606
3.787542 0.730236 2.361665
3.196571 -2.088201 2.766091
2.384557 1.125386 0.735236
4.167797 -0.044312 2.872439
-2.497891 -2.836123 1.474979
-3.834884 -0.753090 2.628112
2.718934 -0.341565 0.549309
-1.766478 2.169030 0.731992
-0.523941 3.193420 0.602058
-1.564036 -3.729758 1.664380
2.303909 2.465477 1.310695
1.975335 0.581595 0.423463
2.794407 -3.679315 3.149606
-1.756676 2.356466 0.510891
-0.311776 4.244679 3.079629
1.958932 -0.604532 0.156017
-0.423583 -4.263890 1.947874
-0.364536 4.628378 2.872439
-2.224487 -3.700560 2.664083
-3.528259 1.728088 2.383920
-0.075471 2.754261 0.600080
-0.575788 -2.543308 0.539706
2.603467 -2.096099 1.354970
3.793176 -2.134581 2.992082
1.270550 4.006223 2.792093
0.491890 -2.355965 0.444278
-2.955253 3.442398 3.149606
-0.735208 1.160107 0.255425
-0.185517 2.317368 0.416121
2.633931 -0.085734 0.773734
2.792453 2.049327 1.606131
-1.928057 -2.421378 0.978166
-3.662406 -0.616167 3.149606
-1.073308 3.977019 2.400421
1.916435 -3.848486 2.420674
1.105488 1.109880 0.270442
-2.241789 -2.420065 0.854215
-0.655030 -1.868849 0.069389
3.103983 3.143198 2.872439
-1.761351 2.165002 0.431236
-3.782772 -1.518678 2.872439
-2.965101 1.913743 1.778272
-2.408602 -1.482011 0.543528
1.027910 -2.190410 0.201818
-1.919303 2.914600 0.985901
-3.596285 2.272933 2.872439
0.428523 0.794817 0.251590
0.719465 -2.331571 0.199640
-2.120238 1.056144 0.558182
-2.386168 0.757195 0.661654
1.509741 0.490203 0.287643
0.776670 0.291930 0.251590
2.348183 -3.247903 2.562335
-1.442161 2.232231 0.335300
1.246738 4.239670 2.455107
1.930660 -2.904598 1.369506
-2.384738 -0.217163 0.327268
0.494478 -4.669121 2.872439
-2.168311 -1.738389 0.784110
-1.140058 -3.331909 1.260208
-0.510821 4.075216 1.593883
-0.512411 0.379709 0.251590
2.638174 -3.220737 2.369687
1.069526 3.728262 1.277399
-3.016799 -1.353220 1.479219
1.645982 -0.864868 0.084048
1.221524 1.428714 0.068391
1.715339 2.641322 0.980171
2.756096 2.735334 2.407645
0.446934 3.405535 0.776661
1.922333 3.263847 1.302360
2.257161 -3.379984 2.959723
1.333958 -3.867004 1.685924
3.280473 -1.852751 2.646811
3.371203 -1.658724 2.698459
2.918496 -2.556767 1.814489
-3.768347 -1.891215 2.872439
2.436187 1.068807 0.462925
-0.661647 -4.209540 3.149606
-3.590918 0.921459 2.852252
0.059002 3.209898 0.904612
-1.732070 -2.916612 1.199187
-1.937957 2.095758 0.498197
-4.015663 -0.469450 3.149606
1.496673 -1.851482 0.492097
-0.429836 -1.192253 0.251590
-3.549116 0.756518 2.420320
1.154709 3.573205 1.137066
-3.229576 -0.249673 1.485486
-4.203967 -0.057822 3.149606
4.003263 0.519087 3.149606
-2.946727 -0.995760 1.234189
0.275049 3.049711 0.489732
-2.325802 1.072673 0.385097
0.123295 -1.763604 0.279932
2.837599 0.447469 0.987323
-2.938112 -2.491965 2.563873
1.019173 1.553504 0.056914
-2.612295 3.015706 2.918693
-0.015285 -4.508141 2.811373
0.678673 4.138615 2.594728
-3.329523 -0.313195 1.225506
-2.123108 3.068381 1.766534
1.031092 1.771894 0.089456
-3.226042 1.793937 1.651681
1.362456 1.860694 0.452809
-1.202908 -3.494606 1.495543
3.242254 2.027515 2.802951
0.032938 2.409747 0.440554
-1.429452 -0.732909 0.029688
-2.629367 0.395297 0.789314
-1.233568 -3.197487 0.823289
-1.891791 -4.358201 3.115108
0.259855 4.105383 2.138053
1.179476 -0.847190 0.013356
2.170379 2.837698 1.128221
-2.307187 3.209457 2.342940
0.483070 -2.222802 0.138702
-1.017788 2.143131 0.187135
1.576666 -2.547929 0.848981
0.428264 -1.945114 0.323636
3.223355 -1.575129 1.476308
3.068876 2.287732 2.649782
1.310943 4.015680 1.933580
2.863941 -2.515285 2.333430
-1.259743 -3.549339 1.180637
2.997541 2.036986 1.433361
2.912207 2.310812 2.134072
-2.897433 0.489066 0.727045
0.405003 3.540784 1.253082
-2.524518 -1.284921 0.885109
-1.112589 -3.963944 2.310109
0.686673 1.391991 0.265553
-0.336167 -0.769437 0.251590
2.232667 3.621318 3.149606
-2.077813 -1.373702 0.325415
3.800306 0.430704 2.346762
4.189832 -0.652475 2.923213
3.206488 -1.613443 2.025172
-2.772480 -0.197204 0.589968
0.361257 1.723231 0.024450
-2.417763 -3.134189 2.522456
-3.696139 1.372752 2.547350
0.866523 -3.153525 0.993028
-3.585073 2.619341 3.111984
0.950670 -0.394002 0.000000
-0.498167 4.404252 2.422984
-2.097167 -3.309863 1.561271
3.333849 -0.805495 1.327310
-1.288710 3.954806 2.670686
3.827117 1.589644 3.149606
-3.492275 0.243255 1.967572
-3.444104 -1.556777 1.930014
-2.532680 2.804635 2.057679
-3.628981 2.424790 3.149606
-0.125168 -3.902500 1.259609
2.643878 -2.214584 1.091449
-0.128565 -3.667045 1.364483
1.849022 0.001619 0.092391
-1.902412 3.268202 1.810744
-0.028282 2.922523 0.702683
-2.049372 3.342776 1.577595
-2.117022 -1.294758 0.600137
-3.909502 -0.703957 3.149606
3.509927 -0.974659 2.415545
3.150705 1.380293 1.727616
1.870126 3.261286 1.711164
-0.400007 0.606115 0.000000
-1.003357 3.941013 2.188801
-1.892712 -0.685588 0.405110
1.157074 -0.433009 0.000866
0.499339 1.026421 0.000000
1.224181 -1.624911 0.355326
0.465111 0.491592 0.251590
-2.451906 3.652693 2.872439
0.119840 -3.514893 1.204327
4.167568 0.360618 3.149606
-2.579957 0.710377 0.794371
0.933837 -4.073244 2.545532
-0.589700 4.436543 2.627497
0.903777 -4.303309 2.350567
3.953452 -1.725080 2.872439
-1.689304 -4.365821 3.149606
-3.549217 -1.525484 2.216457
3.445892 1.809929 3.149606
2.460239 2.861300 2.000683
3.426365 -1.804907 2.127505
-3.081931 -1.560908 1.696613
-3.230620 -2.460262 3.149606
-2.786209 -3.100204 2.521919
-1.651951 1.015786 0.363434
-0.890169 -3.255868 0.739697
-3.622371 -2.509719 3.100964
2.267853 3.025488 1.943514
0.595025 -2.563986 0.551169
-3.104492 -2.735158 2.838896
0.139891 -4.146325 2.340561
3.697688 1.049334 2.254744
-1.924806 -2.777453 1.243791
1.985155 -1.226140 0.251233
-2.496175 3.400105 2.411650
-1.946756 -0.457566 0.400760
-3.856519 0.444796 3.149606
-0.529144 0.695539 0.251590
-3.140673 -1.670178 1.872064
3.155529 2.165381 1.850175
-3.497844 0.614617 2.139255
-0.990259 4.550153 2.872439
2.252362 2.160699 0.714622
-1.900863 -2.683271 0.797046
-0.601576 -2.541197 0.264313
-2.882855 -2.655141 1.870961
-0.920338 2.895179 0.810535
-2.423691 3.364727 2.139110
-3.043782 -2.336675 2.669499
-3.370531 -2.007175 2.147991
3.326072 1.765775 2.558342
3.554232 -2.247736 2.872439
0.899298 2.895155 0.787975
-0.465841 4.202062 1.830356
-1.697003 -2.771694 1.058186
1.520645 -4.092924 2.451749
-3.121100 3.281475 3.123768
3.018910 3.010839 3.149606
3.271349 -0.721033 1.652711
-0.717252 3.890477 1.832984
-1.869841 2.323007 0.870517
-1.049551 -3.340570 0.857298
1.852315 -3.277537 1.298380
-1.149181 -4.076965 3.103244
0.694679 3.568451 1.372944
-3.119961 1.676116 1.877051
0.102882 -1.832027 0.036517
2.216148 3.395691 1.862482
1.767238 3.885050 2.265724
-2.025237 1.428239 0.312072
-2.172979 -3.463553 3.136526
3.137480 -2.919661 2.872439
2.911349 2.606487 1.872145
1.338392 4.225499 2.641179
-2.645630 -1.143321 0.956052
-0.110115 -3.821351 1.577303
-0.577963 2.078727 0.370303
-0.442186 -2.054143 0.348336
1.281826 -4.080487 2.099756
1.506691 -3.673065 1.475396
2.933640 2.450181 1.726538
2.727613 -0.923930 0.640629
-2.253934 -1.414689 0.427424
3.991430 -0.672782 3.149606
-3.371676 -1.741913 2.842350
3.123075 -0.851915 1.439671
0.664867 4.013293 2.143211
1.889951 3.588334 2.473438
-2.042741 -2.828997 1.408567
1.954720 -3.292419 1.918900
-2.746542 -2.060722 1.124061
-1.537817 -4.561175 2.872957
-1.621682 -1.342902 0.409073
-2.729439 -1.595271 0.835003
2.443968 3.738713 3.149606
2.749586 3.454796 2.872439
2.473343 2.423914 1.460795
3.065626 -2.735143 2.599747
3.786584 -0.925389 2.642207
2.144918 -2.310523 0.733650
-0.220393 1.541585 0.010681
-2.787523 -1.752342 0.983633
2.453065 -2.266047 0.954708
-0.682586 -4.814868 2.891214
0.843042 2.697872 0.659663
-1.897337 -2.612916 1.093517
1.979749 -3.308761 1.449836
2.489620 -3.124110 2.676834
-2.760112 0.480936 0.923185
1.901728 -0.201310 0.109764
-0.794509 4.140804 2.630291
2.992288 1.799052 1.700451
-0.842559 -3.754775 1.695440
1.924687 3.070668 1.530437
3.620430 -0.690087 2.770078
-2.976477 -1.840401 1.256963
-2.901812 0.536610 1.076378
3.490873 1.839081 2.346488
-2.140082 0.331294 0.477375
-1.338175 2.546105 0.738716
-2.386173 3.998736 2.872439
-3.164154 -2.034978 2.425852
-0.657545 -3.309027 1.076662
1.381840 3.047257 1.124124
0.058705 0.528035 0.251590
-3.459463 -0.688551 1.470024
0.480412 -2.416734 0.197248
1.480632 3.848938 2.570809
-1.602234 -0.843407 0.071931
-3.520460 1.937508 2.863919
-1.183997 3.459510 1.451319
-1.725542 3.533424 2.048692
1.499217 -4.339141 2.872439
1.883139 3.061303 1.069622
-1.456710 1.008682 0.315188
-3.405687 -1.201028 1.610071
-1.703794 3.442985 1.843161
0.126905 -0.032367 0.000000
3.164186 -0.586625 1.033325
-0.091586 2.550236 0.228820
-3.728231 -1.055348 2.381871
0.845413 4.475108 2.872439
-1.996593 0.466883 0.160978
-1.063493 -1.166872 0.018969
0.329159 -1.588744 0.015182
0.996218 0.397764 0.000000
-3.709740 0.600404 2.055903
-1.589490 -3.026095 0.852763
-1.544947 -4.557086 3.142323
-1.064508 4.341290 2.870625
-0.821156 -3.918167 1.460825
-0.603280 4.841536 3.075440
-0.300123 4.238867 2.865011
-2.431394 -0.488905 0.650595
3.616069 -0.351062 2.405213
-0.521379 4.200467 2.715970
0.517832 -3.533082 0.890749
-0.090913 1.707670 0.020385
2.264662 -2.483067 0.934026
-3.763693 -0.656693 2.246155
0.141635 -2.783622 0.338418
-1.984115 3.568046 1.862141
-0.520208 4.796568 2.872439
-0.071807 -4.243211 2.712423
0.100435 4.892874 2.887968
-3.116153 -3.015745 3.149606
0.769026 3.411287 0.844821
1.886214 2.472619 0.659774
-1.178631 4.614262 2.872439
-1.892510 2.513160 0.989401
2.231823 3.346526 2.622231
1.517434 3.651497 1.499506
0.195842 -3.132435 0.544645
2.562616 -1.480222 0.671632
-1.520663 -2.907955 1.068482
1.700135 3.186386 1.467861
2.290919 -4.021976 2.872439
0.653576 3.286652 0.720380
3.402191 2.892555 2.956977
0.866412 3.968151 2.147388
-3.622233 0.395094 2.461558
-0.242895 -4.402017 2.221063
1.392696 -1.385633 0.351251
0.507184 -3.975047 1.418152
1.381582 1.214591 0.323782
2.799716 1.640535 0.931448
1.548254 0.580476 0.045017
-3.235264 -1.320405 1.365752
-3.808542 -0.077729 2.300990
1.241981 3.045364 0.716260
-2.567206 3.439307 2.869314
1.800685 0.782965 0.382782
2.862847 -0.030943 0.986498
-1.856260 3.440741 1.504027
-0.684638 0.121958 0.000000
0.113192 2.136640 0.090757
-0.617879 -4.210781 1.929338
-2.032584 -2.167128 0.568695
3.564053 1.172616 1.951065
-2.723409 2.628469 1.585039
-2.007226 4.304072 2.872439
-1.031435 -4.354015 2.848931
0.431162 3.162603 0.904211
-1.682277 3.618211 1.567998
2.909260 -3.345514 2.872439
-0.758063 4.102961 2.411469
-3.251861 0.357728 1.504323
3.786386 1.012768 2.625983
3.185315 -2.448719 2.258962
-0.198895 -3.694497 1.004064
-1.868677 0.126834 0.358843
1.102873 -3.771668 1.891774
0.266410 -4.181970 2.501511
-1.464593 3.390638 1.512103
1.063387 4.258435 2.370848
-2.387323 4.020734 3.086954
-0.232077 -4.247000 1.816040
2.756050 2.060711 1.136295
-0.755823 0.732641 0.251590
1.621830 -2.918506 0.799111
-2.082989 2.251322 0.981985
-1.941676 -0.379944 0.131915
-1.563031 4.528933 2.872439
3.499669 0.686866 1.551144
-1.834927 -3.413414 1.937527
2.975871 1.407101 1.442257
-3.716103 -0.591073 2.060505
-1.015747 -3.597428 1.093254
1.531745 3.886796 1.928695
-2.242961 3.082737 1.942377
-1.569424 3.729769 2.215976
1.910344 1.389808 0.532030
2.516516 1.228290 0.549554
-3.301769 2.284635 2.430169
-0.985014 -4.744467 3.100667
-2.564603 0.310425 0.436408
3.695617 -0.394352 3.149606
-3.011475 -1.101760 0.980559
2.657121 -0.145047 0.491766
3.892879 -0.200509 2.673866
-3.163743 -0.784131 1.451555
-2.940940 -2.335936 1.627979
3.941280 0.938391 2.872439
0.418003 -4.132957 2.365382
-0.985587 -0.789287 0.252262
2.300550 3.618068 2.638814
-2.382911 -3.094917 1.661345
-0.926305 4.367467 2.695056
3.439429 -0.772730 1.497601
2.674713 2.438169 1.784820
2.962831 -2.815055 2.417441
2.496987 0.335979 0.395457
-3.077069 0.707629 1.331834
0.451176 3.363811 1.083541
-2.696235 -3.481962 2.872439
-3.615112 -1.678630 3.149606
-0.458335 -3.879547 1.289206
-3.692290 1.494767 2.737262
3.683750 0.401822 1.942351
-0.650006 -4.030500 2.175547
-2.241994 -3.359178 2.738063
0.822832 -1.339821 0.016123
-0.980941 2.064123 0.422631
1.643189 -0.914898 0.346169
1.036422 -3.369402 1.265555
-3.493121 -0.100668 2.021903
-3.497500 1.902379 2.599698
-3.793566 2.109115 3.149606
0.927886 3.894305 1.462519
-1.317756 1.171622 0.307808
-2.251912 1.555422 0.767533
-0.784627 4.397383 2.534660
-3.656726 0.459370 1.844950
1.009681 3.112800 0.668470
2.004666 -0.376596 0.422316
1.741117 -3.663936 1.700757
-1.592605 -0.007901 0.292801
-2.768103 0.846287 0.989044
3.326924 2.136217 2.253870
-3.104921 -0.708929 0.956606
2.305134 0.033113 0.279359
-0.710794 -4.374702 2.494086
-0.371231 -4.257064 2.903041
3.652268 -0.751705 1.971341
-0.885470 3.882335 1.951018
2.034101 -0.877759 0.480136
-0.800218 0.726099 0.000000
2.253465 3.553247 2.264744
-0.515433 4.165574 2.507864
3.438812 0.038922 1.863385
1.190979 0.542528 0.005905
0.555011 -3.025924 0.502183
-2.567607 2.890848 2.302373
1.505989 1.724055 0.189780
2.407335 3.034576 2.225240
-2.893938 2.819381 2.213041
-3.284003 -2.699630 3.149606
-3.589918 -1.024354 3.125017
0.859119 4.025908 1.661187
-1.536624 1.423042 0.135021
1.348999 4.659732 3.076253
3.789881 0.077368 2.223552
-0.386313 3.806261 1.180943
-2.375127 0.673386 0.354882
2.936320 1.973803 1.775605
-2.810105 -2.426493 1.495087
0.060762 -4.016334 1.433407
0.349958 -4.608922 3.149606
1.174601 1.293131 0.298490
-3.080145 3.073298 3.149606
0.499478 -1.061477 0.251590
-0.627789 -4.099812 2.391178
-1.162503 -4.097186 1.960362
2.157699 2.348722 1.094286
-1.551327 -2.712416 0.603223
1.934358 -2.398068 0.632506
-0.687876 4.371093 2.353696
2.193007 -4.170012 3.137469
-0.587408 -0.715829 0.000000
2.195855 -1.410918 0.394950
-1.038329 -3.744585 1.289277
0.551727 1.588403 0.020100
-2.434353 -1.460473 0.865936
-3.520437 -1.166389 2.703179
-2.729486 -3.704878 2.872439
-1.510613 -0.525016 0.033930
2.071599 3.122802 1.787844
-2.600823 -0.879510 0.847948
-3.243758 -2.360041 2.411471
3.176055 -3.209404 3.048517
-0.165908 -2.372150 0.163864
2.490565 -1.701000 0.690717
1.724146 -4.442135 3.149606
-2.910759 -2.840421 2.215271
-3.409925 2.111080 2.613718
-1.703603 1.209073 0.408072
-0.311335 -4.296410 3.149606
-2.455995 0.038439 0.647573
2.552586 -3.256470 3.149606
-2.726647 -0.271853 0.874542
-1.028552 2.545318 0.339896
-2.925928 -2.934304 2.454512
-0.969410 4.063859 2.573894
-2.114749 1.008950 0.268672
-2.550767 1.247724 0.901505
3.143221 -2.382120 3.149606
-3.692715 1.165480 2.358798
-0.780522 4.592486 2.872439
3.059596 -1.839971 1.901837
-1.558383 -2.873672 0.723334
-3.212586 1.135758 1.679557
1.340256 0.357294 0.264457
-2.978292 -2.455940 1.826782
-3.412683 2.422787 3.149606
1.135645 -1.378924 0.303886
-2.156915 4.197736 2.954916
-0.631107 -0.961412 0.000000
1.742346 3.755244 3.032898
3.146165 -2.674972 2.801365
-3.727348 -1.176681 2.543130
-1.107271 1.463225 0.053760
-1.745124 -3.368357 1.766748
3.168433 0.289636 1.394512
0.948185 -4.124924 3.040284
0.790681 -3.354859 0.801465
-3.180988 -0.979721 1.561630
2.927974 -3.121521 2.872439
-2.944032 0.737076 1.167330
1.382477 -2.688119 0.842909
1.356279 -3.927357 2.663367
4.043480 -1.168731 3.149606
-1.496346 1.656367 0.173240
-2.160852 3.762144 3.149606
0.807707 -3.751189 1.215876
-2.100768 -2.318721 1.025606
0.900006 3.531163 1.386727
-3.074435 -1.124245 1.465910
-3.641271 -0.773651 1.880985
-0.288308 3.800961 1.592484
-2.641466 3.209951 2.354325
-3.343277 1.275560 1.480679
0.298752 -0.703214 0.000000
-0.335123 2.751421 0.610104
3.470929 1.624873 2.052669
3.750008 -0.635817 3.149606
-3.748676 1.163362 2.669315
-2.039914 -3.584613 3.030512
-2.274862 -3.045594 1.451720
2.567300 2.877764 2.241719
0.229964 4.492245 3.149606
0.182539 4.294744 3.149606
0.353241 4.481446 2.648699
-2.435334 -3.453834 2.503116
-3.078858 0.170250 1.229216
-0.230797 4.490839 2.815721
3.055099 2.115416 1.606602
-0.772288 -1.019081 0.251590
-0.576820 -0.814451 0.251590
-3.037884 1.317417 1.471884
-1.702250 -2.469656 0.552823
0.571439 -0.086908 0.000000
-2.700358 0.874730 0.607702
3.577796 2.587222 3.092493
0.759903 3.811300 1.759520
-2.258437 -0.023809 0.531294
2.484200 3.437763 2.672751
-3.308531 1.935149 1.969083
0.976505 4.545675 3.149606
2.505979 -3.377059 2.365210
3.332218 2.317868 2.759676
1.560524 1.792766 0.499316
-1.567412 2.099305 0.598299
3.434134 -1.921968 2.343383
0.524758 2.709642 0.332693
1.047396 2.012797 0.156747
-0.359727 -0.183553 0.251590
0.434275 4.107198 1.630921
2.091965 -3.736296 2.488835
1.388896 -2.154098 0.566527
-1.355717 -2.383019 0.647997
3.394627 2.112210 2.440300
-0.045895 -4.150164 1.653956
-1.239129 3.363036 0.974458
-3.680413 0.163503 2.747901
-1.373742 4.186600 2.652342
-3.088416 -2.743816 3.149606
-3.030300 1.547322 1.611096
-1.688036 -3.725373 2.542937
-1.031234 0.370184 0.251590
0.524244 -3.633443 1.383203
-2.835728 -2.333887 1.988084
-0.508762 -2.273427 0.422045
2.887756 2.720391 3.149606
-2.383676 -2.123097 1.155359
-3.467954 1.149419 1.684661
-3.413707 0.699978 1.421323
2.999092 0.103552 0.797200
-0.936816 1.431143 0.284097
3.479583 -0.613371 2.089019
2.520266 2.472667 1.137766
-0.236423 -4.021701 1.928428
-1.252413 -4.420090 2.872439
-0.897570 -2.200098 0.450419
3.097402 -1.413662 1.191989
-2.485949 2.294509 1.003952
-3.253329 -3.151390 2.976523
-0.229902 -4.713068 3.149606
-1.353671 -3.161530 1.215575
-0.474087 -1.681077 0.023196
3.630928 1.968841 2.872439
1.360844 -2.488836 0.718012
-2.103362 2.433725 1.117181
0.104574 -1.146578 0.000000
-0.895300 -0.633079 0.000000
2.656228 2.958992 2.847331
-3.101736 2.738103 3.149606
0.991424 -3.874323 2.026578
3.392881 1.700554 2.955677
1.897906 3.909916 2.672747
-3.758803 1.350217 2.872439
3.426723 -2.880660 2.873960
1.262438 -4.223481 2.611393
-1.735270 3.619495 2.255200
-0.674155 -1.366648 0.011673
-3.023558 2.404806 1.792002
1.444284 2.049463 0.547388
1.729227 -0.405353 0.074777
1.639312 -1.197764 0.121028
1.838174 -1.082515 0.170559
3.179088 -1.163161 1.622503
-1.357353 1.434484 0.351780
2.856958 3.269213 3.149606
0.324522 -1.798375 0.034287
1.828379 4.129009 3.149606
2.888129 -2.108492 1.790310
-1.672776 -0.162243 0.056046
3.995337 -0.988307 2.872439
-3.192753 -0.011867 1.408629
3.303479 1.484451 1.572392
-1.888199 -2.317285 0.570146
0.279945 0.643850 0.251590
0.143207 4.242014 2.669537
-3.382050 0.645039 1.846292
-1.366729 3.182465 1.212796
-0.983200 -4.275902 2.366618
3.627534 1.437307 2.423597
-2.501171 3.128047 1.852521
-2.730076 2.861239 3.031041
-1.666057 2.864553 1.136578
-1.427176 -2.010733 0.250710
-3.493123 -0.842321 2.164386
-3.436743 -0.247128 1.888000
-2.103739 -3.129485 1.839690
3.404707 -1.516295 2.522348
1.071646 -1.174139 0.020050
3.181102 0.485242 1.430544
2.765122 -1.635084 0.917506
-1.292202 0.754183 0.018035
2.625419 2.274285 1.126253
-2.746742 -1.578055 1.205027
-2.179967 -3.534475 2.045991
1.634268 3.209208 1.047361
3.732550 2.211920 2.872439
-1.556586 -4.138512 2.870324
-2.996768 2.657531 2.148910
0.751116 3.677952 1.533767
2.735508 -2.740699 2.468814
-2.970316 -2.640508 2.053529
-1.475509 0.478727 0.023822
-1.698534 -0.288246 0.319113
3.610561 -0.852054 2.947841
-0.793473 -4.104726 2.547606
-3.012026 -1.409608 1.083413
2.972259 2.894254 2.575877
1.750046 2.441934 0.880344
-2.868289 -2.706469 3.120113
1.009870 -2.581262 0.352485
-2.671997 -2.285425 1.631999
-0.822024 4.026570 2.236081
-2.228986 -3.288849 1.710222
-0.109270 4.001963 1.415230
2.296685 3.058380 1.497774
-4.044656 1.220212 3.149606
-3.548316 0.008541 1.572713
-0.228593 -2.634017 0.544195
3.829983 -0.844418 2.864819
-2.561873 -3.811545 2.872439
-2.922662 0.256410 0.712968
-0.213039 -0.128612 0.000000
3.279403 0.901212 1.706685
-2.612696 1.684917 0.787483
1.904640 0.250122 0.115615
-1.779866 4.202208 2.872439
-2.561486 2.765911 1.498203
-3.357573 -2.970135 2.911939
0.692747 -4.590802 3.149606
0.247850 -3.109322 0.841315
-1.257064 3.900391 2.383027
3.349969 1.070853 1.430244
2.439640 -0.733352 0.400186
-1.674036 4.493349 3.033150
-1.679715 -2.580491 0.921070
2.185360 -0.305072 0.498742
1.228261 -3.796675 1.500720
-3.845256 -2.080972 2.961138
-0.737126 -4.308634 2.280120
-3.997653 -1.556895 3.149606
3.882861 -1.925668 2.893903
-2.890785 2.204186 1.870890
4.199127 -0.599139 3.143697
1.113151 2.790991 0.801390
3.426666 0.825008 1.976464
-1.731320 -3.535789 2.072875
-3.367782 2.100758 2.382083
1.807371 -3.519718 2.146925
2.264321 -1.767749 0.850185
0.290947 -3.478622 0.819177
0.243244 2.403251 0.179281
-4.245191 0.329180 2.997111
-3.276410 -1.968799 2.805444
1.643398 -3.346127 1.195997
3.864191 -0.147562 2.480662
2.806365 2.777526 1.856866
1.863482 -1.459279 0.519314
3.656004 0.976001 3.149606
3.573431 1.022954 2.785470
2.069971 2.036306 0.840012
-1.399245 -3.407315 1.525850
2.349894 -3.052320 2.070321
2.804978 2.611089 1.665587
-0.829136 -0.260227 0.251590
2.289730 -3.608930 3.149606
2.497665 2.177972 0.938503
-1.982806 2.647940 1.159728
-2.619754 -3.226379 2.389292
-0.571969 0.752496 0.000000
2.665964 1.465824 0.733965
2.106618 -3.371351 1.683524
2.748770 -1.119627 1.024144
-1.321563 2.732852 0.841518
2.884037 0.977453 1.156670
2.148868 -1.106880 0.305201
1.032423 -1.405480 0.035601
2.185356 0.386483 0.225665
2.822408 2.718979 2.659809
3.002099 -1.276854 1.398208
-2.880065 1.017526 1.149542
-3.268545 -0.787850 1.187151
3.042716 -2.164322 1.607532
-2.199848 3.461799 1.981013
-3.245813 1.219012 1.303106
2.726495 0.175610 0.869482
3.020865 1.820869 1.299651
3.439759 -2.037063 2.600239
-2.733960 2.362505 1.799662
-3.435323 1.338513 2.369978
1.354006 -4.578475 3.149606
2.455782 1.557450 0.602570
-2.928810 1.507684 1.433945
0.783345 -0.983503 0.251590
-1.944776 -3.914819 2.863727
-2.853803 -0.436325 1.001913
-1.743068 -3.644254 1.691325
0.813302 2.404711 0.238122
1.486777 1.310156 0.097565
-2.685954 -2.052427 1.459453
-3.102098 2.053612 1.629049
1.012511 -3.907017 1.544531
0.343322 -0.192553 0.251590
1.057123 3.948603 1.607543
1.993525 -1.080384 0.502396
-2.178880 -0.362249 0.221497
-2.985257 -2.503090 3.103496
4.217664 0.174822 3.099141
1.557014 -0.259550 0.288632
2.128070 4.203157 3.149606
-0.628145 -1.950315 0.336505
3.374211 1.678394 1.839455
1.696331 4.470278 3.148249
2.148247 1.057526 0.570211
-1.941623 1.216588 0.505547
0.498252 -0.859869 0.251590
3.943115 -0.458723 3.149606
-2.623239 -1.736263 1.172467
-2.035496 1.391984 0.586688
-0.178528 3.352206 1.039843
3.094389 -1.901338 1.496406
0.909124 2.130043 0.431755
-3.633297 1.663041 3.149606
-2.394231 -3.230130 1.890954
-2.215790 -2.826473 1.591240
2.832571 1.395007 1.236673
-1.465816 -4.117727 2.458356
0.559488 -3.386500 0.760461
-2.915866 0.720149 0.780996
1.583776 -3.568680 1.901505
2.413021 1.798725 0.677521
-3.060586 -3.058851 2.872439
-1.553337 3.889390 3.093709
2.869534 -2.848413 2.205976
2.131291 3.201695 1.464709
-1.870324 -3.778877 2.114212
0.639803 4.328848 2.271522
1.029604 -0.649493 0.251590
2.321100 0.037720 0.565185
-1.533564 -0.476345 0.291721
2.334129 -0.186319 0.565967
-3.296735 -1.189881 1.914403
1.625350 -3.015992 1.240700
-1.689429 -2.279919 0.457921
0.665610 4.788178 3.149606
2.306919 3.903512 2.872439
-0.120206 -2.470212 0.461837
1.755461 -3.740233 2.769019
-3.715404 -2.203853 2.872439
2.109484 0.064501 0.187538
-3.611772 2.218729 3.149606
1.424548 -3.674991 1.956639
2.190027 3.317900 2.392397
2.255606 1.637030 0.505201
-1.888191 3.666220 3.149606
0.139753 2.600929 0.244456
-3.055484 -3.386982 2.892142
2.750402 1.686288 1.271309
0.977381 0.258307 0.251590
0.077618 -4.879885 2.925923
-2.524539 -1.597120 0.997703
-2.664598 -2.625695 1.980455
-3.969445 0.800480 3.149606
3.651707 -1.542317 2.597170
-1.598677 1.857255 0.257680
-1.865223 -3.684784 2.937126
-3.744808 0.998122 2.452149
-4.229971 0.050519 2.898274
2.413041 -2.219408 1.249130
1.216741 0.145388 0.253941
-0.038651 1.450479 0.004216
1.688488 -3.460432 1.361925
1.501727 3.279395 1.442983
0.849217 -4.265915 2.150882
-3.032794 -2.740396 2.438411
3.499112 -2.785724 3.032310
0.417034 -1.985950 0.074155
-3.429139 0.803198 2.041816
2.163697 -0.052031 0.478454
1.781759 -4.012574 3.149606
-0.160008 -1.778665 0.282017
2.622283 2.925614 1.760891
2.506808 3.033830 2.496392
3.205798 -2.114840 2.981987
2.059782 -4.033107 2.872439
1.856517 -0.862015 0.145255
-2.103363 -4.156468 2.872439
1.498087 -3.260888 1.005573
-0.789248 -1.718266 0.312964
-2.781103 2.742362 2.679156
-2.507192 -3.418860 2.695456
1.942708 2.416594 0.984336
-1.504774 2.290470 0.672405
-2.580504 -2.857226 2.222602
0.162697 4.504319 2.713777
1.695273 2.657080 0.653683
2.070920 1.147183 0.267069
2.883449 0.236217 1.021349
3.336212 0.049891 1.657120
-2.224897 -3.410675 2.951475
-3.249475 0.130484 1.073964
2.044222 -0.833080 0.203372
-3.585354 -1.612090 2.458037
2.694755 -1.671696 1.221250
-1.782977 -1.676584 0.548781
-0.916595 -4.345177 2.614990
0.016170 1.363265 0.251590
-1.666814 -1.055056 0.107837
-0.633412 -4.565629 3.149606
3.624323 0.391054 2.548234
-1.830538 1.847078 0.347704
1.747315 -3.771655 3.010222
-3.033391 2.982800 2.872439
2.531374 -3.664187 2.872439
-0.810916 -2.537805 0.292790
-2.085918 2.768305 1.350546
1.398363 3.960884 3.149606
-1.386424 1.828652 0.179195
-4.068087 0.271687 3.149606
-2.126921 -0.931135 0.263541
-0.036480 1.983088 0.063973
-0.387551 -0.534758 0.251590
0.594121 0.251511 0.000000
3.751493 -0.470529 2.107880
-3.830614 -0.928885 2.771375
2.890534 3.292472 2.872439
1.916326 -3.782128 2.221814
-3.205742 -1.804414 2.145887
-0.255750 -3.206307 0.582851
-3.339772 -1.406570 1.598506
2.756098 3.682864 3.149606
-2.663283 -2.935811 2.766820
1.182202 4.304660 2.755160
-0.932937 3.775668 1.308700
-2.200091 0.488856 0.246126
3.130448 2.376359 2.072496
1.196678 -0.943931 0.269404
1.937955 -3.046185 1.533482
3.330157 0.627857 1.253003
0.871661 -2.591795 0.614730
1.527859 -3.745138 2.213222
0.858658 -4.124438 1.825152
-0.998792 3.433292 1.326699
-1.923106 2.730736 0.829116
-1.389847 -3.778476 1.584026
2.487522 -0.131744 0.372010
3.699392 -1.170009 2.389202
-3.539249 1.861952 3.149606
1.938822 -3.623194 2.902113
2.475873 -3.194619 2.966438
3.552485 0.909305 2.458995
0.910552 1.845652 0.350403
-1.950373 -4.324608 2.888536
-1.722409 3.412470 1.337526
-1.918147 -3.156494 1.626587
-0.062408 -2.778711 0.329265
-1.414768 2.878393 0.988202
3.164308 1.711875 1.432402
-2.009011 1.690426 0.371415
0.623002 -3.148580 0.916366
1.289649 -1.187437 0.049207
0.841325 4.050723 2.393372
3.987330 -0.665619 2.872439
1.142291 -4.003568 2.618372
0.127406 2.896819 0.383291
-2.943558 -1.683640 1.100323
-3.601120 -0.358695 2.441202
1.441319 2.866384 0.992904
3.789311 0.780162 3.149606
-2.508540 -3.582709 2.872439
-2.203292 2.230711 0.731904
1.199738 -3.522355 1.538756
1.573084 -2.081209 0.593158
1.725499 2.877838 1.163697
1.069500 2.627828 0.693082
-4.007113 0.598417 3.149606
0.625753 4.095658 2.374883
-1.273878 -1.278165 0.054915
4.244846 -0.336809 2.872727
4.031202 -1.425669 3.149606
0.964276 -4.158211 1.995440
1.558242 3.130979 1.303966
-2.038069 3.729023 2.342797
2.238923 2.636222 1.415627
0.080373 4.384725 2.201571
1.445592 3.901004 2.762960
-0.080779 4.138065 1.648958
1.772529 3.705837 1.836499
-0.918439 0.578397 0.251590
-0.131307 -1.326840 0.000000
-1.743635 -4.247487 2.872439
2.456539 -3.105173 2.465520
-2.966791 1.749561 1.653407
-1.523505 4.044229 2.289694
-3.220722 -0.590555 1.086718
-2.559067 2.513122 1.708380
2.201767 -0.627445 0.259684
0.394713 3.568085 0.915872
