ply
format ascii 1.0
element vertex 1726
property float x
property float y
property float z
end_header
0.075818 -0.016767 0.003043
0.077324 -0.016332 0.001492
0.076699 -0.016799 0.000433
0.076327 -0.016890 -0.000927
0.076231 -0.016507 -0.002217
0.075213 -0.017595 -0.000726
0.075828 -0.017271 0.001624
0.049929 -0.015763 -0.002023
0.050865 -0.015484 -0.003234
0.051535 -0.014619 -0.002475
0.054502 -0.012991 0.002263
0.052186 -0.015397 -0.004424
0.052403 -0.013927 0.001524
0.053260 -0.013411 -0.002396
0.054010 -0.012816 0.001093
0.050208 -0.015445 0.000836
0.054449 -0.014956 0.004635
0.050230 -0.015253 -0.000624
0.053063 -0.013210 -0.000877
0.052863 -0.015099 0.003825
0.052419 -0.013616 0.000154
0.054648 -0.013626 0.003444
0.053154 -0.014043 -0.003556
0.053838 -0.015842 -0.005524
0.051911 -0.014009 -0.001206
0.051405 -0.015405 0.002946
0.051230 -0.014453 0.000095
0.053245 -0.014079 0.002934
0.053776 -0.014704 -0.004735
0.051324 -0.014740 0.001615
0.054311 -0.012458 -0.000628
0.058625 -0.012111 0.003801
0.057787 -0.013254 0.004633
0.057176 -0.011349 0.001411
0.055569 -0.011783 -0.000289
0.055206 -0.013410 -0.004347
0.055078 -0.012449 -0.002618
0.059559 -0.014104 -0.006007
0.057548 -0.014646 -0.005886
0.058180 -0.013534 -0.005517
0.056565 -0.015536 -0.006025
0.058867 -0.014862 0.005794
0.055958 -0.011815 0.001061
0.055600 -0.012683 0.002832
0.055518 -0.013938 0.004354
0.056189 -0.011721 -0.002049
0.056543 -0.012147 -0.003458
0.056861 -0.012020 0.002671
0.059133 -0.012548 -0.005078
0.055471 -0.015005 -0.005595
0.058931 -0.015260 -0.006136
0.055859 -0.015939 0.005656
0.058278 -0.011910 -0.004169
0.059697 -0.012431 0.004531
0.058005 -0.011465 0.002451
0.057253 -0.012775 -0.004678
0.058063 -0.011205 -0.002810
0.056712 -0.014121 0.004924
0.059877 -0.013472 0.005352
0.057193 -0.015558 0.005785
0.059245 -0.011194 -0.003570
0.056824 -0.011224 -0.000359
0.056188 -0.013892 -0.005187
0.056489 -0.013012 0.003832
0.059999 -0.011679 -0.004560
0.064732 -0.012700 -0.005849
0.060366 -0.013055 -0.005638
0.064993 -0.014777 0.006073
0.063439 -0.011565 -0.005100
0.061406 -0.011685 0.004290
0.063440 -0.014188 0.005952
0.064616 -0.011775 0.004770
0.061668 -0.013321 -0.005918
0.063988 -0.015185 -0.006126
0.063239 -0.011599 0.004500
0.062750 -0.015792 -0.006066
0.062151 -0.015085 0.006054
0.061804 -0.013856 0.005753
0.060544 -0.015053 -0.006186
0.062043 -0.011999 -0.005280
0.063749 -0.013750 -0.006098
0.061232 -0.012822 0.005172
0.063486 -0.016075 0.006025
0.063478 -0.012842 0.005431
0.060108 -0.011507 0.003630
0.060252 -0.014892 0.005954
0.062488 -0.014540 -0.006187
0.064544 -0.013512 0.005792
0.066904 -0.015467 -0.006037
0.069093 -0.012715 -0.006070
0.065159 -0.014320 -0.006208
0.066617 -0.012355 0.005360
0.068076 -0.014602 -0.006148
0.066916 -0.016021 0.005984
0.068151 -0.015391 0.006053
0.068906 -0.013229 0.005931
0.065765 -0.016036 -0.005906
0.067626 -0.013134 -0.006069
0.066830 -0.014513 0.006062
0.069683 -0.011894 0.005449
0.067097 -0.011764 -0.005521
0.066095 -0.013452 0.005821
0.069307 -0.015374 -0.005957
0.067608 -0.013411 0.005891
0.066017 -0.013353 -0.006079
0.066262 -0.011155 0.004389
0.067832 -0.011665 0.004979
0.070597 -0.014859 -0.006018
0.070178 -0.015545 0.005953
0.074592 -0.012190 0.006119
0.072565 -0.011770 0.005918
0.070565 -0.016101 -0.005487
0.071646 -0.013271 -0.006180
0.070237 -0.013317 -0.006200
0.074167 -0.012285 -0.006131
0.074178 -0.014528 0.005731
0.071832 -0.014195 0.006061
0.070149 -0.011787 -0.005901
0.073469 -0.015412 -0.005198
0.071285 -0.012107 0.005819
0.073014 -0.015757 0.005443
0.070202 -0.013673 0.006041
0.072087 -0.015118 -0.005668
0.073212 -0.013755 0.006030
0.072466 -0.011312 -0.006062
0.073197 -0.014040 -0.005909
0.074394 -0.014522 -0.005459
0.072862 -0.012666 -0.006181
0.077798 -0.011909 -0.005482
0.075909 -0.011784 -0.006042
0.076446 -0.014164 -0.004820
0.077522 -0.015689 0.002912
0.079047 -0.015114 0.000411
0.077171 -0.015009 0.004221
0.078125 -0.012982 -0.004701
0.079688 -0.014098 0.002410
0.078839 -0.011845 0.005387
0.076742 -0.011145 0.006037
0.079257 -0.012166 -0.004582
0.077806 -0.015997 -0.000568
0.075092 -0.015272 -0.004668
0.078034 -0.015422 -0.002029
0.077207 -0.012364 0.005728
0.079230 -0.013656 0.003749
0.076029 -0.014226 0.005371
0.078489 -0.014804 0.003181
0.075724 -0.012915 0.005939
0.078971 -0.014971 -0.001059
0.077153 -0.015479 -0.003048
0.079953 -0.013805 -0.001891
0.075461 -0.015393 0.004822
0.078833 -0.014233 -0.002890
0.079870 -0.012228 0.004558
0.077179 -0.013566 0.005309
0.079137 -0.013238 -0.003711
0.075944 -0.015768 -0.003648
0.078408 -0.015562 0.001672
0.075158 -0.013108 -0.005801
0.076753 -0.013043 -0.005411
0.078493 -0.013252 0.004729
0.077572 -0.014461 -0.003910
0.024676 -0.007549 0.003152
0.024615 -0.006264 0.001311
0.020710 -0.007102 -0.006028
0.020731 -0.006916 0.005572
0.024125 -0.007423 -0.004428
0.023894 -0.006164 0.002601
0.024836 -0.006986 -0.003068
0.022590 -0.007723 -0.005547
0.022734 -0.007030 0.004572
0.023585 -0.008016 0.004543
0.023152 -0.006543 -0.004609
0.026845 -0.008798 0.000613
0.026473 -0.008572 -0.002217
0.027366 -0.009338 -0.001106
0.025389 -0.008280 -0.003727
0.025848 -0.007431 0.000102
0.025917 -0.008113 0.001832
0.026124 -0.007818 -0.001118
0.025292 -0.006968 -0.001879
0.025627 -0.008634 0.003093
0.059085 -0.010611 0.001120
0.059713 -0.010265 -0.001001
0.057393 -0.011069 -0.001530
0.059314 -0.010654 -0.002381
0.058069 -0.010778 0.000240
0.063220 -0.009748 0.001358
0.061043 -0.009881 -0.000192
0.060990 -0.010076 -0.002001
0.061296 -0.010045 0.001199
0.063780 -0.010497 -0.003981
0.061854 -0.010697 -0.003821
0.063123 -0.009545 -0.000712
0.064406 -0.009433 -0.001283
0.064538 -0.010749 0.003679
0.064580 -0.009719 -0.002563
0.061091 -0.010734 0.002879
0.060499 -0.010560 -0.003121
0.064461 -0.009958 0.002288
0.062549 -0.010408 0.002779
0.060204 -0.010523 0.001889
0.064350 -0.009411 0.000227
0.063021 -0.009765 -0.002142
0.065470 -0.009546 0.001487
0.068786 -0.009872 -0.004223
0.067774 -0.009316 -0.002673
0.068908 -0.008851 -0.002254
0.069174 -0.010384 0.004238
0.068257 -0.010841 -0.005032
0.065849 -0.010890 -0.004711
0.068188 -0.008814 -0.000634
0.065915 -0.009284 -0.001303
0.066393 -0.009553 -0.002633
0.068848 -0.009429 0.002747
0.067143 -0.009562 0.002017
0.069522 -0.010605 -0.005142
0.066753 -0.010087 -0.003812
0.065808 -0.009995 0.002648
0.067473 -0.010772 0.004128
0.066535 -0.009154 -0.000013
0.069419 -0.008374 -0.000905
0.069401 -0.008630 0.001486
0.068001 -0.008979 0.000756
0.069452 -0.009111 -0.003444
0.072408 -0.006708 -0.002177
0.072455 -0.009384 0.004756
0.070461 -0.008315 -0.002765
0.071299 -0.008968 -0.004494
0.073133 -0.006284 0.001862
0.070681 -0.007701 -0.000536
0.072046 -0.008452 0.003675
0.073695 -0.007853 0.004384
0.070036 -0.009588 -0.004484
0.074726 -0.006523 0.004172
0.071004 -0.010798 -0.005642
0.073695 -0.009095 0.005145
0.074336 -0.006638 -0.004617
0.071914 -0.007047 0.000903
0.071284 -0.010780 0.005257
0.074472 -0.007973 -0.005486
0.072710 -0.007373 0.003064
0.073751 -0.010687 0.005807
0.072391 -0.009776 -0.005534
0.073166 -0.008269 -0.004955
0.072212 -0.007403 -0.003296
0.071769 -0.007008 -0.000907
0.070820 -0.007992 0.001685
0.070619 -0.008875 0.003146
0.074780 -0.009189 -0.006015
0.074513 -0.010730 -0.006163
0.070153 -0.008105 0.000565
0.071228 -0.007538 -0.001976
0.073256 -0.006951 -0.003887
0.070467 -0.009860 0.004257
0.078376 -0.007779 0.006053
0.077582 -0.009080 -0.006155
0.075183 -0.010160 0.005946
0.079083 -0.007324 -0.006138
0.075232 -0.008722 0.005555
0.076063 -0.010469 -0.006174
0.077625 -0.009337 0.006115
0.079334 -0.009281 0.005935
0.076000 -0.007352 0.005393
0.076191 -0.006264 -0.005568
0.077471 -0.010453 -0.006034
0.077714 -0.007587 -0.006187
0.079761 -0.010998 -0.004894
0.075722 -0.007838 -0.005866
0.077076 -0.008173 0.005944
0.079158 -0.010600 0.005666
0.078697 -0.010235 -0.005714
0.079625 -0.007229 0.006072
0.076437 -0.009803 0.006036
0.009669 -0.002951 -0.001720
0.009316 -0.002896 0.000630
0.009225 -0.001905 0.002519
0.009997 -0.002443 -0.002961
0.008766 -0.001583 0.000838
0.008903 -0.001740 -0.000761
0.010334 -0.003152 0.003470
0.013480 -0.003334 0.005819
0.011057 -0.002263 -0.004411
0.014286 -0.001437 -0.006113
0.011040 -0.001523 0.005118
0.014211 -0.004831 -0.005549
0.012631 -0.001701 0.005828
0.012056 -0.003110 0.005240
0.014079 -0.003371 -0.005821
0.012143 -0.001889 -0.005342
0.012255 -0.003235 -0.004890
0.014874 -0.003080 0.006089
0.014410 -0.001372 0.006107
0.011312 -0.003936 -0.003629
0.015860 -0.001405 0.005917
0.019100 -0.004558 -0.005890
0.016655 -0.003818 -0.006200
0.019339 -0.002837 -0.005162
0.018640 -0.005038 0.005761
0.017180 -0.001879 0.005507
0.019616 -0.004327 0.005150
0.015640 -0.001977 -0.006202
0.019488 -0.006004 -0.006069
0.017834 -0.005517 -0.006209
0.017223 -0.002651 -0.006042
0.015618 -0.004699 -0.006049
0.016478 -0.004442 0.006060
0.017710 -0.003525 0.005649
0.019295 -0.001173 -0.004424
0.019932 -0.005810 0.005531
0.015169 -0.004376 0.006030
0.017988 -0.003840 -0.006041
0.018868 -0.002507 0.004708
0.018130 -0.001776 -0.005513
0.016229 -0.003162 0.005999
0.022080 -0.004099 0.002829
0.021302 -0.002114 -0.001963
0.020150 -0.001483 0.002586
0.022954 -0.004997 0.002570
0.020165 -0.003282 0.004218
0.021164 -0.002549 0.002197
0.021674 -0.002553 0.000917
0.020404 -0.001442 -0.002954
0.023192 -0.004341 0.000639
0.022863 -0.004130 -0.002171
0.021936 -0.003576 -0.003252
0.021534 -0.005983 0.004791
0.022651 -0.005780 0.003751
0.024068 -0.005796 -0.002560
0.020959 -0.003481 -0.004372
0.020943 -0.005113 -0.005350
0.022727 -0.003623 -0.000662
0.021363 -0.001932 -0.000413
0.020109 -0.002240 -0.004173
0.020808 -0.004575 0.004520
0.022648 -0.004948 -0.003760
0.022403 -0.003600 0.001468
0.020168 -0.004091 -0.005301
0.024601 -0.005878 -0.000010
0.022044 -0.005784 -0.004959
0.023799 -0.005019 -0.001540
0.021069 -0.002563 -0.003303
0.074577 -0.004810 -0.003219
0.074074 -0.006120 0.003152
0.074638 -0.003839 0.000830
0.074914 -0.004935 0.003061
0.074047 -0.005337 0.002041
0.073522 -0.006004 -0.003058
0.073235 -0.005557 -0.000198
0.073539 -0.005392 -0.001819
0.074469 -0.004047 -0.001740
0.074601 -0.003647 -0.000521
0.075994 -0.002079 -0.003323
0.079653 -0.005531 -0.006200
0.077065 -0.001848 -0.004653
0.079971 -0.005674 0.006091
0.075775 -0.005880 0.004562
0.076291 -0.003175 -0.004411
0.075115 -0.005473 -0.004499
0.078732 -0.002236 -0.005833
0.075922 -0.004170 0.003710
0.079233 -0.003794 0.005839
0.077523 -0.004745 -0.005740
0.077105 -0.001141 0.003746
0.077937 -0.002937 0.005038
0.078211 -0.005871 0.005831
0.076921 -0.003901 0.004559
0.077566 -0.006046 -0.006039
0.077146 -0.005404 0.005311
0.075962 -0.002814 0.002948
0.079254 -0.004039 -0.006131
0.075128 -0.002741 0.000418
0.075535 -0.002407 0.001678
0.076806 -0.002595 0.003928
0.075194 -0.003597 -0.003041
0.078519 -0.001700 0.005197
0.075668 -0.001415 0.000627
0.076334 -0.004625 -0.005050
0.079616 -0.002105 0.005767
0.075308 -0.002479 -0.001882
0.078039 -0.004280 0.005419
0.077620 -0.003026 -0.005462
0.007284 0.002965 -0.000196
0.008007 0.000952 -0.000574
0.007743 0.002309 -0.001536
0.009223 -0.000710 -0.002722
0.008813 0.001180 -0.003154
0.009293 0.003450 0.005003
0.009017 0.002529 -0.003976
0.009159 0.000660 0.003946
0.007807 0.001770 0.001765
0.008356 0.000941 -0.001984
0.008065 0.003159 -0.002916
0.008060 0.003317 0.003573
0.007275 0.003182 0.001434
0.007660 0.001789 0.000385
0.008240 0.000105 0.001007
0.008907 -0.000579 0.002857
0.008483 0.000689 0.002786
0.009062 0.002002 0.004395
0.008617 -0.000406 -0.001543
0.008222 0.002100 0.003215
0.008395 -0.000526 -0.000133
0.010568 0.000909 -0.004955
0.014326 0.003269 0.005782
0.014216 0.002944 -0.006117
0.014492 0.000617 0.005965
0.013162 0.000053 0.006066
0.012149 0.001235 0.005975
0.012890 0.003551 0.006052
0.011408 0.000237 0.005636
0.013815 0.000698 -0.006185
0.010045 -0.000210 -0.004163
0.011094 0.003644 0.005933
0.013478 0.002097 0.006044
0.012032 0.002592 -0.006017
0.010051 -0.001095 0.004388
0.010266 0.000433 0.005006
0.010558 0.001933 0.005494
0.011964 0.002513 0.006003
0.011658 -0.000503 -0.005433
0.013120 0.001829 -0.006136
0.012516 0.000559 -0.005945
0.010022 0.002868 -0.005017
0.018205 -0.000432 -0.004974
0.017662 0.002142 0.003553
0.019075 -0.000288 0.003275
0.019393 0.001410 -0.000367
0.018640 0.002448 0.001532
0.018647 -0.001047 0.004276
0.019609 0.000061 0.001985
0.017121 0.002870 -0.004668
0.017674 0.000907 -0.004816
0.015651 0.001494 -0.005886
0.019751 0.000560 0.000534
0.015570 0.003245 -0.005678
0.018575 0.003468 0.000141
0.018923 0.002290 -0.001257
0.018048 0.003458 0.002131
0.015487 -0.000126 -0.006094
0.017113 -0.000570 0.005206
0.019024 0.000296 -0.003675
0.019712 0.000274 -0.002265
0.018471 0.001299 0.002934
0.018359 0.001906 -0.003427
0.015974 0.001869 0.005234
0.018371 0.002965 -0.002628
0.015677 -0.000032 0.005706
0.016826 0.000840 0.004864
0.016728 0.002787 0.004412
0.017852 0.000853 0.003984
0.017196 -0.000771 -0.005684
0.016526 0.000543 -0.005665
0.015776 0.003789 0.004901
0.020344 -0.000462 -0.001405
0.020348 -0.000864 0.001436
0.020558 -0.000771 0.000136
0.076035 0.002565 0.000432
0.077087 0.001946 0.003233
0.075776 -0.001117 -0.001914
0.076366 0.000083 -0.002945
0.079516 0.000479 -0.005986
0.076591 -0.000235 0.002655
0.075983 0.000733 -0.000996
0.079055 0.003513 -0.005789
0.077185 0.003485 -0.004409
0.079571 -0.000965 -0.006045
0.078894 0.000470 0.005194
0.078016 -0.000799 -0.005294
0.078028 0.001429 0.004443
0.076010 -0.000167 0.000975
0.079591 0.001612 0.005513
0.079330 0.001884 -0.005857
0.077574 0.003833 0.004111
0.077279 0.000379 0.003614
0.077095 -0.000137 -0.004275
0.077154 0.001478 -0.004167
0.076250 0.002007 -0.002207
0.076449 0.003098 0.002142
0.076503 0.001708 0.002033
0.075725 -0.000725 -0.000594
0.078187 0.001541 -0.005227
0.076131 0.001352 0.000824
0.076646 0.002755 -0.003438
0.078041 -0.000308 0.004565
0.075958 0.002942 -0.000878
0.079049 0.002795 0.005302
0.008813 0.003962 -0.004238
0.007724 0.007922 0.004008
0.006913 0.005575 0.000921
0.007628 0.007683 -0.003281
0.007777 0.005363 0.003591
0.007352 0.004165 0.002293
0.009379 0.006586 0.005390
0.006797 0.008784 0.002348
0.009532 0.005201 -0.005029
0.007073 0.005908 -0.001479
0.009933 0.004527 0.005542
0.007222 0.005434 0.002371
0.006717 0.006866 -0.000150
0.009447 0.007622 -0.005202
0.007255 0.006719 0.003000
0.008371 0.004396 0.004332
0.006993 0.004536 -0.000008
0.007856 0.006326 -0.003360
0.009689 0.008100 0.005628
0.008667 0.005661 0.004741
0.008027 0.006677 0.004240
0.008565 0.005581 -0.004179
0.006952 0.007587 -0.001781
0.006655 0.007772 0.001169
0.007248 0.004464 -0.001448
0.007704 0.004532 -0.002638
0.010788 0.004495 -0.005718
0.014010 0.007831 -0.005972
0.011893 0.008032 0.006088
0.012045 0.003936 -0.006088
0.011099 0.007103 -0.006011
0.011387 0.005546 0.006030
0.013276 0.005120 -0.006169
0.012684 0.006271 0.006009
0.010546 0.006794 0.005929
0.013869 0.006310 -0.006061
0.013442 0.005074 0.005921
0.011807 0.005839 -0.006100
0.012531 0.007980 -0.006232
0.014035 0.007687 0.005518
0.010073 0.006366 -0.005500
0.014916 0.004640 0.005331
0.014433 0.006173 0.005429
0.017667 0.004721 0.002080
0.015034 0.005020 -0.005660
0.016452 0.006638 -0.004392
0.017644 0.007649 -0.000173
0.017907 0.005652 -0.000111
0.017795 0.004265 -0.003129
0.016113 0.007907 -0.004573
0.018392 0.003958 -0.001189
0.017185 0.007141 -0.003092
0.017503 0.005561 -0.002741
0.015699 0.007215 0.004398
0.015081 0.008500 0.004767
0.017382 0.008520 0.000826
0.017571 0.007078 -0.001852
0.015264 0.006840 -0.005442
0.016887 0.006543 0.002948
0.016398 0.008313 0.003336
0.016138 0.004805 -0.004980
0.017645 0.005738 0.001269
0.017473 0.008857 -0.000534
0.016713 0.004280 0.003881
0.015868 0.005168 0.004490
0.017307 0.007517 0.001707
0.018110 0.004529 0.000790
0.017312 0.008690 -0.002054
0.017979 0.005189 -0.001450
0.074804 0.007064 -0.001542
0.074665 0.007477 0.000477
0.074285 0.008461 -0.001754
0.074976 0.006451 -0.000262
0.074894 0.008527 -0.003424
0.074722 0.008053 0.001707
0.074151 0.008532 -0.000364
0.077019 0.008592 0.004966
0.075908 0.008215 -0.004624
0.076862 0.006437 0.004138
0.077441 0.005210 0.004349
0.075731 0.005034 0.001240
0.075830 0.005366 -0.002721
0.079458 0.005709 0.005698
0.077908 0.004404 -0.005230
0.079024 0.008635 -0.006175
0.075202 0.007195 -0.003032
0.078838 0.006874 -0.006043
0.079722 0.004633 -0.006080
0.075481 0.005312 -0.001190
0.078314 0.005682 -0.005651
0.075379 0.007574 0.002707
0.076305 0.005212 0.002800
0.078455 0.008183 0.005646
0.077933 0.007053 0.005197
0.075388 0.008666 0.003386
0.075959 0.006582 -0.003862
0.078701 0.004280 0.005160
0.075185 0.006441 0.001068
0.077291 0.007983 -0.005574
0.075816 0.004054 -0.001499
0.076287 0.004064 -0.003159
0.076245 0.007944 0.004107
0.076729 0.006889 -0.004872
0.076586 0.005220 -0.004080
0.075904 0.003887 0.000631
0.009508 0.012243 -0.005276
0.006732 0.013809 -0.000258
0.008613 0.013575 0.004842
0.008799 0.010544 -0.004785
0.007105 0.013689 0.002602
0.008906 0.011016 0.005265
0.006724 0.011846 -0.000906
0.006542 0.009244 -0.000803
0.006996 0.010191 0.002976
0.009956 0.009630 0.005816
0.006719 0.012998 0.001253
0.007715 0.013726 0.003792
0.009814 0.013240 0.005642
0.006930 0.011776 0.002424
0.008359 0.012764 -0.004227
0.007203 0.011162 -0.002555
0.007210 0.013104 -0.002287
0.007924 0.010976 -0.003795
0.007346 0.009038 -0.003113
0.008923 0.009235 -0.004943
0.006544 0.011115 0.000245
0.008010 0.009670 -0.004014
0.006483 0.009374 0.001157
0.008384 0.009429 0.004877
0.007814 0.013810 -0.003408
0.006889 0.009820 -0.002023
0.006613 0.010773 0.001606
0.007906 0.011608 0.004314
0.007387 0.012484 0.003394
0.007705 0.010341 0.004126
0.012224 0.012333 0.006033
0.014530 0.010461 -0.005666
0.014169 0.013440 0.005471
0.014009 0.012528 -0.005978
0.011010 0.009313 -0.006054
0.010146 0.010314 -0.005675
0.012951 0.010733 0.005914
0.013801 0.009213 -0.005994
0.010524 0.011286 0.005944
0.012273 0.009443 -0.006234
0.011779 0.012033 -0.006137
0.012006 0.009776 0.006046
0.011374 0.013294 -0.006068
0.011207 0.013251 0.006022
0.013932 0.011931 0.005533
0.013458 0.011090 -0.006086
0.010044 0.013676 -0.005538
0.011514 0.010502 -0.006115
0.013642 0.009093 0.005616
0.012730 0.013179 -0.006218
0.014356 0.010249 0.005295
0.010568 0.011565 -0.005836
0.016199 0.010509 0.003484
0.017544 0.012190 0.000142
0.017005 0.011015 0.002034
0.015898 0.010459 -0.004646
0.017661 0.013539 -0.000629
0.016978 0.010106 -0.002915
0.015377 0.009286 -0.005084
0.017474 0.010865 -0.000476
0.016413 0.009266 -0.003934
0.015362 0.009823 0.004455
0.015751 0.012435 0.004252
0.016927 0.009396 0.002035
0.016867 0.012287 0.002542
0.017489 0.012983 -0.001849
0.017079 0.011801 -0.002947
0.017372 0.011070 -0.001837
0.016433 0.013496 0.003431
0.017328 0.009910 0.000545
0.015910 0.011868 -0.004717
0.016791 0.013721 -0.003769
0.015375 0.012952 -0.005268
0.017100 0.013489 0.002171
0.015011 0.011405 0.004823
0.074373 0.010454 0.003164
0.073797 0.010330 0.001954
0.073211 0.012337 0.002942
0.074007 0.009286 0.000866
0.072452 0.012794 -0.002848
0.073742 0.012361 -0.004488
0.071913 0.012916 -0.000658
0.073291 0.011579 -0.003287
0.074218 0.009663 -0.003125
0.072827 0.011175 -0.000246
0.074732 0.012483 -0.005338
0.073188 0.010969 -0.002146
0.072758 0.011754 0.001163
0.074002 0.012586 0.004062
0.072811 0.013525 -0.004089
0.074854 0.011260 0.004233
0.073673 0.009744 -0.001645
0.074518 0.009349 0.002375
0.072398 0.012883 0.001872
0.071517 0.013599 -0.001689
0.074293 0.011026 -0.004286
0.073339 0.010503 0.000764
0.079601 0.011108 0.006083
0.077244 0.010719 -0.006037
0.077056 0.011831 0.005712
0.077493 0.010622 0.005644
0.078853 0.009528 0.005934
0.075781 0.009907 0.004425
0.076525 0.012359 -0.006068
0.078066 0.012092 -0.006248
0.078865 0.013696 -0.006040
0.077811 0.009549 -0.006055
0.075136 0.013200 0.005211
0.076524 0.009427 -0.005495
0.079701 0.010283 -0.006147
0.078380 0.011760 0.006002
0.076874 0.013395 0.005911
0.079775 0.011733 -0.006058
0.075324 0.010464 -0.004946
0.079978 0.012978 -0.005749
0.075884 0.011614 0.005133
0.007577 0.017702 -0.000802
0.007843 0.016612 0.003209
0.007178 0.014986 -0.001939
0.009117 0.016720 0.004789
0.008780 0.017818 0.004188
0.009791 0.017678 -0.004772
0.008765 0.015040 0.004861
0.009181 0.018812 -0.003803
0.007463 0.015198 0.003181
0.006841 0.014792 0.001371
0.007156 0.016292 -0.000480
0.007990 0.016564 -0.002891
0.009025 0.014500 -0.004759
0.008178 0.015443 -0.003620
0.008385 0.018355 -0.002753
0.009125 0.015984 -0.004581
0.007490 0.017735 0.000638
0.008085 0.018098 0.002967
0.008689 0.017417 -0.003632
0.007314 0.016631 0.001709
0.011121 0.018794 -0.005524
0.011778 0.018124 0.005957
0.011502 0.015224 -0.006050
0.014919 0.016887 -0.005952
0.012180 0.016638 -0.006102
0.012687 0.014480 -0.006239
0.010325 0.014672 0.005831
0.014331 0.018058 0.005866
0.012114 0.018075 -0.006033
0.012942 0.014476 0.005960
0.010457 0.017908 0.005497
0.014069 0.016430 0.005798
0.013486 0.016584 -0.006212
0.010215 0.016486 0.005559
0.010409 0.016478 -0.005461
0.014209 0.014444 -0.005990
0.011455 0.015552 0.006010
0.013550 0.018069 -0.006243
0.010083 0.015235 -0.005460
0.014124 0.015040 0.005620
0.012395 0.016787 0.006098
0.017723 0.014337 0.000880
0.016677 0.015057 -0.004461
0.018036 0.015125 -0.001211
0.017884 0.017245 0.002567
0.017121 0.016555 -0.004392
0.018464 0.016609 -0.000383
0.017160 0.016975 0.003607
0.018149 0.016416 0.001458
0.018132 0.017331 -0.003084
0.016142 0.017044 0.004697
0.017416 0.015526 -0.003511
0.017473 0.018012 -0.004504
0.017937 0.018673 0.003465
0.015099 0.014370 0.004990
0.015852 0.015502 0.004619
0.015479 0.014455 -0.005390
0.018563 0.017347 -0.001824
0.017553 0.014489 -0.002600
0.016770 0.015522 0.003639
0.015821 0.015948 -0.005422
0.018598 0.017635 0.001166
0.018120 0.015309 0.000079
0.016266 0.017530 -0.005393
0.018023 0.015883 -0.002252
0.018730 0.018497 -0.002935
0.017472 0.015119 0.002269
0.069921 0.016487 -0.002742
0.069388 0.017002 0.001598
0.068745 0.018552 0.002826
0.069707 0.016185 0.000249
0.069542 0.016423 -0.001221
0.067830 0.018304 -0.000073
0.069738 0.017814 0.003257
0.068914 0.017075 -0.000312
0.069350 0.018040 -0.003883
0.068809 0.017578 -0.002263
0.067953 0.018268 -0.001473
0.072277 0.015809 -0.005031
0.073000 0.013880 0.003731
0.070452 0.015398 0.001160
0.070661 0.014969 -0.001900
0.072154 0.017796 -0.005713
0.073334 0.017287 -0.006043
0.071015 0.014185 -0.000029
0.072524 0.016911 0.005028
0.071490 0.014804 0.002580
0.071254 0.018504 0.004966
0.073052 0.018706 -0.006134
0.070733 0.017989 -0.005053
0.071404 0.017249 0.004437
0.071269 0.016670 -0.004712
0.071881 0.014242 -0.003510
0.074328 0.018460 -0.006244
0.073926 0.015898 0.005398
0.074212 0.016037 -0.006042
0.074146 0.014372 -0.005570
0.071502 0.015355 -0.004021
0.072910 0.015135 0.004469
0.073533 0.017877 0.005756
0.070774 0.015911 0.002669
0.071638 0.015878 0.003739
0.070266 0.017170 -0.004082
0.074135 0.013963 0.004780
0.071418 0.013999 0.001211
0.070303 0.015269 -0.000640
0.077034 0.015558 0.006088
0.077695 0.014372 -0.006151
0.075816 0.018787 -0.006025
0.078282 0.016725 0.005807
0.075587 0.014598 -0.006101
0.076722 0.018772 0.005865
0.077339 0.017050 -0.005903
0.079451 0.017642 0.004946
0.077073 0.018293 -0.005685
0.078487 0.018147 -0.005005
0.076839 0.015540 -0.006182
0.079319 0.014079 0.005910
0.078695 0.015086 -0.005821
0.075102 0.018345 0.006076
0.075263 0.016098 0.005908
0.077919 0.014411 0.006079
0.075552 0.016660 -0.006253
0.078747 0.016651 -0.005463
0.079850 0.016617 -0.004703
0.079729 0.017819 -0.004235
0.078856 0.015573 0.005828
0.075093 0.014650 0.005530
0.076125 0.017436 0.006066
0.077855 0.017961 0.005646
0.008545 0.020960 0.001984
0.008926 0.019914 -0.003065
0.008410 0.020665 -0.001195
0.007929 0.019469 0.000526
0.009402 0.022582 -0.001738
0.008285 0.019413 -0.001914
0.008469 0.021251 0.000534
0.009604 0.020892 -0.003546
0.009909 0.020696 0.004514
0.008518 0.019430 0.003136
0.009311 0.023009 -0.000358
0.007927 0.018929 0.001787
0.009818 0.023181 0.002672
0.009229 0.021353 0.003234
0.009324 0.022995 0.001182
0.009145 0.022094 0.002183
0.008849 0.021836 -0.000787
0.009667 0.019019 0.004746
0.009839 0.022232 -0.002997
0.013652 0.020997 -0.006097
0.010350 0.021940 0.004393
0.012829 0.021923 0.005892
0.014015 0.022525 -0.006048
0.011006 0.021057 0.005274
0.010334 0.020501 -0.004575
0.012178 0.020658 0.005874
0.013622 0.020331 0.006104
0.011635 0.022796 -0.004738
0.010722 0.022817 -0.003808
0.013973 0.019469 -0.006235
0.014458 0.021710 0.006072
0.011839 0.023701 0.004941
0.010078 0.018999 -0.004724
0.012598 0.019963 -0.005985
0.013926 0.023091 0.005961
0.012779 0.022002 -0.005668
0.013274 0.019064 0.006076
0.010974 0.019369 0.005566
0.011537 0.021152 -0.005236
0.011420 0.022439 0.005082
0.012845 0.023317 -0.005449
0.019448 0.018954 -0.000345
0.016339 0.022402 -0.006129
0.018357 0.019660 -0.004396
0.015348 0.020263 0.005824
0.019126 0.022188 0.004211
0.015342 0.019020 -0.006045
0.019016 0.021548 -0.004628
0.015963 0.020189 -0.006036
0.017102 0.020366 0.004994
0.016565 0.021771 0.005612
0.015195 0.021697 -0.006238
0.015069 0.023857 -0.006110
0.019514 0.020850 -0.003517
0.016151 0.019018 0.005235
0.019680 0.023052 -0.004950
0.015356 0.022641 0.006011
0.017159 0.020663 -0.005617
0.019988 0.020660 -0.002207
0.019222 0.018973 0.001195
0.018369 0.022822 0.005041
0.018061 0.021541 0.004692
0.018749 0.019017 0.002425
0.016646 0.023028 0.005831
0.018718 0.020634 0.003633
0.017098 0.019261 -0.005305
0.019639 0.021110 0.002642
0.018343 0.022788 -0.005619
0.019637 0.019522 -0.001626
0.019747 0.020156 0.001343
0.021895 0.023582 0.001759
0.021048 0.023529 -0.003981
0.020622 0.022301 -0.003379
0.021477 0.022444 0.000270
0.020412 0.021138 0.000822
0.021144 0.022396 0.001561
0.020422 0.022731 0.003220
0.020754 0.021459 -0.001418
0.020181 0.020561 -0.000697
0.021534 0.023079 -0.002670
0.021807 0.022877 -0.000950
0.064706 0.021623 -0.001886
0.064493 0.021851 0.000844
0.063729 0.022945 0.001963
0.063264 0.022685 -0.000137
0.064562 0.022902 0.003083
0.064078 0.022729 -0.003147
0.063153 0.022861 -0.001567
0.064326 0.023584 -0.004478
0.062483 0.023621 -0.002378
0.064726 0.021447 -0.000606
0.069200 0.020377 -0.005436
0.066701 0.019869 0.001015
0.067056 0.023316 0.005182
0.065236 0.021639 0.002044
0.066213 0.022768 0.004382
0.066088 0.023428 -0.005438
0.065479 0.020785 0.000175
0.067264 0.019238 -0.002024
0.069844 0.018882 0.004296
0.069462 0.019179 -0.004884
0.067386 0.022261 -0.005447
0.069513 0.023465 0.005921
0.067905 0.020895 0.004134
0.066537 0.020380 -0.002925
0.067769 0.019029 0.001856
0.066796 0.019546 -0.000704
0.067221 0.020396 0.003025
0.065770 0.021324 -0.003336
0.068464 0.022237 0.005283
0.068031 0.018972 -0.003264
0.068546 0.019645 0.003655
0.067861 0.020200 -0.004355
0.065713 0.020582 -0.001245
0.066764 0.021306 -0.004416
0.068335 0.022993 -0.006018
0.065773 0.022342 -0.004517
0.066509 0.021683 0.003643
0.068895 0.021644 -0.005717
0.066361 0.020640 0.002095
0.069216 0.021148 0.005134
0.074809 0.019945 -0.006066
0.072274 0.019201 0.005655
0.070121 0.022851 -0.006208
0.070017 0.020010 0.005015
0.073795 0.022382 -0.005759
0.074164 0.022092 0.005882
0.074592 0.021234 -0.005817
0.071791 0.020469 0.005874
0.070266 0.021205 -0.006057
0.070562 0.022015 0.005892
0.070795 0.023589 0.006061
0.071388 0.022417 -0.006218
0.074504 0.019495 0.006094
0.072080 0.022044 0.006062
0.072545 0.023117 -0.005969
0.073482 0.020485 -0.006166
0.071542 0.020098 -0.006096
0.073247 0.021168 0.006073
0.073330 0.023422 0.005770
0.072618 0.021656 -0.006158
0.077373 0.023332 -0.002090
0.075226 0.021084 0.005813
0.078585 0.019633 -0.004116
0.079611 0.020926 -0.000428
0.078085 0.021971 -0.002689
0.079949 0.020063 0.002123
0.077788 0.023483 -0.000350
0.076540 0.021897 -0.004579
0.078683 0.021656 0.002581
0.077151 0.023662 0.002579
0.075407 0.022485 0.005311
0.079262 0.018921 0.004414
0.076258 0.023782 0.003750
0.079048 0.021073 -0.002038
0.078589 0.022280 -0.000849
0.076424 0.020716 -0.005207
0.077830 0.019372 0.005264
0.076565 0.022684 0.004431
0.077158 0.021080 0.004882
0.078902 0.022000 0.000451
0.075380 0.022610 -0.004909
0.076559 0.020063 0.005584
0.078659 0.020731 0.003672
0.076689 0.023141 -0.003410
0.075121 0.023873 -0.004350
0.077859 0.023384 0.001000
0.077755 0.022298 0.003441
0.077428 0.019399 -0.005146
0.079553 0.021001 0.001072
0.077716 0.021178 -0.003918
0.079559 0.019358 -0.003256
0.014346 0.026093 -0.005352
0.012611 0.024560 -0.004860
0.011637 0.024963 0.004279
0.011291 0.026952 -0.000013
0.012049 0.026312 0.003748
0.013530 0.027876 -0.003644
0.013795 0.028629 0.003835
0.011494 0.026239 -0.002372
0.012177 0.026088 -0.003572
0.010570 0.023942 0.003421
0.010010 0.023957 -0.001629
0.010619 0.023896 -0.002999
0.012957 0.025839 -0.004552
0.014073 0.026002 0.005468
0.012049 0.027882 0.001296
0.012867 0.028115 -0.002414
0.013884 0.024602 -0.005611
0.010912 0.025275 0.002999
0.011596 0.024086 -0.004150
0.013825 0.024423 0.005810
0.011441 0.026593 0.002348
0.010005 0.024356 0.001590
0.010475 0.025535 0.000499
0.010546 0.025242 -0.001301
0.012837 0.028228 0.002916
0.012073 0.028010 -0.000184
0.011158 0.025126 -0.002921
0.013007 0.027042 0.004297
0.014807 0.027034 0.005457
0.012589 0.024718 0.005170
0.011860 0.027288 -0.001583
0.010010 0.024564 -0.000200
0.014507 0.028693 -0.004065
0.016686 0.024020 -0.006220
0.019863 0.028003 0.005945
0.017574 0.027632 -0.006084
0.019629 0.026310 -0.006063
0.015732 0.023887 0.006050
0.019698 0.024660 -0.005622
0.016176 0.026937 0.005927
0.018050 0.023997 -0.006051
0.019120 0.027778 -0.006235
0.016435 0.028552 -0.005505
0.015419 0.025593 0.005958
0.019277 0.024101 0.005049
0.017784 0.023947 0.005660
0.018690 0.025364 0.005698
0.015430 0.028182 0.005375
0.018007 0.026286 -0.006253
0.017903 0.027400 0.006096
0.015530 0.025179 -0.006051
0.016548 0.026821 -0.006003
0.015223 0.027606 -0.005214
0.019083 0.026774 0.005896
0.016826 0.025768 0.006078
0.021383 0.027815 -0.006055
0.024409 0.028303 0.004424
0.021923 0.025146 0.003638
0.024004 0.025921 -0.003144
0.022417 0.024218 -0.002672
0.024004 0.025233 -0.000733
0.021755 0.026641 -0.005524
0.024154 0.026607 0.003005
0.020838 0.025123 0.004508
0.021372 0.027716 0.005525
0.024172 0.027124 -0.004385
0.023002 0.028000 -0.005596
0.023624 0.025660 0.002257
0.022996 0.024288 -0.000812
0.022262 0.025419 -0.004483
0.022857 0.028723 0.005393
0.020767 0.024447 -0.004892
0.023079 0.026282 0.003686
0.020303 0.026208 0.005357
0.023806 0.025243 0.000897
0.023731 0.025203 -0.002053
0.020780 0.023963 0.003799
0.022809 0.027422 0.004745
0.024972 0.026780 0.001995
0.020869 0.025685 -0.005483
0.022902 0.024302 0.000548
0.022751 0.024720 0.002068
0.022915 0.026512 -0.004794
0.021870 0.026420 0.004676
0.026689 0.027512 0.000844
0.027663 0.028539 -0.003047
0.027015 0.028768 0.003153
0.028905 0.028796 -0.001808
0.026162 0.027649 0.002154
0.027675 0.028487 0.001893
0.028114 0.028231 -0.000157
0.025260 0.027847 0.003394
0.025721 0.026773 -0.001325
0.026751 0.028716 -0.004157
0.027174 0.027717 -0.001486
0.026054 0.027491 -0.003026
0.025009 0.028109 -0.004676
0.025136 0.026433 0.000626
0.053414 0.028358 -0.000291
0.054770 0.028346 -0.003172
0.053838 0.028430 0.001268
0.053447 0.028651 -0.002382
0.052501 0.028835 0.000528
0.054260 0.028053 -0.001261
0.058135 0.028431 -0.005092
0.057936 0.026245 -0.000620
0.059429 0.027457 -0.004912
0.059177 0.026983 0.003479
0.057735 0.027383 0.002959
0.058928 0.026565 -0.003601
0.056464 0.027253 0.000979
0.058127 0.026412 0.001420
0.057323 0.027545 -0.003691
0.056400 0.028471 -0.004392
0.059396 0.026032 0.002160
0.055530 0.028430 0.002948
0.056137 0.027220 -0.000691
0.059664 0.025242 -0.000339
0.055904 0.027472 -0.001991
0.059004 0.025785 -0.001910
0.058006 0.028329 0.004258
0.056047 0.027855 -0.003251
0.056895 0.028302 0.003528
0.059091 0.025746 0.000830
0.055283 0.027954 0.001709
0.059086 0.028792 0.005037
0.055129 0.027657 0.000139
0.059862 0.027801 0.004648
0.057102 0.026851 -0.001890
0.063965 0.024680 -0.005089
0.060460 0.026439 -0.004561
0.061746 0.027537 -0.005742
0.061746 0.024512 -0.003249
0.060073 0.025093 -0.001689
0.064003 0.026599 -0.006011
0.061818 0.023938 0.000822
0.060378 0.028774 0.005417
0.062834 0.028432 -0.006163
0.064190 0.026800 0.005618
0.061387 0.024112 -0.001018
0.061654 0.027168 0.004928
0.063285 0.023935 0.003122
0.060464 0.026766 0.004079
0.062723 0.024458 -0.004109
0.063007 0.025896 0.004730
0.061720 0.028325 0.005547
0.062916 0.027162 0.005408
0.061100 0.025208 0.002601
0.063916 0.024729 0.004411
0.060240 0.025164 0.001221
0.062969 0.025601 -0.005240
0.062256 0.024942 0.003401
0.063970 0.028048 0.005917
0.060504 0.025298 -0.002979
0.061842 0.026165 -0.005050
0.060211 0.028312 -0.005703
0.064857 0.025594 0.005350
0.064314 0.028368 -0.006253
0.061697 0.026026 0.004130
0.067374 0.028098 -0.005934
0.068163 0.024449 0.005900
0.065219 0.024145 0.004661
0.065516 0.027079 0.005938
0.068580 0.024307 -0.006210
0.066627 0.025851 0.005889
0.069118 0.026515 -0.005962
0.069314 0.025470 0.006059
0.065518 0.027744 -0.006223
0.068660 0.028221 -0.005534
0.067234 0.026267 -0.006242
0.066945 0.024321 -0.006029
0.068109 0.026392 0.006078
0.065314 0.028331 0.006067
0.065879 0.025522 -0.006080
0.069947 0.027633 0.005466
0.067701 0.028632 0.005806
0.066869 0.027114 0.006058
0.066328 0.024576 0.005410
0.068693 0.027702 0.005857
0.065161 0.024452 -0.005509
0.074493 0.027322 -0.000064
0.072928 0.028662 0.001255
0.073601 0.027349 0.003066
0.074629 0.026300 0.003077
0.071982 0.024297 -0.005810
0.072404 0.027345 0.004336
0.071314 0.024773 0.005929
0.071679 0.027967 -0.003854
0.072195 0.026879 -0.004453
0.074677 0.025425 -0.003442
0.070734 0.025938 0.005818
0.073479 0.026865 -0.003303
0.073312 0.027947 -0.001814
0.073298 0.028378 -0.000255
0.072089 0.025789 -0.005172
0.073544 0.025576 -0.004452
0.070717 0.024868 -0.006021
0.071452 0.028260 0.004316
0.073939 0.024850 0.004949
0.073909 0.027662 0.001716
0.071202 0.027076 0.005257
0.072690 0.025033 0.005489
0.073377 0.026167 0.004527
0.070043 0.028001 -0.004974
0.072525 0.028835 -0.001335
0.074349 0.027096 -0.001574
0.073827 0.024135 -0.005060
0.070602 0.026525 -0.005502
0.072681 0.027842 -0.002984
0.072186 0.026181 0.005258
0.077096 0.024306 0.000409
0.075567 0.026066 0.000447
0.075030 0.024160 0.004609
0.076305 0.025154 0.001278
0.075403 0.026092 -0.000853
0.076313 0.024968 -0.001122
0.076127 0.024826 0.002599
0.075887 0.024268 -0.003231
0.075004 0.025231 0.003758
0.075255 0.026212 0.001787
0.075125 0.025914 -0.002103
0.014181 0.030835 0.001293
0.013062 0.029046 -0.001275
0.014593 0.030981 -0.001688
0.014050 0.029465 -0.002806
0.014463 0.030608 0.002663
0.014760 0.029642 0.004134
0.013535 0.029411 0.002494
0.013585 0.030049 -0.000366
0.012814 0.028893 0.001565
0.012808 0.029042 0.000085
0.014337 0.031128 0.000002
0.016892 0.033379 0.001640
0.015998 0.030059 0.004823
0.015485 0.030859 0.003732
0.017474 0.031973 0.004481
0.015973 0.031717 -0.002639
0.018597 0.033856 -0.003211
0.019974 0.029887 0.006043
0.017348 0.033232 -0.002280
0.019733 0.031736 0.005681
0.018542 0.032684 -0.004300
0.019494 0.033373 0.004819
0.015275 0.031971 -0.000289
0.018629 0.033778 0.003799
0.016454 0.032252 0.003171
0.019449 0.029944 -0.006017
0.015527 0.029261 -0.004616
0.018106 0.031003 0.005402
0.016565 0.030334 -0.004647
0.016338 0.032982 0.000520
0.016721 0.033183 -0.000940
0.015323 0.031976 0.001121
0.018405 0.029045 -0.005996
0.017672 0.028960 0.005914
0.017458 0.033135 0.003240
0.015744 0.030640 -0.003707
0.016385 0.029039 0.005504
0.017872 0.030586 -0.005228
0.015355 0.031552 0.002542
0.017220 0.032076 -0.003669
0.018991 0.031502 -0.005319
0.020850 0.030291 -0.006148
0.022445 0.030997 0.006021
0.021571 0.031520 -0.006089
0.021015 0.031935 0.005930
0.023263 0.033720 0.005878
0.024483 0.029837 -0.005878
0.021102 0.029205 0.005953
0.023435 0.033114 -0.006001
0.023297 0.029925 0.005692
0.023733 0.032192 0.006060
0.024220 0.031355 -0.006210
0.022634 0.030830 -0.006259
0.021691 0.033156 -0.005561
0.022768 0.029443 -0.006087
0.021088 0.030666 0.006072
0.022289 0.032572 0.005950
0.020241 0.028959 -0.006226
0.020259 0.031981 -0.005610
0.020608 0.033493 -0.004951
0.024813 0.030890 0.005691
0.024626 0.032611 -0.006191
0.021308 0.033338 0.005539
0.029456 0.031357 0.004620
0.025244 0.032616 0.005999
0.029098 0.033110 -0.006112
0.028484 0.030569 0.004310
0.027141 0.032009 0.005569
0.027025 0.030083 0.004501
0.029329 0.033157 0.005678
0.028971 0.029680 0.002971
0.027206 0.031356 -0.005790
0.028930 0.029099 0.001762
0.028783 0.029294 -0.003328
0.029436 0.028893 -0.000428
0.025819 0.028922 0.004203
0.029947 0.029398 -0.002379
0.028356 0.031678 0.005199
0.028285 0.029897 -0.004499
0.029082 0.031129 -0.005270
0.029874 0.029215 0.000752
0.028138 0.032254 -0.006021
0.026252 0.032442 -0.006181
0.027959 0.033267 0.005898
0.026957 0.030160 -0.005299
0.025640 0.029252 -0.005248
0.025863 0.030129 0.005041
0.025656 0.030765 -0.005949
0.030389 0.030969 -0.004690
0.032540 0.031588 -0.004621
0.034013 0.033493 0.005256
0.033787 0.030517 -0.002110
0.031290 0.031367 0.003919
0.033140 0.030945 0.002609
0.033786 0.031947 0.003928
0.031745 0.033808 0.005596
0.033609 0.030930 -0.003371
0.031852 0.030011 -0.001889
0.030787 0.029459 -0.000769
0.031100 0.029710 0.000771
0.032172 0.033599 -0.005993
0.034369 0.032663 -0.005263
0.031721 0.030418 -0.003240
0.032685 0.030096 0.000010
0.034301 0.030526 0.000580
0.032505 0.032206 0.004478
0.034233 0.031671 -0.004342
0.032558 0.030303 0.001260
0.030705 0.030247 0.002691
0.030471 0.030070 -0.003469
0.031111 0.032015 -0.005331
0.033598 0.033598 -0.005864
0.030503 0.032405 0.005088
0.030454 0.033027 -0.005952
0.032916 0.032589 -0.005452
0.034161 0.030415 -0.000810
0.034832 0.032741 0.004527
0.031908 0.030569 0.002340
0.035257 0.031844 0.003398
0.038523 0.031026 -0.001932
0.036884 0.031279 0.001968
0.035536 0.030966 0.001569
0.035709 0.032224 -0.004633
0.038557 0.031731 0.002857
0.039986 0.033143 0.004546
0.038568 0.032515 -0.004753
0.038291 0.031209 0.001678
0.037309 0.032160 -0.004473
0.039277 0.031434 -0.003172
0.036677 0.031030 -0.002221
0.035502 0.030689 0.000159
0.038744 0.032760 0.004276
0.037677 0.031339 -0.003112
0.035385 0.030677 -0.001161
0.037195 0.033199 -0.005434
0.038939 0.030911 0.000038
0.036103 0.032784 0.004397
0.037227 0.032369 0.003847
0.037330 0.030829 -0.000381
0.035536 0.033168 -0.005474
0.035135 0.030945 -0.002621
0.036471 0.031601 -0.003642
0.039619 0.031423 0.002018
0.043388 0.032442 -0.004804
0.041860 0.030839 -0.000222
0.040292 0.032012 0.003187
0.040681 0.031545 -0.003343
0.044187 0.032409 0.004066
0.043783 0.030869 -0.001972
0.044521 0.030669 -0.000722
0.042922 0.030883 0.000618
0.043380 0.033506 -0.005625
0.040437 0.032323 -0.004523
0.041733 0.031717 0.002867
0.042198 0.031468 -0.003383
0.044128 0.030886 0.001037
0.040690 0.031155 0.001278
0.041964 0.032178 -0.004484
0.043190 0.031789 0.003147
0.043727 0.033532 0.005045
0.042891 0.032620 0.004246
0.041518 0.032560 0.004036
0.041825 0.033599 0.004995
0.040266 0.030985 -0.001022
0.041834 0.033849 -0.005735
0.042496 0.030970 -0.002002
0.044976 0.031723 -0.004164
0.042625 0.031247 0.001927
0.043567 0.031444 -0.003483
0.044275 0.031281 0.002267
0.044807 0.031095 -0.003053
0.047986 0.032055 0.004386
0.049542 0.030446 -0.003603
0.048457 0.032949 0.005174
0.048652 0.030002 -0.001792
0.046711 0.033714 0.005404
0.047531 0.031464 -0.004474
0.049987 0.031730 0.004506
0.045968 0.030630 0.001277
0.046165 0.031922 0.003846
0.045304 0.032890 -0.005395
0.048452 0.032121 -0.005225
0.047727 0.033263 -0.005806
0.048816 0.030745 0.002857
0.045472 0.030645 -0.001983
0.047795 0.030452 0.001777
0.045354 0.033181 0.004895
0.047254 0.030652 -0.003063
0.046343 0.031038 0.002497
0.049553 0.032745 -0.005735
0.049859 0.033030 0.005384
0.047854 0.030121 0.000368
0.047361 0.030180 -0.001162
0.047540 0.031055 0.003027
0.049897 0.030123 0.002217
0.046311 0.031817 -0.004594
0.046085 0.031039 -0.003403
0.049300 0.029868 0.000888
0.046511 0.030284 -0.000172
0.054791 0.033073 -0.006237
0.054978 0.032127 0.005714
0.053140 0.032922 -0.006136
0.052466 0.029669 0.002917
0.054112 0.032010 -0.006035
0.052238 0.031059 -0.005224
0.053513 0.031835 0.005335
0.051886 0.028979 -0.001392
0.051704 0.032737 -0.006026
0.053608 0.033565 0.005943
0.052326 0.033866 0.005933
0.054266 0.030522 -0.005384
0.053163 0.030100 -0.004633
0.051068 0.030011 0.002747
0.050849 0.029860 -0.003313
0.054550 0.029496 -0.004613
0.050103 0.029545 -0.001742
0.051149 0.032067 0.005035
0.050063 0.029455 -0.000102
0.051311 0.029370 0.001438
0.053489 0.029219 -0.003652
0.050703 0.031228 -0.004964
0.054979 0.033636 0.006023
0.052162 0.029728 -0.003703
0.051408 0.030964 0.004196
0.052646 0.029103 0.001768
0.053734 0.030341 0.004336
0.050325 0.030768 0.003537
0.053634 0.029143 0.002738
0.054808 0.029636 0.004067
0.055694 0.030882 0.005315
0.058193 0.031257 -0.006185
0.057667 0.029651 -0.005674
0.057211 0.031655 0.005884
0.059570 0.031116 0.005965
0.056322 0.029518 0.004557
0.058383 0.033399 -0.006028
0.058542 0.030390 0.005646
0.056737 0.031535 -0.006145
0.059069 0.029529 -0.005944
0.056291 0.029677 -0.005403
0.057223 0.030386 0.005386
0.056333 0.032693 0.005973
0.059598 0.032792 -0.006047
0.059767 0.032894 0.005953
0.058383 0.032509 0.006063
0.056053 0.032833 -0.006257
0.055523 0.030707 -0.005734
0.060498 0.029986 0.005886
0.064507 0.029648 -0.006085
0.062981 0.029349 0.005986
0.060443 0.029599 -0.006134
0.063392 0.033344 -0.004618
0.064631 0.031487 0.005563
0.060842 0.032643 -0.005827
0.061526 0.030817 0.006065
0.062265 0.030697 -0.006125
0.063591 0.033379 0.004821
0.061982 0.033744 -0.004899
0.060255 0.031271 -0.006206
0.064886 0.033158 0.004411
0.063157 0.031634 0.005863
0.061189 0.032532 0.005893
0.064624 0.029790 0.005985
0.062308 0.032489 -0.005567
0.062538 0.032929 0.005472
0.064153 0.030987 -0.005736
0.063856 0.032252 -0.005207
0.061600 0.029002 -0.006144
0.067030 0.033446 0.000891
0.066652 0.031834 -0.004047
0.068878 0.032069 -0.000488
0.065449 0.030755 -0.005476
0.068721 0.029263 0.005275
0.067439 0.032441 0.003132
0.069654 0.030944 0.002963
0.065898 0.032253 0.004592
0.067102 0.032907 -0.002069
0.066784 0.030310 0.005414
0.068482 0.031674 0.003132
0.066300 0.029167 0.005916
0.068096 0.032702 0.000311
0.068462 0.032317 0.001602
0.065922 0.033655 0.002971
0.068445 0.031649 -0.002577
0.069972 0.029314 -0.004065
0.069500 0.031185 -0.002007
0.067918 0.030284 -0.004626
0.066114 0.029167 -0.005875
0.068267 0.030700 0.004463
0.065188 0.032402 -0.004548
0.065585 0.033227 -0.003389
0.066873 0.033260 0.002201
0.069477 0.030416 -0.003346
0.066710 0.030420 -0.005116
0.069428 0.031703 0.000692
0.066651 0.033612 -0.000889
0.067882 0.032682 -0.000999
0.067103 0.031607 0.004423
0.070406 0.029443 0.004074
0.070580 0.030822 0.001173
0.071849 0.028903 0.003135
0.070599 0.030312 -0.002037
0.071986 0.029510 0.001514
0.070552 0.030916 -0.000197
0.071620 0.029948 0.000134
0.071510 0.029337 -0.002276
0.070713 0.030256 0.002544
0.018787 0.034969 -0.001522
0.018824 0.034864 0.002408
0.018828 0.035264 0.000427
0.019801 0.035692 0.001857
0.017295 0.033913 0.000159
0.017925 0.034421 0.001348
0.017785 0.034096 -0.001291
0.024206 0.034303 -0.005743
0.021739 0.035053 -0.004313
0.024518 0.037061 0.004464
0.022752 0.037114 -0.002385
0.020485 0.035544 0.003237
0.023465 0.038263 0.000053
0.022319 0.037399 -0.000756
0.021125 0.036714 0.000795
0.022478 0.034852 0.005207
0.024787 0.037910 0.003493
0.021564 0.035413 0.004326
0.021377 0.036663 -0.001345
0.022401 0.036314 -0.003375
0.020516 0.036326 -0.000354
0.020936 0.036368 0.002006
0.024072 0.034843 0.005647
0.020586 0.034671 -0.003913
0.022279 0.037151 0.002225
0.020555 0.034245 0.004728
0.021145 0.035820 -0.002904
0.023671 0.035708 -0.004774
0.020131 0.035548 -0.002163
0.022941 0.035970 0.004576
0.023644 0.038027 -0.001727
0.023883 0.038073 0.002393
0.024515 0.036001 0.005295
0.022318 0.037486 0.000684
0.024928 0.037191 -0.004036
0.023555 0.037037 -0.003396
0.023081 0.037204 0.003244
0.022535 0.034384 -0.005193
0.021641 0.036308 0.003206
0.024161 0.038493 0.001213
0.026815 0.034134 0.006087
0.027498 0.035770 0.005895
0.025270 0.038857 -0.000908
0.027379 0.034407 -0.006153
0.025310 0.035512 -0.005524
0.029976 0.035762 0.006035
0.025165 0.034036 0.005997
0.028970 0.035908 -0.005985
0.026017 0.034407 -0.006073
0.028241 0.037616 0.005253
0.025449 0.038142 -0.003067
0.025698 0.035693 0.005656
0.025859 0.036739 -0.004826
0.026976 0.035562 -0.005785
0.029458 0.034563 -0.006244
0.025444 0.038766 0.002192
0.029170 0.038356 -0.004618
0.025914 0.037601 0.004483
0.028150 0.037319 -0.005097
0.026692 0.037737 -0.004237
0.027032 0.038209 0.004353
0.026854 0.037052 0.005264
0.028684 0.034334 0.006006
0.029431 0.037222 0.005653
0.028612 0.038619 0.004532
0.030431 0.038838 -0.004509
0.032211 0.038104 0.005542
0.031457 0.036970 -0.005847
0.034120 0.034741 0.005805
0.031035 0.037177 0.005873
0.033611 0.035912 0.006034
0.032076 0.036113 0.006054
0.033032 0.037222 -0.005877
0.030397 0.036192 -0.006076
0.030049 0.037741 -0.005327
0.030033 0.034487 0.005956
0.033900 0.036262 -0.006167
0.031767 0.035051 -0.006265
0.034048 0.034785 -0.006155
0.033877 0.038279 -0.005479
0.034220 0.037138 0.005972
0.030146 0.038271 0.005262
0.032707 0.034855 0.005905
0.031875 0.038244 -0.005208
0.031248 0.035082 0.005985
0.035119 0.035593 0.005944
0.035778 0.038703 0.005540
0.038593 0.034449 -0.006005
0.039884 0.035590 -0.006207
0.037939 0.037556 0.005951
0.035443 0.037100 -0.006088
0.037255 0.035344 -0.006186
0.039681 0.037416 -0.006069
0.039887 0.034240 -0.005885
0.037983 0.038846 0.005520
0.039294 0.035539 0.005903
0.035427 0.033899 0.005316
0.037976 0.037423 -0.006038
0.036109 0.038689 -0.005410
0.035093 0.035685 -0.006256
0.039093 0.036950 0.006052
0.035501 0.037327 0.005972
0.038604 0.035784 -0.006247
0.037785 0.035199 0.005834
0.039185 0.034292 0.005395
0.036748 0.034179 0.005395
0.036873 0.036111 0.006003
0.039996 0.038230 0.005870
0.035504 0.034432 -0.006065
0.041609 0.036596 -0.006178
0.041451 0.037251 0.006001
0.043497 0.037855 0.005890
0.044685 0.036320 -0.006189
0.042291 0.038062 -0.005740
0.044462 0.034618 0.005653
0.040841 0.038243 -0.005700
0.042937 0.036268 -0.006208
0.043903 0.037760 -0.005830
0.044546 0.034883 -0.006137
0.043042 0.034966 -0.006137
0.042275 0.035574 0.005913
0.040332 0.036293 0.006002
0.043029 0.036653 0.006082
0.044040 0.035854 0.005972
0.041317 0.035203 -0.006157
0.040775 0.034582 0.005524
0.047039 0.035988 0.006051
0.045980 0.036812 -0.006089
0.047388 0.034457 -0.006147
0.047210 0.037255 0.005910
0.048023 0.036577 -0.006069
0.049684 0.036629 -0.005930
0.045830 0.034082 -0.006026
0.045252 0.038021 0.005810
0.048398 0.034990 0.005942
0.045379 0.036691 0.006041
0.048139 0.037822 -0.005521
0.049532 0.038289 -0.005011
0.048386 0.038213 0.005449
0.049337 0.035276 -0.006228
0.049834 0.033950 -0.006147
0.046629 0.035633 -0.006248
0.046505 0.038432 0.005509
0.046931 0.038362 -0.005331
0.048353 0.036664 0.005970
0.046317 0.034908 0.005883
0.051600 0.034219 -0.006257
0.050949 0.038673 -0.004462
0.054418 0.038119 -0.003832
0.050124 0.036612 0.005930
0.054663 0.035874 0.005780
0.053212 0.036978 -0.005271
0.053890 0.034789 -0.006108
0.052187 0.035496 -0.006079
0.051806 0.035753 0.005981
0.050890 0.037601 0.005499
0.053955 0.038241 0.004358
0.051974 0.037625 -0.005041
0.050249 0.034208 0.005893
0.052551 0.037068 0.005519
0.054198 0.036135 -0.005580
0.050747 0.037448 -0.005461
0.052532 0.038381 0.004608
0.050045 0.038658 0.004968
0.053362 0.035832 0.005900
0.053890 0.037065 0.005329
0.051147 0.036221 -0.005939
0.055424 0.037258 0.004829
0.059949 0.037392 0.001328
0.058483 0.034258 0.005801
0.058172 0.036748 0.004309
0.057852 0.038284 0.001477
0.058324 0.037563 0.003028
0.059517 0.037156 0.002738
0.056878 0.036118 -0.004930
0.059565 0.037496 -0.000832
0.055739 0.037772 -0.003772
0.056004 0.038635 -0.002093
0.058110 0.035751 -0.004820
0.057478 0.038031 -0.002112
0.058424 0.037000 -0.003332
0.056417 0.035340 0.005711
0.058533 0.034727 -0.005449
0.058404 0.038051 -0.000533
0.055582 0.034415 -0.006078
0.056383 0.038759 0.001967
0.056830 0.037104 -0.004051
0.058681 0.035472 0.005190
0.059886 0.034200 0.005561
