ply
format ascii 1.0
element vertex 1708
property float x
property float y
property float z
end_header
0.052842 0.000054 0.006719
0.051791 -0.002627 -0.006616
0.056110 -0.001404 -0.006631
0.052840 -0.002725 -0.006544
0.055366 -0.002075 0.006570
0.051670 0.001083 0.006593
0.051519 0.001017 -0.006637
0.054748 0.002136 -0.006050
0.055710 -0.001400 -0.006652
0.052921 0.001146 0.006520
0.054690 0.001129 -0.006472
0.051468 -0.000429 0.006826
0.053758 0.002144 0.006078
0.053226 0.001794 0.006242
0.056014 0.001587 -0.006203
0.053676 -0.001905 -0.006671
0.054623 -0.002269 -0.006593
0.054023 -0.002331 -0.006604
0.052368 -0.001725 0.006725
0.053439 0.002234 -0.006061
0.051385 0.001806 -0.006314
0.051672 -0.001278 0.006805
0.052635 -0.002178 0.006656
0.053145 -0.000774 -0.006828
0.054705 0.000459 0.006604
0.055001 -0.001321 0.006690
0.053379 -0.000250 -0.006751
0.053712 0.000010 0.006696
0.053041 -0.002580 0.006590
0.054260 0.001065 -0.006516
0.052430 -0.002724 -0.006557
0.054299 -0.001651 0.006676
0.051527 -0.000569 -0.006853
0.051322 0.001372 0.006486
0.054087 0.000744 -0.006597
0.052472 0.001350 0.006453
0.054696 0.000584 -0.006597
0.051997 -0.001856 0.006718
0.052066 0.001903 -0.006249
0.055268 -0.001717 0.006624
0.055423 0.000258 -0.006601
0.052256 -0.001871 -0.006718
0.051958 0.002119 0.006154
0.054072 -0.001228 0.006739
0.055186 0.001834 0.006140
0.051404 -0.002282 0.006679
0.051811 -0.002580 0.006627
0.054446 0.001837 -0.006189
0.052791 -0.001263 -0.006781
0.051936 -0.000777 0.006857
0.054124 -0.000978 -0.006779
0.054922 0.000110 -0.006647
0.053135 0.000420 0.006662
0.056259 0.002215 0.005919
0.055018 -0.001708 -0.006647
0.053546 -0.000665 -0.006801
0.052345 -0.000822 -0.006853
0.056005 0.000450 0.006536
0.052846 0.001817 0.006246
0.053255 -0.002003 -0.006671
0.054295 0.001699 0.006242
0.055705 -0.000739 -0.006718
0.055262 -0.002459 -0.006536
0.055733 -0.002369 -0.006524
0.054160 -0.000156 -0.006713
0.055999 0.000909 0.006474
0.052216 0.000616 0.006666
0.054561 -0.001363 0.006706
0.054662 0.001372 0.006362
0.052939 0.000943 -0.006607
0.055679 0.001036 -0.006452
0.052351 -0.000040 -0.006756
0.053175 -0.002141 0.006644
0.055385 0.000424 0.006572
0.052557 -0.000627 0.006817
0.053833 0.001524 -0.006341
0.052453 -0.001102 0.006804
0.052938 0.002126 -0.006124
0.051739 -0.001545 -0.006776
0.056071 -0.002704 0.006414
0.055307 -0.000641 0.006715
0.054568 0.000828 0.006562
0.053270 -0.001362 -0.006754
0.052419 -0.001505 -0.006761
0.052092 0.001344 0.006470
0.051326 0.001814 0.006303
0.053191 -0.002567 -0.006599
0.052740 -0.001498 0.006743
0.055993 -0.000991 -0.006691
0.053683 -0.001137 0.006762
0.056050 -0.001563 0.006605
0.053110 -0.001467 0.006736
0.055093 0.001485 0.006290
0.052062 -0.001216 0.006801
0.054054 0.000238 0.006656
0.051303 -0.001092 0.006840
0.052927 -0.001853 0.006691
0.053752 -0.001157 -0.006766
0.052510 -0.000204 0.006763
0.054315 -0.002054 -0.006632
0.053528 -0.001688 0.006694
0.054534 -0.002274 0.006586
0.052457 0.001986 0.006191
0.052032 -0.001155 -0.006818
0.056283 -0.002364 0.006485
0.055684 -0.002321 0.006522
0.053555 -0.002088 0.006640
0.053129 0.002157 0.006096
0.055996 0.001839 0.006091
0.051638 -0.001685 0.006752
0.055879 0.002243 0.005931
0.051940 -0.000090 -0.006776
0.051573 -0.001018 -0.006850
0.051752 0.001385 -0.006475
0.054591 -0.000033 0.006673
0.052258 -0.000413 -0.006809
0.051746 0.000658 -0.006683
0.053104 0.001691 -0.006299
0.052721 0.001229 -0.006504
0.052726 -0.001965 -0.006692
0.055372 -0.001218 0.006684
0.053896 0.001823 0.006205
0.054283 0.001466 -0.006348
0.052354 0.000272 0.006706
0.055930 -0.000246 0.006630
0.054596 -0.000644 -0.006764
0.054538 -0.000418 0.006726
0.052034 0.000353 -0.006715
0.051532 0.000068 -0.006768
0.054881 -0.002608 -0.006523
0.051932 0.000084 0.006744
0.056081 -0.002613 -0.006458
0.051304 -0.002237 -0.006699
0.055717 -0.000661 0.006696
0.055489 0.002183 0.005979
0.052459 0.000946 -0.006622
0.054985 -0.000862 0.006752
0.054190 -0.000163 0.006703
0.055063 -0.002435 0.006538
0.053274 -0.001044 0.006787
0.053586 -0.000744 0.006799
0.054157 -0.000534 -0.006764
0.052423 -0.002284 -0.006659
0.053918 -0.001812 0.006666
0.054841 -0.001314 -0.006708
0.052525 0.000434 -0.006688
0.052925 -0.000899 0.006818
0.053692 0.001311 0.006425
0.055686 0.000571 -0.006546
0.051844 -0.002156 -0.006693
0.055730 -0.000107 -0.006633
0.055428 0.000810 0.006519
0.054666 0.001856 0.006162
0.055454 0.001668 -0.006203
0.054944 0.001572 -0.006273
0.055086 0.001947 -0.006109
0.054615 -0.000916 0.006764
0.055622 0.001363 0.006309
0.053262 0.000011 0.006711
0.056015 -0.002119 -0.006542
0.055120 0.001151 -0.006437
0.055390 -0.000267 0.006662
0.053513 0.000271 -0.006678
0.056090 0.001165 -0.006374
0.052833 -0.002327 -0.006641
0.052841 -0.000029 -0.006739
0.052654 0.001606 -0.006351
0.055933 -0.001157 0.006664
0.054256 -0.002021 0.006627
0.055013 -0.000986 -0.006742
0.055708 -0.001724 0.006600
0.051634 0.001579 0.006389
0.054920 0.001098 0.006459
0.055007 0.000704 0.006555
0.051929 -0.000321 0.006797
0.051310 -0.002663 -0.006615
0.055041 -0.000098 0.006658
0.055977 0.001956 -0.006052
0.052905 0.000487 -0.006669
0.053483 -0.002330 -0.006621
0.054126 -0.000722 0.006779
0.053820 0.001176 -0.006486
0.054680 -0.000215 -0.006703
0.053484 0.001697 -0.006282
0.055301 0.001154 0.006415
0.053429 0.000953 -0.006590
0.052993 0.001488 0.006377
0.052929 -0.001610 -0.006732
0.055702 0.001397 -0.006301
0.053809 0.000954 0.006567
0.055398 -0.001650 -0.006635
0.059621 -0.002642 -0.006261
0.056449 -0.001549 -0.006595
0.059411 -0.001364 -0.006468
0.060939 0.002160 0.005665
0.057881 -0.002592 -0.006373
0.061284 0.000262 0.006271
0.057826 -0.002051 0.006448
0.059632 0.001265 0.006112
0.060960 0.001019 0.006133
0.057366 -0.000739 0.006619
0.059898 -0.000511 0.006454
0.061044 -0.000965 0.006425
0.059499 0.001023 -0.006231
0.059215 0.000443 -0.006375
0.056408 0.000887 -0.006465
0.056395 -0.002031 -0.006535
0.059870 -0.001418 -0.006438
0.060369 -0.001548 -0.006395
0.056363 0.001491 0.006213
0.058179 0.000888 0.006354
0.056364 -0.001033 0.006658
0.059607 0.000696 0.006313
0.057050 -0.001472 -0.006574
0.058112 0.001404 -0.006156
0.057006 0.000494 0.006477
0.057442 -0.001259 0.006573
0.059836 0.000636 -0.006316
0.057062 0.001395 -0.006222
0.059238 0.002092 0.005795
0.057421 0.001288 -0.006244
0.058361 0.000007 -0.006478
0.058344 -0.002258 -0.006406
0.060952 0.001377 -0.005997
0.058700 0.001121 -0.006238
0.058015 -0.000847 -0.006607
0.056558 -0.000462 -0.006636
0.056823 -0.002408 0.006452
0.058170 -0.001449 0.006511
0.057642 -0.001229 -0.006576
0.060402 -0.002485 0.006260
0.060134 -0.000964 0.006475
0.059239 -0.000391 0.006473
0.059221 0.001278 -0.006142
0.060327 0.000610 0.006286
0.059292 -0.001222 0.006484
0.060547 -0.000635 0.006436
0.057091 -0.000110 0.006551
0.058962 0.001325 0.006127
0.059559 0.002204 -0.005738
0.059864 0.001614 -0.005964
0.061071 -0.002628 -0.006185
0.057813 0.001371 0.006177
0.058521 -0.002618 -0.006328
0.056954 -0.000964 0.006637
0.057215 0.001782 -0.006052
0.056551 -0.002537 -0.006460
0.056845 -0.000742 -0.006657
0.058045 0.000448 -0.006437
0.057378 -0.001791 0.006506
0.059979 0.000969 0.006214
0.059059 0.000931 0.006284
0.060135 -0.002092 -0.006336
0.060106 0.001745 0.005886
0.057364 -0.002227 0.006448
0.058188 0.000853 -0.006375
0.058098 0.002047 0.005880
0.058911 -0.000147 0.006459
0.057269 0.000938 0.006387
0.060706 0.001800 0.005828
0.059708 0.002058 0.005780
0.057775 -0.000870 0.006608
0.059231 -0.000050 -0.006440
0.058573 -0.001176 0.006527
0.058232 -0.001226 -0.006546
0.058827 -0.001943 0.006411
0.057833 0.000214 0.006469
0.058317 -0.000628 0.006554
0.056601 0.001264 -0.006303
0.057480 -0.002740 -0.006333
0.060584 0.001601 -0.005928
0.058643 -0.002394 0.006361
0.056939 -0.000338 -0.006599
0.057699 0.000947 -0.006369
0.060539 0.002239 0.005657
0.060990 -0.001506 -0.006366
0.058947 0.000740 -0.006350
0.057541 -0.002624 0.006369
0.060733 -0.002381 -0.006267
0.060585 -0.002040 -0.006319
0.060959 -0.000252 -0.006373
0.060630 -0.000249 0.006381
0.059244 0.001658 -0.005983
0.060205 0.001795 -0.005870
0.059972 0.000004 0.006383
0.059127 -0.001814 -0.006424
0.060022 0.001321 0.006067
0.061014 -0.002266 0.006254
0.060329 0.000969 -0.006205
0.058365 0.001786 -0.005982
0.058860 -0.001515 0.006467
0.060804 0.000322 -0.006307
0.056564 0.000227 0.006535
0.057137 -0.001874 -0.006517
0.057046 0.001770 0.006057
0.058302 0.000061 0.006464
0.058845 0.001657 0.005997
0.059861 -0.002608 0.006254
0.057324 -0.002261 -0.006457
0.060442 0.001278 0.006058
0.058418 -0.001824 0.006448
0.060041 0.001204 -0.006124
0.059454 -0.002166 -0.006361
0.059524 -0.000963 -0.006515
0.061104 -0.000909 -0.006436
0.058538 -0.001666 -0.006473
0.060558 -0.000394 -0.006415
0.056662 -0.001288 0.006609
0.057902 -0.002489 0.006386
0.059091 -0.002637 0.006282
0.057710 -0.000262 0.006538
0.059664 0.000283 -0.006373
0.057029 0.002199 0.005881
0.057536 -0.000684 -0.006613
0.060488 0.002142 -0.005708
0.059846 -0.000686 -0.006491
0.058810 -0.000189 -0.006480
0.056744 0.001611 -0.006150
0.061035 0.001619 0.005881
0.060977 -0.000582 0.006404
0.057986 0.001841 -0.005981
0.059295 -0.000848 0.006530
0.060463 0.000149 0.006338
0.060356 -0.002040 0.006320
0.060530 -0.002752 -0.006167
0.057929 -0.001610 -0.006512
0.060821 -0.002720 0.006156
0.057009 -0.001681 0.006540
0.057878 -0.000482 -0.006569
0.056748 -0.000452 0.006614
0.060642 -0.001220 -0.006424
0.058362 0.001346 0.006155
0.058723 0.000260 -0.006425
0.058248 -0.000360 -0.006533
0.059744 0.000318 0.006355
0.060799 0.000978 -0.006173
0.056902 0.000049 -0.006550
0.060172 0.000086 -0.006371
0.056923 0.001415 0.006211
0.056608 0.000780 0.006461
0.058668 -0.000431 0.006509
0.056671 0.001161 0.006330
0.061229 0.002183 -0.005640
0.056365 0.001783 -0.006101
0.056632 -0.001127 -0.006641
0.059725 0.001693 0.005930
0.057597 0.000606 0.006431
0.059233 0.000086 0.006411
0.056544 0.000374 -0.006526
0.057528 0.002149 -0.005881
0.059811 -0.001448 0.006428
0.058106 -0.001945 -0.006458
0.059064 -0.002240 -0.006371
0.060359 -0.001640 0.006374
0.056388 0.002147 -0.005949
0.060718 -0.001817 0.006331
0.056341 -0.000007 -0.006587
0.059298 -0.000454 -0.006489
0.059925 -0.002151 0.006328
0.056776 -0.001989 -0.006520
0.056828 0.000905 -0.006438
0.057334 0.001505 0.006150
0.057171 -0.002646 0.006380
0.059374 0.001521 0.006023
0.059764 -0.001037 0.006484
0.057620 -0.000112 -0.006533
0.058846 0.000577 0.006369
0.057505 0.000502 -0.006458
0.058456 0.000591 -0.006396
0.061006 0.000586 0.006250
0.058743 -0.001017 -0.006548
0.058405 0.000459 0.006407
0.057492 0.000048 0.006509
0.058130 -0.000285 0.006519
0.056358 -0.000503 0.006641
0.057719 -0.001603 0.006514
0.059968 0.002095 -0.005759
0.056788 0.002083 -0.005952
0.060761 -0.001379 0.006388
0.057759 0.000983 0.006339
0.059404 -0.002333 0.006330
0.058897 -0.000584 -0.006528
0.058386 -0.000716 -0.006572
0.056677 -0.001912 0.006525
0.057645 0.001715 0.006045
0.061097 0.000659 -0.006242
0.060089 -0.000304 -0.006428
0.058569 0.000943 0.006308
0.056439 -0.001596 0.006580
0.057724 0.001571 -0.006109
0.059587 -0.001928 0.006375
0.061100 -0.001572 0.006340
0.058663 0.001517 -0.006076
0.061204 -0.002187 -0.006261
0.058958 0.002129 -0.005804
0.057273 -0.001029 -0.006621
0.060833 0.000184 0.006314
0.060081 -0.002645 -0.006235
0.059072 -0.001191 -0.006508
0.061288 -0.001755 -0.006312
0.060475 0.000493 -0.006301
0.059319 -0.001629 0.006429
0.058075 0.001682 0.006033
0.057271 0.000021 -0.006534
0.060996 0.001901 -0.005776
0.058706 -0.002014 -0.006419
0.060755 -0.000808 -0.006459
0.059201 -0.002598 -0.006301
0.060305 -0.000803 -0.006482
0.058825 -0.000826 0.006552
0.058235 -0.002204 0.006407
0.057134 0.000406 -0.006490
0.058143 -0.001069 0.006563
0.058446 0.001833 0.005948
0.057187 0.000784 -0.006438
0.057537 -0.001868 -0.006497
0.059720 -0.000138 -0.006425
0.056626 0.001793 0.006073
0.060423 -0.001197 0.006429
0.060541 0.000007 -0.006362
0.059216 0.000515 0.006357
0.058302 -0.002575 0.006349
0.057972 0.000032 -0.006495
0.058788 0.002052 0.005837
0.059628 -0.001716 -0.006411
0.056325 -0.000750 -0.006686
0.059581 -0.000068 0.006413
0.057734 -0.002238 -0.006439
0.062711 0.001178 -0.005936
0.063164 0.000199 0.006140
0.065456 -0.002016 -0.005978
0.061922 -0.001172 -0.006343
0.062929 0.000938 0.006006
0.065587 0.001946 -0.005383
0.063456 0.001802 -0.005617
0.064605 0.000381 0.006009
0.066131 -0.002706 0.005764
0.062613 -0.002445 0.006115
0.062010 -0.000172 -0.006284
0.063065 0.001736 -0.005676
0.064426 0.001837 -0.005523
0.061556 -0.000734 -0.006392
0.061730 0.000974 0.006089
0.062404 0.001644 -0.005768
0.064846 -0.000808 0.006147
0.065231 -0.000146 0.006033
0.062743 0.000155 0.006177
0.064983 -0.001163 0.006115
0.062741 -0.001360 -0.006259
0.061306 -0.002001 0.006268
0.064666 0.000537 -0.005994
0.061833 0.000223 -0.006245
0.064113 -0.001095 0.006186
0.063889 -0.001659 0.006127
0.063426 -0.000761 -0.006258
0.062954 0.000336 -0.006148
0.063579 0.002191 -0.005446
0.065173 0.001397 0.005634
0.064484 -0.002268 0.006003
0.063979 -0.000326 -0.006159
0.061777 -0.001946 0.006241
0.061393 0.001483 0.005908
0.062264 -0.002255 0.006165
0.066048 0.002084 -0.005288
0.065868 -0.000457 0.006026
0.062825 -0.000873 0.006304
0.065499 0.002196 0.005262
0.063458 -0.001744 -0.006157
0.061447 -0.000603 0.006372
0.065908 -0.000485 -0.006037
0.062347 0.002049 -0.005604
0.064548 -0.000510 -0.006141
0.061480 -0.001534 0.006318
0.061928 0.000803 -0.006155
0.063171 -0.002657 -0.006016
0.063706 0.001745 0.005611
0.065262 -0.002478 -0.005931
0.064867 0.000670 0.005953
0.062699 0.002241 -0.005496
0.062395 -0.002085 -0.006189
0.064538 -0.000475 0.006126
0.063327 0.001914 0.005572
0.064006 -0.001967 -0.006089
0.061655 -0.002106 -0.006239
0.065802 0.001323 0.005613
0.065873 -0.002434 0.005882
0.065393 -0.001099 0.006094
0.065052 0.001293 -0.005697
0.061814 0.001636 -0.005819
0.063880 0.001072 0.005874
0.062789 -0.001647 0.006208
0.065586 -0.000710 0.006079
0.065020 0.001047 0.005791
0.063488 0.000831 0.006005
0.062390 -0.000248 -0.006266
0.061712 0.000071 0.006264
0.063536 -0.002033 0.006103
0.061301 -0.002663 0.006145
0.061567 0.000706 -0.006201
0.061361 -0.000052 -0.006316
0.065296 0.001823 0.005449
0.065239 0.002226 -0.005277
0.063373 0.001430 -0.005777
0.061843 -0.001133 0.006345
0.064433 0.001407 -0.005701
0.062660 -0.000207 0.006230
0.061378 0.002010 0.005691
0.065225 0.001710 -0.005511
0.065364 0.000207 0.005976
0.064345 -0.000874 -0.006204
0.064460 -0.001438 -0.006126
0.062784 -0.000889 -0.006318
0.063458 -0.000448 0.006203
0.063587 0.000653 -0.006059
0.064061 -0.000124 0.006116
0.065024 -0.002278 0.005964
0.064499 -0.001690 0.006079
0.061968 0.002157 -0.005591
0.062307 -0.000611 -0.006320
0.065652 -0.001215 -0.006069
0.066154 0.001512 0.005507
0.064878 0.000849 -0.005896
0.062051 0.001278 -0.005949
0.066195 -0.002135 0.005899
0.061832 -0.002492 -0.006177
0.064324 0.000344 -0.006045
0.062837 0.001932 0.005604
0.065929 -0.001604 0.005987
0.064088 -0.000506 0.006164
0.064088 0.002162 -0.005416
0.065963 -0.001105 0.006053
0.061706 0.001826 0.005740
0.062218 0.000778 0.006131
0.063985 0.001668 -0.005629
0.064562 0.000029 -0.006069
0.061361 0.001287 -0.006001
0.064123 -0.002341 -0.006031
0.064296 0.001787 0.005545
0.065606 -0.000721 -0.006090
0.063036 -0.002019 0.006141
0.063130 -0.001481 -0.006215
0.061587 0.001931 -0.005715
0.065546 0.000562 -0.005926
0.065409 0.000956 -0.005808
0.062382 -0.001260 -0.006298
0.063342 0.001268 0.005837
0.064489 0.000836 0.005921
0.062656 -0.002040 0.006165
0.061464 -0.000987 0.006392
0.064002 0.001314 -0.005774
0.061371 -0.001307 -0.006365
0.066109 0.002145 0.005241
0.063879 -0.001594 -0.006147
0.064724 -0.001010 -0.006163
0.064783 0.001433 0.005650
0.061937 -0.001825 -0.006256
0.065621 0.001258 -0.005666
0.062708 -0.000493 -0.006275
0.066067 0.000602 0.005873
0.063321 -0.002714 0.005972
0.062974 0.001509 0.005768
0.063384 -0.002203 -0.006102
0.062136 0.001774 0.005727
0.066086 0.000593 -0.005881
0.062250 -0.000260 0.006268
0.063704 0.000316 0.006084
0.064372 0.001271 0.005751
0.061351 -0.000146 0.006319
0.066254 -0.001010 -0.006053
0.065789 0.000925 -0.005790
0.066019 -0.001570 -0.005996
0.062206 0.000532 -0.006177
0.064917 -0.001840 -0.006040
0.061887 -0.000523 -0.006340
0.064837 0.001919 -0.005455
0.063281 -0.001427 0.006202
0.063053 -0.002406 0.006089
0.064269 0.000895 -0.005926
0.061930 -0.001496 0.006291
0.064225 0.000360 0.006040
0.061829 -0.000387 0.006315
0.062732 -0.002504 -0.006110
0.063212 0.000073 -0.006163
0.062677 0.000606 0.006124
0.062338 -0.001823 0.006217
0.063943 0.001463 0.005708
0.062628 -0.001745 -0.006217
0.064494 -0.002250 -0.006017
0.065580 0.001042 0.005747
0.063570 -0.000178 -0.006170
0.064048 0.000748 0.005994
0.062214 0.000286 0.006199
0.065446 -0.002083 0.005959
0.066130 0.001015 0.005714
0.062588 0.000848 -0.006084
0.065362 0.000104 -0.006000
0.065309 -0.000274 -0.006054
0.063759 0.000974 -0.005935
0.065351 -0.002690 0.005829
0.061486 0.000584 0.006215
0.064043 -0.001121 -0.006197
0.065837 0.001865 0.005387
0.062328 0.002071 0.005588
0.063904 0.000287 -0.006084
0.064939 -0.001668 0.006051
0.066263 0.000145 0.005918
0.063495 -0.000926 0.006254
0.066015 0.001651 -0.005471
0.064603 -0.001132 0.006147
0.062771 -0.000108 -0.006220
0.063097 -0.001889 -0.006165
0.061432 -0.002480 -0.006206
0.064862 0.000037 0.006035
0.064949 -0.000392 0.006085
0.063058 0.000810 -0.006060
0.062107 -0.000661 0.006330
0.065240 -0.001412 -0.006073
0.063389 0.000983 -0.005961
0.062253 -0.001173 0.006310
0.064896 0.001807 0.005488
0.065836 -0.002021 0.005939
0.066250 -0.000140 -0.005966
0.066287 -0.000631 0.006017
0.061952 -0.002580 0.006131
0.065193 -0.001036 -0.006126
0.062632 0.001262 0.005897
0.063087 -0.000602 0.006249
0.061962 0.001282 0.005943
0.064367 -0.001833 -0.006080
0.065842 -0.000007 -0.005979
0.062342 -0.002498 -0.006138
0.064941 -0.000062 -0.006053
0.065836 -0.001974 -0.005957
0.063986 -0.002087 0.006063
0.063183 -0.001059 -0.006267
0.063663 -0.002470 0.006036
0.063782 -0.002520 -0.006026
0.061700 0.001137 -0.006035
0.061669 -0.001558 -0.006311
0.062555 0.001685 0.005730
0.065530 -0.001553 0.006024
0.062785 -0.002104 -0.006158
0.063541 -0.001361 -0.006202
0.065006 -0.000695 -0.006131
0.065407 0.000642 0.005917
0.061594 -0.002315 0.006206
0.062564 0.000346 -0.006175
0.065812 -0.002504 -0.005881
0.063129 -0.000290 -0.006217
0.064548 0.002042 0.005419
0.064954 -0.002238 -0.005985
0.065883 0.000122 0.005949
0.064012 -0.002579 0.005976
0.064830 -0.001461 -0.006096
0.065045 0.000388 -0.005986
0.066140 0.001014 -0.005724
0.063906 -0.000735 -0.006218
0.063692 -0.001301 0.006189
0.065069 0.002144 0.005335
0.063050 -0.000215 0.006203
0.062622 -0.001246 0.006274
0.061341 0.001137 0.006054
0.065601 -0.000124 0.006002
0.063186 0.000571 0.006090
0.063533 0.000256 -0.006115
0.069971 -0.002657 -0.005441
0.071265 -0.002195 0.005438
0.067129 0.002231 0.005077
0.067921 0.001169 -0.005497
0.069071 -0.000144 0.005707
0.068638 -0.001831 0.005730
0.070786 -0.000714 -0.005630
0.069041 -0.002670 -0.005527
0.067318 0.000805 -0.005712
0.068634 0.000190 0.005705
0.071196 -0.002038 -0.005477
0.070910 -0.000183 -0.005548
0.070119 -0.000343 0.005633
0.068787 -0.001893 -0.005720
0.067676 0.001726 0.005283
0.070163 -0.001167 -0.005688
0.067874 -0.001030 0.005908
0.070914 0.001534 -0.005035
0.066988 -0.000474 0.005945
0.066757 -0.001869 0.005893
0.069065 0.000313 0.005648
0.066701 -0.002690 0.005727
0.066426 -0.002001 -0.005910
0.066584 0.001574 0.005447
0.067363 0.000145 -0.005842
0.070616 0.001824 -0.004945
0.067781 -0.001405 0.005868
0.067310 0.001008 0.005617
0.069069 0.002188 0.004871
0.066328 -0.001777 0.005936
0.070005 -0.000935 0.005721
0.068595 0.001663 -0.005223
0.067465 -0.002061 -0.005821
0.070472 -0.001271 0.005635
0.066352 0.001363 -0.005563
0.066588 0.002028 0.005259
0.067714 0.000323 -0.005785
0.069601 0.001218 -0.005303
0.068951 -0.000052 -0.005717
0.070493 0.001423 0.005114
0.069850 -0.001582 0.005651
0.069958 -0.000458 -0.005674
0.069634 0.001576 -0.005150
0.069804 -0.000977 -0.005746
0.067667 -0.001969 0.005802
0.071238 0.000850 -0.005285
0.069899 0.002114 0.004825
0.068868 0.000725 0.005572
0.067341 -0.002605 -0.005719
0.069059 -0.001723 0.005706
0.067854 -0.002296 -0.005753
0.067192 -0.001245 -0.005953
0.067728 0.000775 0.005669
0.070916 0.000552 -0.005442
0.069054 -0.002218 -0.005652
0.067187 0.000678 0.005765
0.069170 0.001010 0.005422
0.070550 0.001064 0.005257
0.067071 0.001155 -0.005590
0.066793 -0.001069 -0.006006
0.071019 -0.001691 0.005529
0.070358 0.002060 0.004811
0.069084 0.000306 -0.005656
0.067728 0.002085 0.005115
0.069592 -0.002543 -0.005526
0.069329 0.002198 -0.004842
0.068678 0.002025 -0.005057
0.068283 0.000116 -0.005758
0.069375 -0.000900 0.005776
0.067447 0.001968 -0.005215
0.069599 0.000862 0.005439
0.069588 -0.001735 -0.005666
0.069487 0.000692 -0.005532
0.066471 -0.001366 -0.005990
0.070208 -0.001690 -0.005615
0.070760 -0.001510 -0.005586
0.067695 0.000396 0.005767
0.067690 -0.000220 -0.005859
0.066704 -0.002311 0.005838
0.066848 -0.001715 -0.005918
0.069660 -0.000290 0.005670
0.068171 -0.001413 0.005830
0.067868 -0.000552 0.005874
0.068851 -0.001305 -0.005791
0.067137 -0.000560 -0.005956
0.070885 -0.002161 0.005478
0.070242 0.000007 -0.005586
0.070498 -0.000462 -0.005624
0.068258 0.002135 -0.005023
0.069071 0.001186 -0.005371
0.070238 0.002109 -0.004799
0.070613 -0.001078 -0.005657
0.069136 0.001783 -0.005116
0.067822 -0.001178 -0.005903
0.068429 0.000937 -0.005541
0.068530 -0.000316 0.005781
0.071221 -0.002738 0.005276
0.067108 0.002130 -0.005168
0.069461 -0.000149 -0.005681
0.068115 0.001672 0.005260
0.070208 0.000828 -0.005401
0.066407 0.001975 -0.005304
0.068041 -0.002634 -0.005639
0.066788 0.000713 0.005785
0.069470 -0.001571 0.005687
0.069907 -0.001934 -0.005610
0.068551 -0.002715 0.005546
0.068591 0.001111 0.005441
0.071001 -0.000160 0.005526
0.071278 -0.000524 0.005547
0.067504 -0.000922 -0.005966
0.071185 -0.000875 -0.005613
0.070778 0.001968 0.004828
0.070423 0.001492 -0.005103
0.068369 -0.001643 -0.005792
0.068479 0.002195 0.004938
0.068634 0.000286 -0.005702
0.068213 0.000150 0.005750
0.066830 -0.000160 -0.005926
0.069753 0.000140 -0.005615
0.070012 0.001267 -0.005239
0.066539 0.000944 -0.005721
0.067950 0.001060 0.005529
0.068394 -0.001085 0.005854
0.066955 -0.000852 0.005996
0.068404 -0.002194 -0.005716
0.069055 0.001617 0.005185
0.070767 0.000650 0.005404
0.070467 -0.001989 0.005540
0.069114 -0.000965 -0.005811
0.069036 -0.002121 0.005655
0.069352 -0.002533 0.005543
0.068158 0.002055 0.005086
0.067811 -0.000107 0.005822
0.067480 0.001112 -0.005567
0.069168 -0.001799 -0.005697
0.068492 -0.002554 -0.005627
0.068475 -0.002248 0.005691
0.068178 -0.000432 -0.005840
0.067306 0.001726 0.005322
0.067602 0.001316 0.005459
0.066313 -0.002384 -0.005868
0.069692 -0.001234 0.005713
0.066723 0.001476 -0.005485
0.066736 -0.000693 -0.006003
0.068237 -0.001932 0.005755
0.070136 0.001783 -0.005013
0.070864 0.001460 0.005060
0.070134 -0.002326 0.005527
0.067187 -0.001954 0.005849
0.066404 -0.001001 0.006034
0.068125 0.000487 -0.005724
0.067213 0.000144 0.005846
0.069093 -0.001200 0.005773
0.069564 0.001556 0.005156
0.066955 -0.002154 -0.005853
0.069437 0.001951 0.005007
0.071089 0.000810 0.005306
0.067752 -0.002549 0.005693
0.071047 0.001913 -0.004850
0.067354 -0.002349 0.005782
0.067130 -0.001548 0.005908
0.066844 0.000359 -0.005857
0.067778 0.000811 -0.005661
0.070436 0.000553 -0.005491
0.066307 -0.000641 -0.006028
0.068635 0.001634 0.005222
0.069989 0.000897 0.005384
0.066938 0.000763 -0.005764
0.070112 0.001229 0.005234
0.070588 -0.000486 0.005607
0.066761 0.001105 0.005626
0.069935 0.001704 0.005056
0.067556 -0.000805 0.005937
0.066836 0.001865 -0.005315
0.068651 -0.001388 0.005789
0.070025 0.000412 -0.005554
0.069708 0.002046 -0.004914
0.066811 -0.002639 -0.005750
0.067343 -0.001199 0.005935
0.066519 -0.000334 0.005961
0.070923 -0.002443 -0.005437
0.069376 0.000532 0.005589
0.069457 -0.000610 -0.005743
0.070982 -0.001191 -0.005609
0.069957 -0.001972 0.005590
0.070839 0.000953 -0.005284
0.070307 0.000610 0.005468
0.066723 0.000068 0.005894
0.067633 0.001511 -0.005385
0.066702 -0.001224 0.005983
0.068086 0.000534 0.005712
0.070724 0.000232 -0.005511
0.068276 -0.000728 0.005858
0.067777 -0.000630 -0.005905
0.069426 -0.002100 0.005622
0.070554 -0.002278 -0.005505
0.071179 -0.001647 -0.005530
0.068075 -0.000876 -0.005909
0.069261 -0.001385 -0.005743
0.068584 -0.001011 -0.005854
0.068133 -0.002463 0.005691
0.067938 -0.001767 -0.005815
0.069455 -0.002150 -0.005624
0.070934 0.000222 0.005482
0.070473 -0.002468 0.005462
0.066483 0.000215 -0.005902
0.067134 0.001579 -0.005409
0.069373 0.000072 0.005650
0.067299 -0.001658 -0.005889
0.068272 0.001294 -0.005409
0.068777 0.001963 0.005070
0.070852 -0.002632 0.005356
0.069358 -0.000503 0.005726
0.067480 -0.000305 0.005879
0.068825 -0.000886 0.005827
0.071163 -0.001156 0.005586
0.070795 -0.000943 0.005647
0.068932 -0.002525 0.005588
0.070342 0.000028 0.005564
0.070757 -0.001925 -0.005533
0.068547 -0.000607 -0.005828
0.066466 0.000522 0.005854
0.067826 0.001851 -0.005225
0.068497 0.000606 0.005660
0.066927 0.001848 0.005305
0.069037 -0.000582 -0.005779
0.070154 -0.002222 -0.005550
0.069793 -0.002488 0.005520
0.068205 0.001671 -0.005260
0.069785 0.000348 0.005575
0.067042 0.001325 0.005511
0.068550 -0.000168 -0.005770
0.069008 0.000759 -0.005554
0.068253 0.001336 0.005383
0.068641 0.001214 -0.005404
0.067151 -0.002738 0.005673
0.071182 0.001255 0.005112
0.068252 -0.001278 -0.005850
0.069920 -0.001453 -0.005673
0.070739 0.002176 -0.004686
0.066371 -0.001396 0.005984
0.070361 -0.002668 -0.005399
0.074435 -0.000958 0.005282
0.072965 0.000353 0.005272
0.074770 -0.001496 -0.005187
0.074269 0.000820 0.004951
0.072530 0.000939 0.005102
0.073552 -0.002584 -0.005118
0.076001 -0.000116 0.004991
0.072877 0.001875 0.004641
0.072819 -0.000342 -0.005387
0.076235 -0.000829 -0.005068
0.071668 -0.000488 0.005505
0.073878 -0.001765 -0.005253
0.075545 0.001676 0.004408
0.074661 -0.002693 0.004930
0.076031 -0.002660 -0.004789
0.072098 0.000728 0.005234
0.073301 -0.001435 0.005350
0.071718 0.000680 0.005294
0.074073 0.001377 -0.004755
0.075189 0.002130 0.004115
0.074363 0.000091 0.005153
0.076138 0.002109 -0.003998
0.072028 0.002056 0.004607
0.071996 0.001706 0.004841
0.071895 0.000369 -0.005382
0.074754 0.000163 0.005098
0.073860 0.002244 0.004225
0.074846 -0.002042 -0.005107
0.075898 0.000808 -0.004761
0.073738 0.002082 -0.004379
0.075185 -0.000918 -0.005202
0.072875 0.000370 -0.005288
0.073742 -0.000021 -0.005250
0.072088 0.002120 -0.004562
0.075519 -0.001681 0.005066
0.075828 0.000716 0.004796
0.076163 -0.002474 0.004840
0.072236 -0.000833 0.005496
0.074199 -0.000405 -0.005248
0.072031 -0.002650 -0.005244
0.074707 0.001880 0.004377
0.072499 0.002201 -0.004450
0.075723 -0.002409 0.004920
0.075657 -0.000677 0.005102
0.075942 0.001256 -0.004570
0.074867 0.000596 0.004967
0.075974 0.001604 -0.004411
0.072785 0.001723 -0.004762
0.074285 -0.000895 -0.005303
0.072532 -0.001310 0.005439
0.071524 -0.000999 0.005574
0.076279 0.002098 0.003976
0.072335 0.000371 0.005330
0.071714 -0.001023 -0.005562
0.071423 0.000122 -0.005459
0.071309 0.002157 0.004619
0.075929 -0.000385 -0.005044
0.074678 0.002021 -0.004285
0.075567 -0.000574 -0.005111
0.073400 -0.001525 -0.005340
0.072322 -0.001240 -0.005477
0.074099 0.002126 -0.004291
0.072886 -0.002021 -0.005322
0.071325 0.001587 0.004960
0.076218 0.000764 0.004726
0.074770 0.000936 0.004839
0.073288 -0.000431 -0.005355
0.071661 -0.002670 0.005261
0.075636 0.000427 0.004940
0.073932 0.001217 0.004829
0.074265 -0.002176 -0.005155
0.075267 -0.000688 0.005149
0.076237 0.000613 -0.004799
0.074264 -0.002392 0.005103
0.074235 0.000407 -0.005136
0.075596 0.001770 -0.004341
0.073459 0.000922 0.005011
0.072776 -0.002031 0.005320
0.072062 0.000010 -0.005414
0.072359 0.002205 0.004453
0.075035 0.000385 -0.005044
0.076169 -0.001598 -0.005014
0.073503 -0.002503 0.005147
0.074564 0.001479 0.004641
0.072505 0.001647 0.004813
0.072275 0.001671 -0.004837
0.073073 -0.002377 -0.005255
0.072389 -0.000326 -0.005426
0.075401 -0.000200 0.005071
0.074484 0.001554 -0.004630
0.075043 -0.002404 -0.005014
0.072464 -0.002342 0.005307
0.073303 0.001474 -0.004812
0.074086 0.001821 0.004515
0.076066 0.000423 0.004886
0.072742 0.001280 -0.004950
0.073336 -0.002048 -0.005277
0.072731 -0.002671 -0.005166
0.074636 -0.000765 -0.005245
0.074152 -0.001348 0.005266
0.072919 0.002188 -0.004408
0.072065 -0.002168 0.005368
0.074065 0.001738 -0.004595
0.076013 -0.001131 -0.005094
0.075109 -0.001677 0.005113
0.071611 -0.001429 -0.005518
0.073714 0.001533 0.004726
0.074178 -0.000593 0.005263
0.072785 -0.000941 0.005459
0.072884 0.001537 0.004818
0.072780 -0.000332 0.005379
0.072908 0.000771 0.005131
0.072180 -0.000227 0.005423
0.073696 0.000498 -0.005168
0.073698 -0.000515 -0.005321
0.072417 -0.001925 0.005367
0.075446 0.000578 -0.004912
0.075185 0.001733 -0.004430
0.073826 -0.000739 0.005323
0.075238 0.002085 -0.004152
0.072269 -0.001689 -0.005423
0.074765 -0.002232 0.005079
0.072607 -0.000659 -0.005450
0.072255 -0.000802 -0.005502
0.076256 0.001721 0.004267
0.071925 -0.002162 -0.005393
0.072823 -0.002516 0.005212
0.074693 0.000185 -0.005112
0.075759 0.002114 0.004042
0.073642 0.001251 -0.004863
0.073946 -0.002123 0.005187
0.072287 0.000674 -0.005249
0.075076 0.001746 0.004424
0.071516 0.001821 -0.004853
0.072151 0.001143 0.005058
0.071412 0.001264 -0.005095
0.074149 0.000859 -0.004961
0.073131 -0.000040 -0.005318
0.073475 -0.000939 0.005390
0.071438 -0.000528 -0.005543
0.071601 -0.000090 0.005460
0.073415 -0.000928 -0.005408
0.075630 0.001021 0.004695
0.072424 -0.002254 -0.005335
0.074913 -0.001140 0.005207
0.074659 0.000910 -0.004875
0.071678 -0.001808 -0.005462
0.071873 -0.001131 0.005524
0.073680 -0.000333 0.005287
0.073353 0.000117 0.005267
0.071658 0.000752 -0.005282
0.075783 0.001367 0.004533
0.073679 -0.001698 0.005273
0.073184 -0.002334 0.005242
0.075008 -0.000541 -0.005172
0.074482 -0.001245 -0.005253
0.074866 -0.000759 0.005206
0.073367 0.001858 0.004594
0.074030 -0.000226 0.005232
0.071560 0.001026 0.005168
0.072232 0.001322 -0.004986
0.074972 0.001232 0.004691
0.073596 0.000470 0.005180
0.074436 0.000458 0.005078
0.075613 -0.002357 -0.004965
0.075330 -0.000195 -0.005089
0.072970 -0.001466 -0.005388
0.071795 0.000313 0.005389
0.075974 0.000260 -0.004954
0.075986 -0.002086 0.004959
0.072632 0.000008 -0.005359
0.074532 -0.001338 0.005224
0.074169 -0.001725 0.005214
0.074760 -0.000284 0.005156
0.071744 0.001507 -0.004960
0.073101 0.001142 0.004959
0.075338 0.000783 0.004829
0.075128 -0.001801 -0.005106
0.076223 0.001377 0.004474
0.071580 -0.001613 0.005486
0.074649 -0.001715 0.005160
0.073374 0.000268 -0.005255
0.071494 -0.002299 -0.005415
0.073309 0.002204 0.004336
0.071335 0.000382 0.005424
0.072510 0.000988 -0.005095
0.073248 -0.000547 0.005363
0.072830 -0.001539 0.005380
0.072250 -0.001598 0.005426
0.076277 -0.000743 0.005040
0.074212 -0.000004 -0.005194
0.074111 -0.001374 -0.005278
0.075138 0.000795 -0.004862
0.073712 -0.001299 -0.005334
0.073662 -0.001312 0.005327
0.074398 -0.001749 -0.005196
0.075185 -0.002166 0.005039
0.074279 0.002161 0.004227
0.075151 -0.001382 -0.005159
0.073795 -0.002181 -0.005208
0.072592 0.001280 0.004955
0.073297 -0.001916 0.005286
0.073054 -0.000990 -0.005443
0.075817 -0.001947 -0.005008
0.075424 -0.001102 0.005155
0.074910 -0.000178 -0.005136
0.074901 0.001218 -0.004717
0.071868 -0.000447 -0.005492
0.075530 -0.001518 -0.005097
0.071684 0.001450 0.004979
0.073300 0.001038 -0.004992
0.074331 0.001164 0.004800
0.073942 -0.002631 0.005042
0.073103 -0.001122 0.005411
0.073952 -0.002510 -0.005100
0.072572 -0.000003 0.005356
0.073339 0.002210 -0.004339
0.075263 -0.002524 0.004927
0.076240 -0.001597 0.004995
0.073779 0.000919 -0.004983
0.071918 -0.001789 0.005431
0.076154 -0.002307 -0.004921
0.075982 -0.001284 0.005066
0.073878 0.000753 0.005027
0.073615 0.001702 -0.004679
0.074805 0.001729 -0.004490
0.075459 0.000949 -0.004757
0.072909 0.000893 -0.005093
0.073117 0.001887 -0.004615
0.075382 0.001318 -0.004615
0.075114 0.000264 0.005044
0.075554 -0.001048 -0.005156
0.075652 0.000014 -0.005025
0.071800 0.001066 -0.005136
0.074411 0.001191 -0.004790
0.074532 -0.002498 -0.005036
0.071607 0.001908 0.004773
0.075403 0.001359 0.004585
0.073723 0.000111 0.005224
0.073403 0.001356 0.004839
0.073207 0.000642 -0.005165
0.073728 0.001971 0.004454
0.072505 0.000360 -0.005325
0.071686 -0.002094 0.005413
0.071316 0.000511 -0.005417
0.074085 0.000352 0.005151
0.079600 -0.001504 -0.000725
0.078959 -0.000428 -0.004699
0.080042 -0.001323 -0.004660
0.079100 0.000983 -0.004282
0.080966 0.001757 0.002872
0.076862 0.001281 -0.004442
0.080860 -0.001522 -0.004297
0.079619 0.000873 0.004202
0.080425 0.000341 0.004469
0.076865 0.001639 -0.004252
0.080788 0.000819 -0.004270
0.077915 0.000297 0.004705
0.077909 0.002125 0.003711
0.078888 -0.001745 -0.004685
0.080924 0.000235 -0.003909
0.079618 0.000777 -0.000448
0.081106 -0.002077 -0.003154
0.081090 -0.000301 0.003343
0.079601 -0.001386 -0.001152
0.081097 0.000661 -0.003019
0.081164 -0.002256 -0.002818
0.080348 -0.001859 -0.004591
0.079594 -0.002340 -0.000358
0.078470 0.000976 -0.004366
0.079600 -0.001561 0.003003
0.081121 -0.002727 0.002761
0.079608 -0.000618 0.003114
0.077142 -0.002590 0.004674
0.077966 -0.000754 0.004846
0.079356 0.000459 0.004455
0.079608 -0.000582 -0.001761
0.078046 -0.002049 -0.004741
0.076562 -0.001285 -0.005011
0.079607 -0.000725 -0.000445
0.079594 -0.002400 0.003526
0.076503 -0.002421 -0.004831
0.081282 -0.001316 0.002613
0.079009 -0.001707 0.004666
0.081055 -0.002181 0.003323
0.077523 -0.002488 0.004671
0.080141 -0.000189 0.004580
0.078193 -0.001121 -0.004847
0.076994 0.000268 -0.004835
0.079610 -0.000241 -0.003433
0.080585 0.001602 -0.003861
0.077414 -0.001038 -0.004947
0.079610 -0.000276 0.003642
0.076496 -0.002100 0.004899
0.080053 -0.002506 0.004416
0.076824 -0.001036 0.005004
0.079624 0.001477 -0.002119
0.079987 -0.000644 -0.004652
0.079597 -0.001941 0.000286
0.079614 0.000231 0.000673
0.080898 0.000667 0.003881
0.078440 0.000979 0.004357
0.079599 -0.001662 0.000716
0.079602 -0.001301 0.000297
0.079603 -0.001156 -0.003539
0.078865 0.001665 0.003919
0.079603 -0.001179 0.003336
0.081247 0.000596 0.002307
0.076874 -0.002297 -0.004838
0.079619 0.000808 0.000055
0.078588 -0.000553 -0.004758
0.077122 -0.002560 -0.004699
0.079605 -0.000997 0.002533
0.081074 -0.001091 0.003509
0.081076 0.001768 0.002185
0.079591 -0.002741 0.001587
0.076498 0.001990 -0.004036
0.079361 -0.000241 0.004616
0.081237 -0.000681 0.002820
0.080823 -0.002420 -0.004228
0.077646 0.001686 0.004085
0.077278 0.001982 -0.003926
0.078702 -0.001263 -0.004770
0.080309 0.000876 -0.004259
0.078384 -0.002394 0.004607
0.076504 0.001597 -0.004338
0.079845 0.000385 0.004452
0.079848 0.002055 -0.003517
0.081200 0.000996 -0.002260
0.081182 0.001293 0.002081
0.079613 0.000038 0.003248
0.080614 -0.001078 -0.004693
0.079593 -0.002407 0.000071
0.079599 -0.001620 -0.003212
0.079593 -0.002505 0.000787
0.079596 -0.002081 0.001637
0.080996 0.001790 -0.002722
0.079619 0.000908 -0.001155
0.077069 -0.001688 -0.004900
0.079597 -0.001957 -0.002311
0.080195 0.000327 -0.004488
0.079604 -0.001088 0.001170
0.079007 0.001872 -0.003751
0.079618 0.000762 -0.003750
0.078108 0.000816 -0.004477
0.079616 0.000494 0.003317
0.081168 0.000718 -0.002623
0.076615 0.001640 0.004275
0.079600 -0.001578 -0.001891
0.078913 0.001378 -0.004143
0.076819 -0.000467 0.004941
0.077127 0.001849 0.004038
0.077575 -0.002232 -0.004771
0.079597 -0.001976 -0.000568
0.081067 -0.000636 -0.003505
0.077651 0.001197 -0.004377
0.079609 -0.000424 -0.001339
0.079620 0.001045 0.000869
0.081117 0.001888 0.001784
0.079607 -0.000637 0.002728
0.080544 -0.002295 0.004505
0.079594 -0.002374 0.002025
0.079612 0.000019 -0.001207
0.080889 0.002105 0.002985
0.079617 0.000560 -0.002738
0.079606 -0.000819 -0.003995
0.077205 -0.002152 0.004810
0.079623 0.001365 0.002145
0.077328 -0.000570 0.004896
0.081082 0.001241 0.002661
0.078085 0.001630 0.004063
0.081212 -0.000045 -0.002812
0.080897 0.001838 -0.003195
0.079623 0.001364 -0.003456
0.079612 0.000019 -0.000706
0.080943 0.000063 0.003900
0.080186 0.001699 0.003777
0.077444 0.001488 -0.004281
0.078492 -0.001316 0.004776
0.079607 -0.000652 -0.002150
0.079606 -0.000811 -0.002507
0.079628 0.002072 -0.000488
0.081167 -0.000684 -0.003113
0.077652 -0.000097 0.004796
0.079594 -0.002397 0.003110
0.079598 -0.001852 0.003503
0.081203 0.001439 -0.001807
0.079615 0.000432 -0.004398
0.080667 0.001833 0.003671
0.079629 0.002073 0.002106
0.079611 -0.000171 0.000592
0.080955 -0.002198 0.003750
0.079595 -0.002141 -0.004107
0.080732 -0.001372 0.004643
0.079763 0.001455 -0.003979
0.081185 0.000325 -0.002766
0.077745 -0.000890 -0.004900
0.080834 0.000256 0.004311
0.079607 -0.000594 -0.004451
0.079594 -0.002324 0.003900
0.078228 -0.001799 0.004741
0.076343 0.000064 0.004927
0.079618 0.000749 -0.001844
0.080954 -0.001038 -0.003978
0.079611 -0.000179 -0.002842
0.079597 -0.001925 0.003119
0.076712 0.001202 0.004483
0.078754 0.000255 -0.004628
0.080002 -0.002571 -0.004400
0.079613 0.000057 0.002002
0.079596 -0.002026 -0.003296
0.079609 -0.000442 0.002269
0.079643 0.000089 -0.004555
0.080886 -0.002056 -0.004088
0.081159 0.000812 0.002617
0.079607 -0.000624 -0.003651
0.080841 0.001127 0.003943
0.080298 0.000724 0.004311
0.079598 -0.001834 -0.001167
0.079616 0.000504 0.002122
0.077806 0.001752 -0.004023
0.081119 0.002151 -0.001190
0.079824 -0.001130 0.004674
0.077311 -0.000059 -0.004841
0.077871 -0.002652 -0.004572
0.079614 0.000281 0.000229
0.080827 -0.001975 0.004348
0.078172 0.001241 -0.004293
0.079317 -0.001978 -0.004606
0.079623 0.001367 0.001123
0.079610 -0.000285 -0.003817
0.079591 -0.002675 -0.000753
0.079624 0.001452 -0.000530
0.079593 -0.002524 0.004363
0.079602 -0.001323 -0.004276
0.080543 0.001413 0.003994
0.078845 -0.000890 0.004761
0.079082 -0.001289 0.004712
0.081147 0.001871 -0.001580
0.079597 -0.001997 0.002175
0.079615 0.000391 -0.001687
0.079621 0.001176 -0.000178
0.079293 0.001337 -0.004111
0.079618 0.000669 0.001283
0.081110 -0.001547 0.003264
0.080227 -0.000739 0.004653
0.079896 -0.002065 0.004550
0.078263 0.000122 0.004697
0.081094 0.000185 -0.003207
0.079600 -0.001600 0.000062
0.079624 0.001438 0.002958
0.079628 0.002061 -0.002390
0.079629 0.002198 0.000408
0.079624 0.001454 0.000454
0.080933 0.001328 -0.003364
0.079602 -0.001249 0.000753
0.079605 -0.000914 -0.003042
0.078313 -0.002443 -0.004605
0.081089 0.002149 0.001492
0.081206 0.001688 0.001395
0.079614 0.000250 -0.003040
0.076439 -0.000401 0.004976
0.078445 -0.000934 0.004813
0.080817 0.001873 -0.003573
0.079621 0.001115 -0.001688
0.080680 0.000919 0.004229
0.079088 0.000738 0.004374
0.080997 0.000670 -0.003442
0.079598 -0.001788 -0.004303
0.076867 -0.002019 0.004868
0.078499 0.002146 -0.003617
0.077669 -0.000441 -0.004851
0.078487 -0.001910 -0.004709
0.079342 -0.001218 -0.004703
0.080701 -0.001449 -0.004645
0.080979 0.002102 0.002421
0.077144 0.000217 0.004814
0.079619 0.000843 0.001895
0.079628 0.001986 0.001023
0.076330 -0.000289 -0.004985
0.079605 -0.000866 0.000145
0.076741 -0.002746 0.004658
0.079628 0.001953 0.002973
0.079270 -0.001596 -0.004662
0.076623 0.000127 -0.004897
0.079135 -0.000910 -0.004742
0.080960 -0.000338 0.003866
0.079592 -0.002650 0.002657
0.079313 -0.002434 -0.004489
0.080276 0.001775 -0.003730
0.079600 -0.001635 0.001815
0.079595 -0.002229 0.002624
0.079627 0.001891 0.000155
0.078256 -0.000737 -0.004821
0.076897 0.001976 -0.003988
0.077829 0.000835 0.004494
0.078082 0.000055 -0.004737
0.076718 0.000756 -0.004678
0.077022 -0.001257 -0.004961
0.079973 0.001345 0.004049
0.081071 -0.000191 -0.003430
0.079600 -0.001598 -0.002497
0.079616 0.000522 0.002842
0.081193 -0.001158 0.003009
0.081097 -0.000721 0.003378
0.079615 0.000383 -0.003620
0.079607 -0.000711 0.004647
0.077549 -0.001708 -0.004843
0.081016 -0.002093 -0.003534
0.079605 -0.000981 0.004210
0.081211 -0.002697 0.002322
0.080434 -0.001085 0.004682
0.079599 -0.001615 -0.003718
0.080846 -0.000818 0.004409
0.078646 0.001733 -0.003913
0.079624 0.001524 0.000082
0.079258 0.002044 0.003571
0.081223 -0.001196 -0.002891
0.077611 0.001163 0.004387
0.079990 0.000932 0.004225
0.079947 -0.001886 -0.004587
0.079592 -0.002563 -0.001202
0.079629 0.002114 -0.002002
0.079613 0.000137 0.003924
0.079970 0.002226 0.003375
0.079611 -0.000091 -0.001646
0.080836 -0.000826 -0.004461
0.079584 0.001474 0.003959
0.078083 -0.001148 0.004845
0.079610 -0.000307 -0.002291
0.079595 -0.002160 -0.002741
0.076713 0.000129 0.004876
0.079616 0.000432 -0.000266
0.076404 -0.001103 0.005043
0.078420 -0.000192 -0.004730
0.079606 -0.000769 0.003768
0.079599 -0.001695 -0.001531
0.079610 -0.000228 -0.000282
0.076789 0.000811 0.004635
0.079606 -0.000869 0.002143
0.079618 0.000786 -0.004200
0.080972 -0.001313 0.003843
0.078868 -0.000505 0.004708
0.079743 0.000014 0.004555
0.078951 0.001071 0.004254
0.079622 0.001172 0.002696
0.079598 -0.001807 -0.002874
0.080254 -0.000997 -0.004699
0.079730 -0.001547 -0.004631
0.077290 0.001088 -0.004469
0.079604 -0.001119 0.002937
0.078683 0.001332 0.004181
0.079604 -0.001038 -0.001988
0.079225 -0.000884 0.004716
0.081008 -0.001810 0.003620
0.076387 -0.001966 -0.004941
0.079621 0.001124 0.003274
0.079610 -0.000351 0.001126
0.079614 0.000183 0.002368
0.079606 -0.000862 0.000779
0.077659 -0.001736 0.004815
0.077876 -0.002082 0.004744
0.080030 -0.000224 -0.004596
0.079809 -0.000390 0.004607
0.079626 0.001752 0.001485
0.079189 0.002128 -0.003528
0.079598 -0.001809 0.004177
0.078456 0.001687 0.003964
0.081179 0.002104 0.000463
0.079621 0.001063 0.003758
0.079613 0.000124 -0.002182
0.079614 0.000272 -0.004056
0.079624 0.001548 -0.001088
0.081103 0.000077 0.003207
0.080699 -0.000481 0.004618
0.081096 0.001816 -0.002009
0.078389 0.002070 0.003682
0.081254 0.001517 -0.001325
0.079620 0.001057 -0.002920
0.078983 -0.002517 0.004483
0.079594 -0.002281 -0.000951
0.079616 0.000441 -0.000998
0.079610 -0.000254 0.004286
0.079624 0.001423 0.003550
0.079617 0.000621 -0.002318
0.081251 -0.000179 0.002655
0.079624 0.001549 0.002590
0.079592 -0.002557 -0.004083
0.080164 0.001490 -0.003949
0.079351 0.001161 0.004166
0.080939 0.002172 -0.002596
0.079629 0.002218 -0.003013
0.076977 -0.000638 -0.004957
0.080963 -0.002537 0.003550
0.080997 -0.000736 0.003774
0.077329 0.000845 0.004552
0.079608 -0.000483 0.000076
0.079610 -0.000236 0.001551
0.080907 -0.000651 -0.004137
0.080802 -0.000079 0.004482
0.079598 -0.001866 -0.000213
0.079591 -0.002697 -0.003732
0.079626 0.001725 0.001878
0.079600 -0.001588 0.001344
0.078157 0.000551 0.004568
0.078360 -0.000258 0.004735
0.081265 0.001674 0.000799
0.079604 -0.001076 -0.000661
0.081031 0.001127 0.003014
0.079603 -0.001224 -0.002801
0.080549 -0.001719 0.004598
0.078011 0.001156 0.004338
0.079594 -0.002292 -0.003606
0.079623 0.001339 0.001508
0.079601 -0.001453 0.004330
0.079625 0.001625 -0.002622
0.076660 -0.001592 0.004948
0.080219 0.002164 -0.003431
0.079602 -0.001334 -0.002227
0.076871 -0.000155 -0.004905
0.081054 -0.001020 -0.003571
0.080368 -0.000517 -0.004635
0.080631 -0.002717 -0.004342
0.079713 -0.001127 -0.004686
0.079618 0.000690 0.000577
0.080999 0.000903 0.003320
0.081188 0.002074 -0.000198
0.080872 -0.001293 0.004260
0.079622 0.001224 -0.002513
0.079608 -0.000524 0.001829
0.079606 -0.000827 0.001478
0.078754 -0.002307 -0.004608
0.081011 -0.001362 -0.003721
0.081155 -0.002174 0.002905
0.081112 -0.001337 -0.003312
0.079593 -0.002432 -0.001570
0.079247 -0.002012 0.004597
0.080636 0.000491 -0.004418
0.079627 0.001855 0.003578
0.079626 0.001763 -0.000244
0.081159 0.002145 -0.000810
0.081052 0.001246 -0.002853
0.080592 0.001292 -0.004086
0.079613 0.000055 0.001281
0.076995 0.001563 0.004276
0.077881 -0.001399 -0.004846
0.080844 0.001484 0.003672
0.077566 0.000435 0.004692
0.079626 0.001715 0.000754
0.077388 0.002069 0.003833
0.079613 0.000060 0.002756
0.078664 0.000153 0.004647
0.080780 -0.000247 -0.004597
0.076480 0.001079 -0.004575
0.081284 0.000228 -0.002378
0.080935 -0.000981 0.004047
0.080000 -0.001644 0.004607
0.081223 0.001390 0.001705
0.079626 0.001768 -0.003032
0.080857 0.001873 0.003335
0.079600 -0.001539 0.003790
0.081276 -0.000804 -0.002688
0.080908 0.000707 -0.003820
0.079610 -0.000230 -0.004239
0.076655 -0.000870 -0.005024
0.081269 -0.001686 -0.002631
0.079602 -0.001357 0.002075
0.079626 0.001738 -0.003468
0.080422 -0.000051 -0.004573
0.079592 -0.002544 -0.003028
0.079617 0.000676 -0.003370
0.077980 -0.000340 0.004789
0.079396 0.001773 -0.003769
0.079627 0.001921 0.002477
0.078220 -0.001562 -0.004786
0.078246 0.000452 -0.004611
0.080823 0.000076 -0.004407
0.077702 -0.001349 0.004861
0.080796 -0.002025 -0.004456
0.078826 -0.002073 0.004637
0.080921 -0.000120 -0.004045
0.079603 -0.001167 -0.001551
0.079610 -0.000240 0.002985
0.078089 -0.000404 -0.004797
0.076649 0.002119 0.003904
0.077361 -0.001491 0.004882
0.079626 0.001788 -0.000732
0.078708 0.000681 0.004446
0.079450 -0.001625 0.004626
0.081169 -0.001687 -0.003018
0.080943 0.001297 0.003355
0.077688 0.000760 -0.004553
0.080861 0.001103 -0.003884
0.081029 0.002174 0.002013
0.077614 0.000318 -0.004747
0.076446 0.000418 0.004840
0.079596 -0.002092 -0.001736
0.079619 0.000870 0.002372
0.080972 -0.002543 -0.003521
0.079213 0.000110 -0.004599
0.079596 -0.002067 0.000830
0.079616 0.000451 0.003708
0.079174 0.001457 0.004033
0.079602 -0.001284 0.001612
0.079104 0.000196 0.004590
0.079603 -0.001135 -0.000161
0.079734 -0.002276 -0.004521
0.079608 -0.000514 -0.000913
0.081200 -0.001623 0.002881
0.077212 0.001234 0.004407
0.081178 0.002035 0.000891
0.079602 -0.001365 0.002455
0.077254 -0.001085 0.004949
0.080871 -0.002676 -0.003903
0.077347 0.000630 -0.004651
0.081066 0.000504 0.003186
0.081069 -0.001710 -0.003411
0.080929 -0.001698 0.003974
0.078657 0.000632 -0.004485
0.079594 -0.002318 -0.002094
0.080524 -0.002299 -0.004514
0.078216 0.001738 -0.003973
0.079627 0.001943 -0.001531
0.079970 0.001026 -0.004198
0.079594 -0.002290 0.001306
0.079599 -0.001733 0.002568
0.079625 0.001702 -0.001820
0.079623 0.001438 -0.001490
0.081113 0.001337 -0.002489
0.080968 -0.001779 -0.003811
0.079614 0.000256 0.001631
0.081175 0.000380 0.002784
0.079605 -0.000888 -0.001006
0.080853 -0.002435 0.004048
0.079613 0.000133 -0.002637
0.078018 0.002005 -0.003797
0.077943 -0.002452 0.004635
0.081202 -0.002562 -0.002491
0.079616 0.000459 0.004133
0.079117 0.000582 -0.004447
0.080278 0.002004 0.003543
0.077216 -0.002090 -0.004830
0.079616 0.000498 0.000945
0.077041 -0.000146 0.004874
0.079629 0.002186 0.001741
0.078991 -0.002651 -0.004438
0.079608 -0.000501 -0.003057
0.081014 0.000203 0.003553
0.079608 -0.000513 0.000447
0.079550 0.002209 0.003401
0.076724 -0.002402 0.004803
0.079380 -0.000240 -0.004626
0.079621 0.001173 0.000205
0.079621 0.001150 -0.000799
0.079608 -0.000603 0.004140
0.079620 0.000995 -0.002144
0.081513 -0.001193 0.001729
0.081435 -0.002174 0.001636
0.081754 -0.001014 0.000788
0.081507 -0.000678 -0.001737
0.081407 0.000596 0.001497
0.081575 0.000361 -0.000664
0.081614 -0.002302 0.000265
0.081894 -0.001061 0.000224
0.081439 0.000844 -0.000883
0.081670 -0.001615 0.000946
0.081773 -0.001245 -0.000674
0.081351 0.001150 -0.001106
0.081502 -0.001304 -0.001737
0.081614 -0.001022 -0.001339
0.081616 -0.002040 -0.000826
0.081593 0.000070 -0.000963
0.081410 -0.001628 0.002027
0.081431 0.001112 0.000069
0.081366 -0.000814 0.002297
0.081808 -0.000576 0.000381
0.081789 -0.000425 -0.000281
0.081373 0.000131 0.002018
0.081635 -0.002247 -0.000182
0.081530 -0.000250 0.001493
0.081536 -0.000838 0.001613
0.081513 -0.002466 0.000902
0.081361 -0.002699 0.001581
0.081344 0.001435 0.000425
0.081345 -0.002213 0.002064
0.081403 -0.001200 0.002146
0.081308 0.000781 0.001906
0.081608 -0.000617 0.001302
0.081421 -0.002708 0.001169
0.081431 -0.002733 -0.001076
0.081546 -0.002014 -0.001244
0.081373 0.000157 -0.002023
0.081663 0.000146 -0.000026
0.081766 -0.000835 -0.000724
0.081489 0.000818 -0.000319
0.081449 -0.001737 -0.001846
0.081514 -0.002372 -0.001044
0.081530 -0.001553 0.001540
0.081547 0.000551 0.000452
0.081297 0.000575 -0.002098
