ply
format ascii 1.0
element vertex 1711
property float x
property float y
property float z
end_header
4.601406 0.094193 -0.085633
3.977468 -0.020076 0.125310
4.610990 -0.070289 0.105966
2.974165 0.031008 -0.123871
1.031206 -0.127265 0.005224
4.896546 0.040538 -0.120519
0.213696 0.098604 0.079884
1.646016 0.126865 0.008260
5.385830 0.125732 0.016871
3.661070 0.126636 0.009998
2.053206 -0.111016 0.063480
3.915616 0.088349 -0.092109
5.423327 -0.122400 0.035997
4.596714 0.004904 -0.127307
0.679400 -0.097024 -0.081943
2.242985 0.007293 -0.126993
5.385800 -0.005169 0.127272
5.078507 -0.126406 0.011753
2.711307 0.083962 -0.095475
4.710613 0.120029 0.041721
0.272332 0.124998 -0.022441
0.205462 -0.125507 -0.018581
0.651283 0.073154 -0.103768
5.086211 0.065749 -0.109450
0.888984 0.030692 -0.123912
2.381414 0.091420 0.089246
1.511684 0.065934 0.109308
5.666529 -0.124491 0.026294
0.182984 -0.043471 0.119304
0.867044 0.124363 0.027269
2.770884 0.054974 0.114539
3.221050 0.093580 0.086431
5.536293 0.038188 -0.121492
2.793795 0.084483 -0.095075
1.898906 0.113888 -0.056547
2.883082 0.127356 -0.004535
5.759570 0.123143 -0.034202
4.153648 0.011427 -0.126448
0.605147 0.071199 -0.105268
0.410220 -0.089276 0.091397
0.062488 -0.007139 -0.127013
0.846743 0.127916 -0.000278
1.498971 0.026158 -0.124509
4.603173 0.040487 0.120540
3.031278 -0.054698 0.114654
0.391907 0.124570 -0.025693
2.120199 -0.027906 0.124279
2.060554 0.125068 -0.021914
0.043982 -0.023617 0.124843
2.776148 -0.090173 -0.090709
3.147167 0.062967 0.111229
2.997397 -0.031964 -0.123745
2.515939 0.116567 -0.050078
0.777785 0.119041 -0.044105
0.010368 0.066776 -0.108579
4.269042 0.012378 -0.126323
4.558777 -0.124293 0.027798
3.772491 0.024321 0.124751
5.902775 -0.086603 -0.093449
2.743973 -0.062861 -0.111273
0.157463 0.056496 0.113909
3.498396 -0.056501 0.113907
4.968947 -0.005939 -0.127171
5.144155 0.100071 -0.077972
3.054763 -0.085471 -0.094317
3.957469 -0.104746 0.071879
4.304070 0.118923 0.044390
0.768367 -0.081308 0.097511
0.356465 0.019807 0.125345
5.976865 -0.004973 -0.127298
3.596531 0.126859 0.008309
3.851034 0.084667 0.094933
2.804048 0.052143 -0.115712
5.834547 0.123839 -0.031247
3.310645 0.084562 -0.095014
1.997486 0.111562 0.062162
4.998414 -0.119416 -0.043201
3.150715 0.087003 0.093141
1.037598 0.109622 0.065525
3.945275 0.085620 0.094203
5.464782 -0.124033 -0.029773
0.280025 -0.021691 -0.125097
3.591681 0.082140 -0.096873
5.241269 -0.017596 -0.125636
6.058017 -0.007262 -0.122129
0.646434 -0.048762 -0.117112
1.562816 0.127098 0.006489
0.184702 -0.068640 0.107232
0.433266 0.110986 -0.063552
0.676101 -0.115396 -0.052906
5.113052 0.089417 -0.091289
2.887964 -0.124404 -0.026954
5.837533 -0.120034 0.041708
2.852115 0.046284 -0.118139
0.904232 -0.012502 -0.126307
3.739517 -0.008330 0.126856
3.453446 0.003969 -0.127430
3.552067 -0.100225 -0.077772
0.550941 -0.016280 -0.125810
1.968319 0.089658 0.091104
1.278163 0.123854 0.031133
4.775090 -0.026647 -0.124445
4.612208 -0.127298 0.004972
4.574999 0.091501 -0.089141
0.226490 -0.127839 0.000864
3.508921 -0.019824 -0.125343
3.867040 -0.057278 0.113585
5.150991 0.120274 -0.041128
4.595176 0.034057 -0.123203
1.798379 -0.087531 -0.092736
1.841458 0.025456 -0.124601
1.410407 -0.112491 -0.059920
3.870667 -0.124569 0.025699
2.595812 0.124318 -0.027609
5.415999 0.124339 -0.027451
5.465155 -0.069279 -0.106742
1.867579 0.092930 0.087278
4.663119 -0.002738 -0.127592
2.020558 -0.125005 0.022391
5.808935 0.117683 0.047385
4.501538 -0.071518 0.105023
0.869042 -0.127457 0.003765
3.081357 0.016567 -0.125772
2.678885 0.088083 0.092313
1.094055 0.106298 -0.069857
4.919487 -0.076704 0.101044
0.021020 -0.100677 0.077182
4.477684 0.126183 -0.013440
4.777063 0.067772 -0.107898
4.479531 0.002370 -0.127641
1.792902 0.020892 -0.125202
5.319260 -0.088925 0.091666
3.785365 0.095566 -0.083843
1.225431 0.108231 -0.067338
2.960645 0.054288 -0.114823
2.419389 0.122137 0.036632
4.268870 0.124690 -0.024784
1.001286 -0.127603 -0.002660
5.234198 -0.114112 0.056005
5.828508 0.108590 -0.066870
2.073171 -0.125663 -0.017396
0.274324 -0.096451 0.082689
2.158207 0.111131 0.063203
3.533676 0.049820 -0.116674
3.057805 0.127739 0.001621
4.755761 -0.125757 -0.016676
2.922414 0.065762 -0.109440
5.602305 -0.022529 -0.124987
3.630446 -0.064055 -0.110750
3.212115 0.027667 -0.124310
1.320789 0.052345 0.115628
3.584309 0.052153 -0.115708
1.661487 0.123764 -0.031815
3.013392 -0.030451 0.123944
1.357156 0.095274 -0.084223
2.402729 -0.073642 0.103394
5.795155 0.024510 -0.124726
4.387798 -0.117920 0.046812
3.841068 -0.060242 0.112357
1.978343 0.124263 -0.028023
1.635929 0.009109 0.126753
2.599487 0.087011 -0.093135
3.345209 -0.061731 -0.111740
2.784487 -0.001309 0.127780
0.264130 -0.113277 0.058020
2.987013 -0.059122 0.112821
0.412709 0.127411 -0.004114
2.468904 -0.090751 0.090119
3.367937 0.118573 -0.045236
2.624411 0.082176 0.096845
5.374903 -0.081990 0.096988
3.950356 0.111816 0.061549
4.974741 0.026251 -0.124497
1.713181 -0.121600 -0.037928
0.351185 0.050075 0.116568
0.375488 0.038340 0.121429
1.076483 0.093714 -0.086257
1.989305 0.016328 0.125803
1.180220 0.118747 -0.044816
0.893486 0.094145 -0.085695
3.564582 0.016023 -0.125843
5.205513 0.125229 0.020692
4.747236 -0.118671 0.045000
4.769347 0.125687 0.017211
0.587050 0.087936 -0.092426
2.395329 -0.108905 0.066459
0.625058 -0.022985 0.124927
3.980778 -0.126591 -0.010344
2.166274 0.017975 -0.125586
5.323585 0.036270 0.122287
5.312497 -0.035127 -0.122760
0.914893 0.124820 -0.023796
4.165610 0.015785 0.125875
5.071746 -0.093542 0.086480
3.857190 -0.005566 -0.127220
-0.000000 0.073126 0.082758
1.863150 -0.029365 0.124087
1.401028 -0.114122 0.055981
5.525194 -0.024321 0.124751
4.228306 0.078831 -0.099412
3.544207 0.009577 0.126692
3.904169 -0.124628 -0.025252
4.280290 0.116697 -0.049764
4.644317 -0.127828 0.000951
0.192517 -0.090249 -0.090651
5.002991 -0.082028 -0.096959
2.678744 -0.011097 0.126492
3.541784 0.121317 0.038611
4.601827 -0.028599 0.124188
3.650873 0.068369 0.107439
2.484833 0.085128 -0.094580
5.654337 -0.125765 -0.016617
1.050407 0.075098 -0.102277
5.915871 -0.119368 0.043318
1.101850 0.081904 -0.097054
2.021871 0.000159 -0.127932
4.987179 -0.051304 -0.116060
2.234877 -0.120486 0.040618
3.485303 0.004018 -0.127424
4.759716 0.015213 -0.125950
5.862544 -0.118084 0.046416
5.865325 -0.091995 -0.088497
0.489637 0.105042 0.071494
2.867273 0.020275 0.125283
4.711985 -0.002842 -0.127579
1.026128 0.002815 -0.127582
0.703661 -0.112138 -0.060772
5.333248 -0.115567 0.052493
5.019641 -0.124573 -0.025670
3.826422 -0.081686 0.097222
0.178723 0.122113 0.036689
0.879974 0.018878 0.125467
3.951003 -0.102899 -0.074287
0.840598 -0.057172 -0.113629
3.858260 0.063053 0.111193
5.287336 0.126613 -0.010178
1.854683 -0.123807 0.031491
5.126189 -0.043990 -0.119089
4.440333 0.126610 -0.010203
1.653596 -0.079119 0.099191
1.529940 -0.017371 0.125666
4.474296 0.097498 0.081325
2.000751 -0.018814 0.125476
5.720702 0.012340 0.126328
1.823933 0.127722 0.001750
1.816733 -0.020553 -0.125247
5.695836 0.124726 -0.024505
3.637046 0.105763 0.070554
3.753084 0.028862 -0.124153
1.643110 0.107349 -0.068487
1.202250 0.047578 -0.117603
3.703870 0.091896 -0.088626
4.136355 0.111368 0.062630
1.776433 0.082460 -0.096627
0.747475 -0.083523 -0.095811
1.084964 -0.113481 0.057528
1.761625 0.064210 -0.110631
5.035805 -0.000773 0.127851
0.256612 -0.037711 0.121690
1.076772 0.071911 -0.104722
4.878879 -0.071912 -0.104721
0.655519 -0.020018 0.125317
5.128840 -0.126605 -0.010236
4.847986 -0.121926 0.037141
2.599121 -0.108489 0.067001
4.141642 0.028543 0.124195
0.152917 -0.127100 0.006479
0.644615 -0.042868 0.119554
0.560031 -0.044302 -0.118960
3.325141 0.111109 -0.063256
0.894641 -0.111347 0.062681
1.480248 0.125025 0.022234
3.954469 -0.070489 -0.105813
3.230400 -0.088174 -0.092243
4.706256 0.090534 0.090401
0.250815 -0.088258 0.092178
0.754484 0.104658 0.071995
2.687122 -0.017183 -0.125691
2.721200 -0.026594 -0.124452
4.414316 0.008419 0.126844
2.430280 -0.105066 0.071463
1.201826 0.125867 -0.015840
4.217316 0.124505 0.026191
0.195541 0.076781 -0.100985
1.753813 -0.125383 0.019521
1.290622 0.023137 -0.124907
0.337220 -0.124898 -0.023202
1.962729 0.025214 0.124633
2.934545 -0.000905 0.127834
1.426516 0.124981 0.022572
1.930958 -0.015502 0.125912
3.843263 -0.125533 0.018380
0.527222 -0.077002 0.100815
3.752781 -0.125487 -0.018726
4.533423 -0.053367 -0.115205
0.876341 -0.085849 -0.094027
0.746246 0.071624 0.104942
0.798980 -0.090906 0.089916
4.683396 0.027762 0.124298
3.442384 -0.091143 0.089607
4.621605 -0.009226 -0.126738
-0.000000 0.111602 0.031571
1.174284 0.095583 0.083821
1.170275 -0.105171 0.071325
4.102902 0.126560 -0.010576
3.284011 0.110842 0.063901
5.889742 -0.005866 0.127180
0.862655 0.063194 0.111134
1.189074 0.126914 0.007887
5.102130 -0.127829 -0.000943
5.073268 -0.106589 -0.069478
1.705555 -0.117750 0.047223
1.101594 -0.070889 -0.105506
1.371287 0.123928 0.030571
0.517135 0.006211 -0.127135
3.553919 0.091362 -0.089322
1.307529 -0.125528 0.018419
4.097213 0.125469 0.018863
3.431281 -0.124648 0.025104
5.397282 0.049098 -0.116973
5.495742 -0.079376 0.098994
1.223666 -0.082735 0.096416
3.672686 0.010764 -0.126536
3.990084 0.105602 -0.070764
3.892370 0.050851 0.116247
1.487671 0.127023 -0.007061
5.396416 -0.071087 0.105354
5.658789 0.112078 0.060915
5.954227 -0.088420 0.092054
0.994996 0.029713 0.124041
4.892294 0.065881 -0.109349
2.803917 -0.123704 0.032276
2.823779 -0.023857 -0.124812
4.187112 0.010514 -0.126569
4.375064 0.073328 -0.103635
0.147755 -0.123611 -0.032976
5.539276 0.067977 -0.107741
3.589950 0.051345 0.116042
2.201110 0.024696 0.124701
0.706054 0.116707 -0.049739
4.384472 0.125777 -0.016524
2.302103 0.010923 -0.126515
1.936280 0.123892 0.030846
5.451587 0.028329 -0.124223
2.909833 0.023996 -0.124794
5.481276 0.093047 0.087125
1.215315 0.126417 0.011661
5.995056 0.125843 0.016027
1.862589 -0.086651 0.093411
3.174963 -0.084729 0.094886
2.632286 0.043560 -0.119267
5.923518 0.006930 0.127040
4.103960 -0.049457 0.116825
2.512387 0.043460 0.119309
2.343402 0.124753 0.024302
4.541514 -0.000085 -0.127942
1.568095 -0.126727 0.009310
2.245493 -0.091553 -0.089073
2.219747 -0.126866 0.008258
4.588408 0.019685 0.125361
5.295260 -0.029700 0.124043
1.243893 -0.122893 -0.034806
5.475479 -0.122230 0.036407
1.415770 0.014205 -0.126083
5.773131 0.007094 -0.127019
0.948434 0.126581 0.010416
4.004846 -0.123221 -0.034014
0.887341 -0.124351 -0.027359
4.760685 -0.108246 -0.067318
4.282109 0.080542 -0.098099
1.557157 0.071566 -0.104987
4.702218 -0.119509 0.042977
5.295334 0.034365 0.123076
0.553485 -0.127912 0.000311
4.554388 0.005206 0.127267
4.705841 -0.086383 -0.093617
3.337437 -0.000453 -0.127893
2.849971 0.120531 -0.040509
2.122138 -0.002313 0.127648
0.152993 0.012916 -0.126252
4.803476 0.069298 -0.106727
0.183877 -0.093217 0.086904
4.178152 0.119865 0.042117
1.243279 0.033196 0.123560
4.128319 0.127601 0.002673
3.780227 -0.124753 -0.024308
1.088745 0.092856 0.087375
2.963237 -0.036509 -0.122188
2.244204 -0.068242 -0.107537
4.903879 -0.108499 -0.066989
5.100343 0.064218 0.110625
0.984283 0.103498 0.073506
1.943640 0.127428 0.003985
1.396373 0.124816 0.023826
5.241140 0.040655 0.120470
3.688757 -0.027631 0.124315
0.122869 -0.083211 -0.096051
5.821273 -0.036039 0.122382
2.625367 0.125712 -0.017023
1.496195 -0.041176 -0.120255
4.299109 0.125897 0.015613
1.467914 0.114042 -0.056175
4.910828 -0.119397 -0.043248
3.849426 -0.025371 0.124613
1.611979 0.018680 -0.125493
5.733084 0.022145 -0.125037
3.630948 0.125525 0.018437
1.971756 0.024248 -0.124761
0.013147 0.030107 0.123989
4.535581 0.126173 0.013518
4.220535 -0.127441 -0.003885
2.117812 -0.052267 0.115660
2.961666 0.006599 -0.127084
2.274839 -0.093949 -0.085951
2.354580 0.122305 -0.036226
4.198147 -0.070253 0.105994
2.372886 -0.000712 -0.127859
2.179570 -0.039543 -0.120931
4.736369 -0.045275 0.118557
5.355406 0.116142 -0.051104
4.289536 -0.035420 -0.122639
1.497517 -0.111833 0.061508
5.893333 -0.126205 0.013279
1.461549 -0.124531 0.025991
3.130668 0.099109 0.079225
3.588518 0.025599 -0.124583
3.630763 -0.082917 0.096277
2.265748 -0.069271 0.106748
0.677234 0.079102 -0.099204
5.883408 0.090713 -0.090168
1.998372 0.126870 -0.008222
3.347075 0.102664 0.074593
5.969439 -0.047407 -0.117674
3.199963 0.084245 -0.095258
3.837805 0.016966 0.125719
0.240021 0.110056 0.064959
5.273365 -0.125122 -0.021501
1.801101 0.086382 0.093618
1.882166 -0.036195 -0.122318
3.454422 0.117239 -0.048456
1.242532 0.067088 -0.108422
5.712470 -0.023213 -0.124897
5.075907 -0.019786 0.125348
2.380303 0.056832 0.113769
3.221045 -0.026397 -0.124478
5.624676 0.041081 0.120294
5.641869 -0.078156 0.099930
2.630251 -0.077464 0.100461
2.947541 0.088160 -0.092254
5.430605 0.010206 -0.126609
3.529428 0.031725 0.123776
0.665404 0.026041 0.124524
0.612899 0.061090 0.112006
2.042594 0.115903 -0.051683
1.344483 0.029253 -0.124102
5.135496 -0.125737 0.016830
2.117007 0.029640 0.124050
5.344577 -0.072138 0.104548
4.289830 -0.039647 0.120888
4.810101 0.112504 0.059887
4.116677 -0.095321 0.084162
2.323731 -0.033450 0.123455
0.505869 0.125164 -0.021184
2.292365 0.039915 0.120777
2.028571 0.125953 -0.015189
5.294768 -0.099635 -0.078541
4.308827 0.126795 -0.008795
3.502164 -0.085743 0.094108
2.219007 0.090339 -0.090582
4.121229 0.093796 0.086150
1.064942 0.051776 -0.115864
2.775545 -0.106017 -0.070223
-0.000000 -0.045849 0.095177
3.909095 0.009901 0.126649
1.971616 -0.125133 -0.021421
0.905812 -0.099582 -0.078610
4.863529 -0.017430 0.125658
-0.000000 0.085974 0.027308
0.000000 -0.043350 -0.034108
4.055934 0.075381 -0.102060
2.359168 0.085242 -0.094493
5.469204 0.111032 -0.063442
2.386909 0.086897 -0.093223
1.870057 0.112472 0.059965
4.447127 -0.124620 0.025319
0.428670 0.036781 -0.122075
2.689967 0.125524 0.018450
4.649374 -0.030291 -0.123965
1.993492 -0.123489 0.033368
4.331034 -0.011851 -0.126393
4.499499 0.127482 0.003578
2.923113 0.099312 -0.078961
0.623821 0.037952 0.121590
3.405676 -0.113701 -0.056997
0.380106 0.100312 -0.077658
2.706305 -0.087187 0.093000
0.435099 0.027339 0.124353
3.824565 -0.033468 0.123447
5.179966 0.018812 0.125476
2.550827 0.083211 -0.096051
5.162431 -0.115567 0.052493
5.037913 -0.115882 -0.051733
3.736878 0.127855 0.000743
2.898109 0.068796 0.107112
2.027546 -0.111010 0.063493
5.061880 -0.017057 -0.125707
0.087218 -0.092285 -0.088119
5.040688 0.040707 -0.120449
2.216133 0.117972 0.046686
6.062992 -0.069011 0.074121
4.872530 -0.041870 0.119967
1.847211 0.126046 0.014484
4.297184 0.053637 -0.115093
5.958289 -0.118771 0.044758
1.395103 -0.080100 -0.098438
5.596844 -0.127398 -0.004212
5.600886 -0.047346 -0.117699
5.125961 0.071924 -0.104712
3.649898 0.123986 -0.030132
4.708252 0.033224 -0.123549
3.018264 0.121792 0.037465
1.435901 0.100937 0.076843
4.453208 -0.105959 -0.070299
1.586794 -0.071117 -0.105331
2.107192 0.126855 0.008341
4.094087 -0.124175 0.028692
2.542108 -0.125208 -0.020852
0.524792 -0.022602 -0.124977
1.094321 0.109603 0.065549
4.268126 -0.087385 -0.092848
5.618690 0.074781 0.102520
4.805703 0.021573 -0.125113
3.973994 0.098148 0.080479
4.629715 -0.092353 0.088030
4.832530 0.073513 -0.103493
2.921041 -0.111573 -0.062136
5.602963 0.119913 -0.042001
1.532967 0.126939 0.007698
5.719372 0.084572 -0.095007
3.275730 -0.018201 0.125557
5.763327 -0.080374 -0.098228
3.527016 0.091305 0.089397
4.973914 -0.091881 -0.088646
5.787367 0.094911 -0.084696
1.344881 0.006905 0.127044
3.232784 -0.105409 -0.071016
2.172033 -0.020852 0.125207
3.824977 0.001535 -0.127751
1.275617 -0.114077 0.056091
0.333051 -0.099550 -0.078651
6.062992 -0.063781 -0.097425
2.222624 -0.100932 -0.076850
2.588283 0.031593 -0.123794
0.122208 0.112505 -0.059885
2.553362 0.044533 0.118864
4.208218 0.064856 0.110135
3.474736 0.127461 -0.003738
1.775866 -0.123138 0.034214
4.047342 -0.110643 0.064195
4.418386 0.121222 -0.038840
1.993559 0.124794 0.023994
3.312559 -0.125227 0.020701
1.250805 -0.082901 0.096289
5.065688 0.085085 0.094613
1.841817 -0.070851 0.105536
2.979617 0.126797 -0.008778
5.537684 -0.123694 0.032349
4.001427 0.125285 -0.020263
0.088499 -0.118173 -0.046201
1.404780 0.125249 -0.020533
4.057120 0.107218 0.068658
0.000563 0.045762 0.108363
4.176959 0.126403 0.011768
1.205086 -0.126459 0.011349
2.346998 -0.087998 0.092378
5.096376 0.015938 -0.125854
3.503756 -0.082627 -0.096499
5.251632 0.019676 -0.125362
0.150508 -0.089729 0.091050
0.479163 0.124452 -0.026591
3.373706 -0.064307 -0.110557
5.687723 0.013322 0.126199
3.427362 -0.124143 -0.028935
3.679323 -0.101932 0.075547
5.152795 0.060736 -0.112152
4.450190 0.047917 0.117462
4.207122 -0.114397 0.055317
4.190065 0.005525 0.127225
2.040945 0.083446 -0.095870
2.937792 -0.059338 0.112732
3.838946 -0.072228 -0.104479
3.602225 -0.006347 0.127117
4.350505 0.011540 -0.126433
3.883388 -0.100109 0.077923
2.160842 -0.100688 0.077168
5.896311 -0.085394 0.094376
1.369340 -0.088519 -0.091978
6.021949 0.125977 0.015007
4.096948 -0.127782 -0.001300
1.071754 0.076145 0.101473
0.862360 -0.069035 -0.106929
3.320119 -0.092891 0.087330
3.751128 0.123626 -0.032863
5.597471 -0.118141 -0.046279
1.760277 0.099682 -0.078479
0.147389 0.124117 0.029134
3.707553 0.035095 0.122773
1.977319 -0.126514 0.010927
0.302334 -0.101871 0.075626
3.420725 -0.077694 0.100284
3.368190 0.115024 0.053804
4.155444 0.078297 -0.099822
5.555512 -0.018925 0.125461
6.062992 0.068260 0.043330
5.622031 -0.127800 0.001163
0.271723 -0.124268 -0.027989
3.358240 0.078496 -0.099669
3.231513 -0.126523 -0.010862
1.737532 0.063818 0.110876
4.809344 0.125239 0.020615
3.438630 -0.106430 -0.069685
1.691804 0.074782 0.102519
5.301906 -0.127319 0.004814
3.916846 0.127462 -0.003725
6.062992 0.072349 0.075260
4.243601 0.069123 0.106861
2.880652 -0.106207 0.069975
4.360576 -0.126017 0.014707
5.788084 0.125301 -0.020138
1.368174 0.087023 0.093126
2.459303 -0.105064 0.071465
1.605777 0.088469 0.092016
5.314798 -0.089004 -0.091606
3.691037 0.090170 0.090711
0.185413 0.058195 0.113205
3.351904 0.008574 0.126824
0.466565 -0.095064 0.084498
5.695371 -0.084898 -0.094757
3.951178 -0.019680 0.125362
1.540869 0.090358 -0.090567
0.205649 0.112412 -0.060109
5.743443 0.126668 -0.009761
5.257351 0.120846 0.039747
0.390128 0.039886 -0.120789
4.272861 -0.122213 0.036449
1.635848 -0.116232 -0.050889
4.475922 0.000886 0.127836
0.846646 0.028098 -0.124254
4.918660 0.121824 -0.037387
0.936661 0.029948 -0.124010
0.603301 -0.125820 0.016198
4.743566 0.125359 0.019703
0.360600 -0.030762 -0.123903
5.940285 -0.020851 -0.125208
1.530424 -0.105290 -0.071170
2.246272 -0.052606 0.115520
3.088405 -0.058636 0.113023
1.454326 0.101419 -0.076215
1.554201 -0.024536 -0.124723
4.595948 0.123746 -0.031954
0.543060 0.008244 -0.126867
4.200503 -0.037004 0.121983
1.571530 0.034601 0.122978
4.523978 0.094111 -0.085739
3.315687 -0.068468 0.107364
1.011484 0.112787 0.059205
2.145099 -0.067505 0.108102
3.317776 0.064589 0.110340
1.063083 -0.105659 0.070690
5.487863 0.127771 0.001383
1.256721 -0.060303 0.112332
1.823224 -0.086589 0.093459
2.341759 -0.123684 0.032422
0.202215 -0.018796 0.125478
3.070208 -0.110709 0.064108
4.982876 0.047721 0.117543
0.307189 -0.002809 0.127583
3.902646 0.116596 0.050009
0.150122 0.127019 -0.007094
5.981289 0.125525 -0.018439
0.375404 -0.005582 -0.127218
1.943067 0.042779 0.119590
0.836425 0.086222 0.093741
1.536411 0.016828 0.125737
1.714350 -0.040173 0.120670
1.307854 0.119093 0.043980
3.416227 0.088744 -0.091805
3.253733 0.048643 0.117161
2.286326 0.114614 -0.054794
1.779693 0.097024 0.081943
5.191976 0.112139 0.060768
3.044473 -0.119838 -0.042181
3.870199 0.039358 0.121008
1.587976 0.125694 0.017158
3.214358 -0.126078 0.014243
3.884457 0.017383 0.125664
2.828810 0.091907 0.088611
6.062993 -0.055256 0.038646
5.869814 0.030108 -0.123989
4.446255 0.090027 0.090821
0.980302 -0.125553 0.018232
3.196065 -0.127027 -0.007036
1.537421 -0.125020 0.022279
1.749117 0.123851 -0.031157
5.383673 -0.125114 0.021566
2.753134 -0.024524 -0.124724
3.715162 -0.077393 -0.100515
1.348444 -0.021769 0.125087
3.978017 0.051166 -0.116116
0.595554 -0.119120 -0.043914
0.289112 -0.030530 0.123933
3.714728 -0.098993 -0.079377
6.051929 -0.006028 0.127159
5.402511 -0.026590 0.124452
0.020798 -0.124781 0.024093
2.557931 -0.057187 0.113622
3.545011 -0.029573 0.124059
2.001280 0.097208 -0.081704
1.390886 0.019432 0.125394
0.797093 0.089839 0.090965
1.384517 -0.088297 0.092149
3.449414 -0.117314 -0.048275
3.235797 -0.005205 0.127267
1.366066 0.113180 -0.058254
0.677918 0.089833 0.090970
3.237175 -0.124418 0.026852
0.410721 -0.124112 -0.029171
2.988784 0.108529 -0.066950
4.956576 0.065480 0.109656
0.095831 0.107301 0.068550
1.059703 -0.019528 0.125382
2.224272 -0.017358 -0.125668
0.733070 -0.086835 0.093270
3.610287 0.093493 0.086545
1.002087 -0.107901 -0.067767
5.390280 0.116366 0.050563
0.477389 0.125647 0.017513
5.003675 0.076400 0.101277
2.743613 0.059494 0.112667
0.609015 0.125483 -0.018757
1.352877 0.127145 -0.006136
1.554062 -0.025915 0.124541
4.438292 0.006513 -0.127095
0.041427 0.031707 0.123778
5.215807 -0.126407 -0.011739
4.909351 -0.031537 -0.123801
4.685575 0.011182 -0.126481
2.763858 0.126553 0.010629
3.075383 0.117347 -0.048196
2.473062 0.106831 -0.069162
0.893557 -0.089369 0.091326
0.211649 0.055935 -0.114141
1.216403 -0.075050 -0.102313
6.062992 -0.088527 0.015620
1.738277 -0.017603 0.125635
1.337931 0.053241 -0.115257
3.470904 -0.038339 0.121430
0.823292 -0.126559 -0.010587
1.908539 -0.127450 -0.003818
5.815521 -0.125708 -0.017053
2.118768 -0.086586 0.093462
1.751774 0.127797 0.001181
5.828071 -0.087363 0.092865
0.067468 -0.004620 0.127344
4.328613 -0.126738 0.009231
3.258718 0.104163 0.072640
4.598249 -0.106874 -0.069106
3.935189 -0.040296 0.120619
1.386065 0.089898 -0.090920
1.418741 -0.124901 -0.023178
0.272279 -0.056728 0.113813
3.976413 0.126149 -0.013701
2.774039 -0.025964 0.124534
0.795297 0.127531 0.003203
1.440746 -0.127365 -0.004464
4.269939 0.054974 -0.114539
5.662432 0.026045 -0.124524
0.677162 -0.014640 -0.126025
2.255745 -0.106982 -0.068966
2.961439 -0.127351 0.004574
4.447297 0.125276 0.020331
0.000000 0.081220 -0.055178
0.267163 0.106784 0.069223
2.354720 -0.040925 0.120359
3.960627 -0.116763 -0.049606
5.857419 0.124652 0.025069
1.918348 0.104400 -0.072330
5.107160 -0.124783 0.024074
1.534071 0.010862 -0.126523
5.736434 0.104458 -0.072255
5.255227 -0.062583 0.111387
3.089647 0.073029 -0.103864
3.709024 0.125910 -0.015517
2.315256 -0.127310 0.004879
1.977617 -0.110809 -0.063978
2.906595 -0.002270 0.127654
0.752376 0.120273 -0.041132
4.104983 -0.016787 -0.125743
3.097324 -0.095124 0.084419
2.814601 0.105575 -0.070799
0.576450 -0.021443 -0.125130
0.219702 -0.013680 -0.126152
2.784039 0.118562 0.045263
4.619834 -0.113994 0.056291
4.677568 -0.116649 0.049882
3.436774 0.018216 0.125555
4.482572 0.029059 -0.124127
4.511755 0.124455 0.026571
1.727089 0.125950 -0.015211
4.842301 0.043052 0.119478
5.122772 0.048543 -0.117203
3.279053 -0.105822 -0.070477
3.099511 0.121227 -0.038828
1.119604 0.022320 0.125014
2.967278 0.087831 0.092506
1.274263 0.000142 -0.127934
5.042884 -0.028987 0.124137
4.724321 0.108712 -0.066711
5.079326 0.047383 0.117684
0.594923 -0.087883 -0.092466
3.669294 -0.117667 -0.047422
0.401051 0.062909 -0.111252
0.736371 -0.101899 -0.075590
4.881444 -0.105466 0.070941
4.813864 -0.104777 -0.071839
3.124645 -0.094911 0.084697
3.167783 0.113475 -0.057543
2.964467 -0.028499 0.124201
3.390057 -0.022251 -0.125023
5.133300 -0.066774 -0.108664
5.423674 -0.011299 0.126465
0.980660 0.006270 0.127127
4.697389 -0.066432 -0.108926
2.341841 -0.112940 -0.058835
5.821172 -0.009914 0.126648
4.068006 0.055180 0.114454
3.356383 0.105045 -0.071490
3.474342 -0.114566 0.054910
5.796930 -0.088242 0.092190
2.500142 0.020970 0.125192
2.042141 -0.065159 0.109903
5.462453 -0.023890 -0.124808
1.565338 0.000106 -0.127939
1.442572 -0.114474 -0.055132
5.765427 -0.025915 -0.124541
1.226083 0.075224 0.102179
3.107346 0.027071 -0.124389
0.413671 0.116725 0.049696
1.110466 -0.116340 0.050627
3.656104 0.086876 -0.093239
0.352732 0.116727 -0.049693
0.283775 0.093469 0.086576
2.275325 -0.006165 0.127141
5.500533 -0.015639 0.125894
3.435926 0.072751 0.104077
5.990283 -0.088509 -0.091986
1.268427 0.098919 -0.079473
4.857251 0.007488 0.126967
1.811697 0.124519 0.026082
5.817880 0.000281 -0.127916
2.624764 -0.047028 0.117831
4.333175 0.017098 0.125702
3.428890 -0.105202 0.071285
2.317842 -0.101518 0.076086
0.580126 -0.062493 0.111425
4.027561 0.072169 0.104523
3.370965 0.095778 0.083566
4.293482 0.018377 0.125533
3.682779 -0.030456 -0.123943
2.631659 0.126617 0.010147
2.376444 0.127120 -0.006325
0.267664 0.094230 -0.085584
5.731062 -0.123838 0.031259
0.168264 0.060007 -0.112454
5.641637 -0.020833 0.125210
3.411359 -0.001483 0.127757
3.285765 0.093929 0.085977
4.098295 0.032024 -0.123737
1.923783 0.126196 -0.013343
5.444631 -0.114622 -0.054773
0.815635 0.061989 0.111633
1.078559 -0.093400 0.086666
2.160899 -0.055856 -0.114174
4.323226 0.012430 -0.126316
1.326356 0.007738 -0.126934
5.120884 0.013854 0.126129
3.388344 0.081586 -0.097298
3.957922 0.021977 -0.125059
1.650251 -0.124265 -0.028008
0.180335 0.103764 -0.073159
6.016990 -0.105126 0.071384
3.394831 0.102614 0.074658
5.667966 -0.031730 0.123775
5.126281 -0.119242 0.043621
3.398004 -0.023195 0.124899
5.732886 -0.022678 0.124967
0.404869 0.064319 0.110547
-0.000000 -0.007124 0.075797
5.181045 0.045143 0.118611
1.680905 0.114527 -0.055005
1.997806 -0.088606 0.091911
0.297148 0.082483 -0.096610
1.873182 0.124496 -0.026253
1.625048 -0.010688 -0.126546
0.587439 0.123291 -0.033846
0.928792 -0.107835 -0.067854
4.569607 0.124033 -0.029771
3.290890 -0.125628 -0.017660
6.038324 -0.123751 -0.031916
1.028006 0.032604 -0.123660
2.288648 -0.018266 -0.125548
4.749347 0.124750 -0.024325
2.831776 0.088782 -0.091776
5.784262 -0.102926 0.074252
4.837989 0.082044 0.096947
1.319737 -0.123136 -0.034219
4.844891 -0.037884 0.121618
0.677697 -0.124926 -0.022994
2.514137 0.124804 -0.023913
4.990345 0.126560 -0.010575
3.173539 -0.089848 -0.090959
3.249884 -0.011279 -0.126468
1.440678 0.084199 -0.095293
0.564472 0.047004 -0.117841
2.941418 0.112596 -0.059665
4.363952 -0.022820 -0.124949
1.000653 -0.007914 -0.126911
1.790861 0.098051 -0.080604
0.737988 -0.127589 -0.002765
1.179880 0.071889 -0.104739
0.959231 -0.109576 -0.065585
3.118942 0.030712 0.123909
3.804109 -0.127536 -0.003165
5.218793 -0.056778 0.113792
4.014833 -0.002561 0.127616
4.771852 -0.049099 0.116973
5.275457 0.110959 0.063618
0.459131 0.126554 -0.010622
1.513576 0.125613 -0.017770
5.726530 -0.048880 0.117063
6.006272 0.126978 -0.007407
5.726977 0.123516 -0.033303
4.443386 -0.034999 0.122813
5.598528 0.059093 0.112833
0.414106 0.007523 0.126962
4.125552 -0.125372 -0.019601
1.231449 -0.027810 0.124291
5.001723 -0.127625 -0.002488
1.235666 0.038780 -0.121247
5.151930 -0.047075 -0.117811
2.554977 -0.119867 -0.042111
2.465602 -0.060062 -0.112432
3.007391 -0.000588 0.127875
0.650815 -0.124676 -0.024888
0.851534 -0.120917 -0.039578
2.873268 -0.015623 -0.125896
2.096596 0.090124 -0.090747
3.490870 0.101052 0.076694
5.671668 0.125977 -0.015005
2.815781 0.009402 0.126715
0.599712 -0.063179 -0.111141
4.647232 -0.063544 -0.110990
2.400513 0.000703 0.127860
2.238127 0.042403 -0.119746
5.508235 0.088997 -0.091611
0.847527 -0.046700 0.117966
5.219468 0.112799 -0.059176
1.412484 0.085268 -0.094472
0.939216 -0.103063 0.074073
3.803699 -0.119818 -0.042231
6.062992 0.084745 -0.009643
1.952532 -0.127247 0.005363
2.998875 0.125204 0.020875
2.503870 0.112700 0.059415
5.771220 0.035765 -0.122496
-0.000000 0.029652 0.018489
3.853107 0.081041 -0.097716
0.489028 0.119828 0.042205
4.262154 -0.012205 -0.126346
5.226952 0.011621 -0.126423
2.174030 0.125051 0.022040
3.240801 0.013329 -0.126198
5.287488 0.063380 0.111057
3.788035 -0.106341 -0.069801
0.364802 -0.088875 -0.091705
2.930421 0.041819 -0.119988
5.768792 -0.114035 0.056192
0.658932 0.124575 0.025655
3.089290 0.102450 0.074872
2.788527 0.125229 0.020691
5.163555 -0.092194 0.088237
3.238614 0.088754 -0.091797
3.329019 -0.010860 0.126523
5.992859 -0.096432 0.082715
5.094185 0.125166 -0.021166
1.899113 0.108573 0.066892
6.017174 -0.008069 0.126890
-0.000000 -0.002042 0.022956
3.907490 -0.093446 0.086606
2.122756 0.085589 -0.094226
0.407122 0.089135 0.091505
5.572200 -0.126257 -0.012882
4.377769 0.005331 -0.127251
2.631625 0.102466 -0.074851
3.201920 -0.101550 -0.076045
5.648600 -0.102045 -0.075400
1.283951 -0.119881 -0.042077
2.364007 0.027242 -0.124366
5.468241 0.125932 -0.015352
0.991838 0.123662 -0.032588
3.281890 0.091668 -0.088923
1.606599 0.019521 0.125383
4.481566 -0.025824 -0.124553
0.207334 0.126879 0.008157
1.459790 0.089022 0.091592
5.635161 0.034076 -0.123195
2.710819 0.019327 -0.125408
1.684308 -0.092267 0.088143
0.063726 0.095125 0.084418
3.964379 -0.041598 0.120080
0.073300 -0.086430 0.093581
6.062992 -0.002028 0.067826
5.184563 -0.041949 -0.119935
0.971203 0.104250 -0.072525
0.573058 0.008575 -0.126824
2.107396 0.114383 -0.055352
1.102410 0.120057 0.041652
1.575215 -0.073267 0.103682
3.821898 0.045538 -0.118448
2.202826 -0.111634 0.061988
3.601968 -0.059079 -0.112839
0.091378 0.090081 0.090779
2.142735 -0.042293 0.119792
4.141459 0.082010 0.096973
0.994896 -0.035131 -0.122758
5.229586 -0.090303 -0.090610
5.108984 -0.076889 -0.100902
3.912508 0.124439 0.026692
5.971626 0.021316 -0.125146
4.363028 0.004117 0.127411
3.828989 -0.125780 -0.016502
1.961496 0.116255 -0.050832
5.297174 0.092713 -0.087561
5.290872 -0.081518 -0.097350
1.853246 0.050287 0.116481
2.219086 0.068100 -0.107646
2.935564 0.056734 0.113810
5.786464 -0.127608 -0.002621
0.704354 -0.103267 0.073807
5.375440 0.027279 -0.124361
0.799302 0.009264 -0.126733
5.116933 -0.000456 -0.127893
-0.000000 0.015337 0.048820
0.975134 -0.096642 -0.082441
0.952899 -0.048850 0.117076
0.689842 0.097572 -0.081229
5.018709 -0.037059 0.121960
1.578832 -0.108988 0.066352
4.912959 0.039137 0.121099
4.499382 0.123838 -0.031257
4.764539 -0.120101 -0.041548
1.295377 0.090863 -0.089972
5.873471 -0.126936 -0.007724
2.660606 0.063229 -0.111120
2.148764 0.127023 0.007065
4.298614 0.073419 0.103564
0.000000 0.074834 -0.082302
1.497267 -0.011224 -0.126475
2.165796 -0.054114 0.114896
1.524591 -0.127841 -0.000851
1.080237 0.031304 -0.123832
0.685404 -0.028145 0.124247
2.326450 -0.125516 -0.018510
0.759849 0.026504 0.124463
4.700766 -0.126762 0.009046
2.566741 -0.123760 0.031849
0.974578 0.127371 -0.004419
2.432444 0.123547 -0.033227
0.387696 0.118700 0.044929
6.034013 -0.040755 0.120429
1.435391 0.044386 0.118925
0.113904 0.018119 -0.125567
0.642914 -0.093293 -0.086806
3.375993 -0.125301 0.020145
4.123158 0.003708 -0.127465
5.706903 0.084353 0.095174
5.259542 0.126688 -0.009607
1.814869 0.124746 -0.024358
0.124706 0.127946 -0.000049
5.641112 0.127573 -0.002882
5.335739 -0.122419 -0.035951
1.244943 0.011443 -0.126446
1.173350 0.047856 -0.117488
1.361670 0.115036 0.053775
1.073677 -0.067952 -0.107760
4.562860 0.027611 -0.124318
4.794590 -0.030964 0.123876
1.375875 0.123952 -0.030387
2.626426 -0.074829 -0.102483
4.046142 0.093185 0.086946
3.400530 -0.094346 0.085434
3.235465 -0.121472 -0.038238
5.474380 -0.046111 -0.118211
0.834684 0.030984 0.123874
2.726320 -0.127798 -0.001180
5.136779 -0.114177 -0.055849
5.985036 -0.104847 -0.071748
1.542456 -0.084479 -0.095078
4.745554 -0.006168 -0.127141
3.480748 0.114853 -0.054216
1.731586 -0.109660 -0.065475
5.664253 -0.091786 0.088769
2.093651 -0.008628 0.126817
0.003586 0.117781 -0.028182
1.096493 -0.016108 0.125832
5.714118 0.060148 0.112396
5.621071 -0.057317 0.113569
0.905953 -0.127636 -0.002404
3.836483 0.101632 0.075938
2.803324 -0.090524 -0.090414
4.846932 -0.065763 0.109440
2.655276 0.120705 -0.040088
4.882044 -0.097114 -0.081826
1.466955 0.085339 -0.094418
5.496287 -0.098038 0.080622
1.706994 -0.029224 -0.124105
4.702109 0.126028 0.014618
3.303759 -0.023738 0.124828
4.791271 0.124386 -0.027093
1.514718 0.040805 0.120408
1.797346 -0.064997 -0.110027
3.134152 -0.111430 0.062479
4.990527 -0.030398 0.123951
4.573365 0.105937 0.070327
6.028422 0.125295 -0.020185
5.000141 0.103659 0.073297
5.218011 0.070655 0.105685
2.370174 0.062072 -0.111599
3.638463 -0.008780 -0.126797
4.162256 0.110930 0.063688
2.647801 -0.124885 0.023303
5.677823 0.088806 0.091758
0.180261 -0.126079 -0.014236
5.782965 0.118808 0.044668
0.380626 0.116388 -0.050512
3.416614 -0.076151 -0.101469
5.570687 0.021382 -0.125138
1.099823 0.047355 0.117695
4.544868 0.108984 0.066356
1.122171 -0.021976 -0.125060
4.829366 0.013528 0.126172
5.318085 -0.111765 -0.061673
1.171606 0.022721 -0.124962
2.819010 0.124532 -0.025980
3.636393 -0.086557 -0.093483
1.636024 -0.096511 -0.082612
3.529949 0.076132 -0.101483
2.439858 -0.084155 0.095327
4.078026 -0.082383 -0.096686
3.887774 -0.118654 0.045039
3.862780 0.127353 -0.004557
0.472291 0.014409 0.126056
3.071885 -0.120915 0.039581
6.002276 0.119169 -0.043798
5.557374 -0.068725 0.107167
4.630933 0.009634 0.126684
3.319720 0.127192 0.005779
0.096626 0.126587 0.010377
0.793376 0.110292 -0.064651
2.035560 -0.127305 -0.004920
1.729168 0.064211 -0.110630
1.723710 -0.124614 0.025364
5.987541 -0.006695 0.127071
1.895017 -0.063873 -0.110853
3.424621 0.055753 -0.114216
0.016617 0.092270 0.088138
5.933350 0.017844 -0.125604
6.062992 0.043430 -0.040896
6.048463 0.082934 0.096263
5.315492 -0.065785 0.109423
5.168229 0.125759 -0.016660
4.175247 -0.057710 0.113406
1.828905 -0.093402 -0.086663
4.355381 0.087364 -0.092864
4.757026 -0.009166 0.126746
0.442850 -0.054916 0.114563
3.057694 -0.033552 0.123412
1.136174 -0.094225 0.085590
5.639992 0.006339 -0.127118
0.460968 -0.088523 -0.091975
1.430321 -0.078695 0.099516
4.963649 0.061787 -0.111717
0.124872 -0.078199 0.099897
6.053537 -0.110131 -0.064231
2.376076 -0.026184 0.124506
4.540208 0.117475 -0.047885
5.693517 -0.101602 0.075976
2.021061 0.119193 0.043738
1.332211 -0.127892 0.000461
0.329821 -0.079468 -0.098923
5.172188 0.025825 -0.124553
2.523886 0.091982 -0.088514
3.129930 -0.050537 0.116377
4.422940 -0.127264 0.005230
2.458400 0.072493 -0.104276
2.879422 0.041912 0.119950
5.673954 -0.009034 -0.126763
4.410718 0.081703 0.097208
3.944106 0.050410 0.116430
5.601876 -0.072566 0.104219
3.253066 0.124231 -0.028269
2.457263 -0.084327 -0.095195
0.690509 0.124805 0.023908
1.343168 -0.093245 -0.086868
0.087696 -0.067726 0.107933
2.354584 0.116255 0.050831
0.028783 0.125860 -0.015892
3.078645 0.125368 0.019635
2.437845 -0.045555 -0.118441
3.963537 0.126452 0.011399
5.452717 0.120070 -0.041621
4.634218 0.015129 -0.125961
4.884325 0.027731 0.124302
3.647015 0.058057 -0.113262
2.092644 -0.063667 0.110938
2.069468 0.122017 0.036920
3.762801 -0.117235 0.048465
2.933015 0.082664 0.096471
3.548915 0.079954 0.098550
5.323568 0.013155 -0.126221
1.168623 -0.124127 0.029057
-0.000000 0.014295 0.092940
5.423422 0.103925 0.072950
3.838317 0.095895 -0.083414
2.829804 -0.104887 -0.071696
0.630043 0.111453 0.062424
3.445409 0.127121 -0.006319
3.651800 -0.030685 -0.123913
3.261353 0.115414 -0.052862
0.330310 -0.089156 0.091489
1.923577 -0.071239 0.105237
5.431110 -0.086506 0.093523
1.828623 -0.125000 -0.022425
1.996288 -0.085738 -0.094112
2.115589 -0.103068 0.074066
2.427824 0.016244 -0.125814
0.697848 -0.029892 -0.124017
3.973287 -0.027048 -0.124392
3.885232 0.091306 0.089395
2.102884 0.125326 -0.019950
3.426140 0.118118 -0.046333
3.274548 -0.062276 -0.111515
0.994446 0.096922 -0.082077
0.714155 0.086193 -0.093763
1.078147 0.126414 0.011685
0.710531 -0.092884 -0.087339
4.415898 0.125525 0.018440
3.733040 0.046879 0.117892
5.245895 0.107854 0.067829
4.471466 -0.091010 -0.089780
3.658192 -0.029599 0.124056
0.196468 -0.107868 0.067811
2.596181 0.060044 0.112439
1.388295 0.105036 0.071502
5.513014 0.085350 0.094409
5.379402 0.088780 -0.091778
2.509616 -0.116390 0.050506
0.552339 -0.070810 0.105567
1.525026 0.086519 0.093513
2.457518 0.124741 -0.024395
4.008867 0.022790 0.124952
3.100329 -0.124257 -0.028074
1.465517 0.068321 0.107476
5.136675 0.025861 -0.124548
0.158055 -0.123604 0.033031
1.601706 -0.098697 0.079763
5.725397 0.046196 -0.118175
4.072709 0.087840 0.092499
1.142275 0.020763 -0.125219
4.816023 0.123660 -0.032608
0.746816 -0.007628 0.126948
1.331775 0.115255 0.053247
0.241478 0.085245 0.094490
4.992977 -0.105865 0.070421
4.023282 -0.124726 0.024511
3.497287 0.088741 -0.091808
3.619638 0.050506 -0.116390
2.063285 0.085273 0.094469
0.021581 -0.091710 -0.088868
4.580925 -0.116574 -0.050062
2.341793 -0.127038 0.006947
0.740375 0.036609 -0.122146
4.845766 0.115064 0.053706
4.972043 0.123681 -0.032445
3.054651 -0.126057 -0.014403
1.426928 0.099311 -0.078962
5.643202 0.081683 0.097223
5.223781 0.124057 -0.029589
2.292319 0.035636 -0.122549
1.257511 -0.100837 0.076973
5.717711 0.127578 -0.002845
0.094672 0.125739 -0.016818
3.824522 0.125407 0.019339
1.203661 -0.046868 0.117897
3.352928 -0.114815 -0.054309
4.183004 0.101871 0.075627
4.462777 0.073287 0.103666
5.828222 0.069261 0.106755
3.470549 0.124184 -0.028630
3.819888 -0.004617 0.127345
5.169370 -0.012145 -0.126354
4.660334 -0.054368 0.114790
4.592510 -0.067556 -0.108064
4.537650 -0.126699 0.009523
0.366591 0.025438 -0.124604
5.368324 -0.104221 -0.072564
3.532398 -0.127691 0.001992
5.740726 -0.034806 -0.122893
4.122181 -0.125419 0.019242
2.168144 -0.079370 0.098998
1.086115 0.124734 -0.024446
1.773574 0.125359 -0.019704
0.845197 -0.121829 0.037375
5.280240 -0.124164 0.028777
0.000000 0.089839 -0.025444
2.859386 -0.084841 -0.094801
6.051314 -0.063595 0.110968
2.997211 -0.120929 -0.039547
0.245952 -0.067796 0.107880
5.094682 -0.117715 0.047308
2.064152 -0.030826 -0.123894
0.555602 0.089972 -0.090863
1.440798 0.113254 -0.058077
0.757620 0.123865 0.031048
5.953010 -0.125419 0.019249
5.328376 -0.000396 0.127901
3.058023 0.084683 -0.094922
2.504988 -0.016535 0.125776
2.034598 0.065741 0.109456
2.971853 0.123464 0.033427
6.030000 0.116793 -0.049533
5.862863 0.111744 0.061722
1.757269 -0.092130 0.088322
2.155749 -0.114053 -0.056149
0.571701 -0.123447 -0.033469
4.117928 -0.023776 0.124822
3.257211 -0.044103 -0.119042
3.473174 0.075954 -0.101620
2.721839 0.005057 0.127287
1.875062 0.033406 0.123473
4.177308 0.037315 -0.121854
4.762946 0.057250 0.113597
0.189293 0.041089 -0.120291
0.582880 -0.012973 0.126245
4.395815 0.058831 -0.112942
1.164201 0.112989 0.058716
4.185592 0.119748 -0.042398
5.662890 0.008161 0.126878
5.618685 0.125461 0.018926
1.841743 0.089626 0.091128
2.094835 0.090127 0.090744
4.108526 0.090127 -0.090744
4.781622 -0.125168 -0.021152
3.033260 0.099193 -0.079116
1.473825 0.004150 -0.127406
3.409033 0.126614 0.010171
4.827193 -0.028186 -0.124242
5.970663 0.120216 -0.041270
5.708450 0.005459 -0.127234
1.496809 -0.063908 0.110839
2.528362 -0.001429 0.127765
2.118723 -0.119853 -0.042144
2.089546 -0.125892 0.015654
3.946776 0.087231 -0.092967
2.367818 -0.115103 -0.053613
5.819327 0.127814 0.001053
5.226841 -0.125718 0.016971
3.523045 -0.121487 -0.038202
0.812136 -0.125578 0.018039
0.759921 0.127892 0.000461
5.170712 -0.018932 0.125460
5.531448 -0.067324 -0.108242
1.142081 0.047472 -0.117647
2.629487 0.119741 -0.042416
4.969288 -0.115204 0.053368
4.888686 -0.068727 0.107165
3.296215 0.001798 0.127716
3.208030 -0.120613 0.040310
4.539279 -0.079603 -0.098819
6.054223 0.102517 0.073037
2.418376 -0.117794 0.047117
3.491898 -0.011769 0.126403
3.457244 -0.009366 0.126720
2.984508 0.062768 -0.111311
4.315894 0.123221 -0.034014
0.952031 -0.003210 0.127530
2.354990 0.095019 0.084556
2.392595 0.036059 -0.122374
4.829056 0.127839 -0.000865
5.005350 0.007987 -0.126901
4.697706 0.105075 0.071451
2.606011 -0.059175 -0.112799
1.680844 -0.020537 0.125249
2.734732 0.124826 -0.023751
5.296994 0.111124 -0.063218
4.103046 -0.091940 -0.088569
2.008127 0.094151 0.085688
4.229660 0.000726 -0.127857
3.197372 -0.057348 -0.113556
4.265727 0.127472 0.003652
1.316896 0.118262 -0.045985
4.628511 0.124056 0.029598
2.748714 -0.017307 0.125674
1.019945 0.127612 0.002586
1.489671 -0.067098 -0.108415
2.395547 -0.119305 -0.043468
5.565659 0.121977 -0.037017
3.278583 0.125866 -0.015849
1.461367 -0.080968 0.097772
2.422020 0.043912 -0.119121
5.859674 -0.029036 -0.124130
1.055278 -0.111809 -0.061565
1.756957 0.006644 -0.127078
2.246438 -0.091238 0.089483
5.226661 0.018361 0.125535
1.782333 -0.031321 -0.123829
5.887401 0.123625 0.032873
1.725922 0.039549 0.120929
3.614528 -0.022190 -0.125031
3.201904 0.000282 -0.127916
1.598101 0.044112 0.119038
2.943655 -0.123916 0.030664
3.027243 0.127440 -0.003894
1.653789 0.000581 -0.127876
4.914740 0.126509 -0.010968
1.562737 0.099100 -0.079238
6.036620 0.007694 -0.126940
0.817961 0.126443 -0.011464
5.617977 -0.008116 0.126884
2.428456 -0.000464 0.127892
4.576529 -0.097248 -0.081651
0.870361 -0.025827 0.124553
1.590707 0.087902 -0.092451
5.851262 0.054015 -0.114936
1.026674 0.092571 -0.087747
5.123078 -0.108348 0.067185
0.373751 0.061392 -0.111881
3.293165 0.127043 0.006911
2.702950 0.127394 -0.004246
1.816845 -0.008367 0.126851
2.152412 -0.018490 -0.125519
5.779596 -0.123837 0.031265
0.952497 -0.070889 -0.105506
6.062992 -0.007046 0.005225
2.621803 -0.127823 0.000988
3.830795 0.126658 -0.009835
4.866892 -0.125654 0.017462
5.083334 -0.063101 -0.111173
2.686854 0.010258 -0.126602
3.665560 0.094968 0.084623
3.158688 -0.100669 0.077193
3.146991 0.127272 0.005174
2.454142 -0.007027 0.127028
2.680432 0.090699 -0.090186
3.660467 -0.079531 -0.098875
5.211779 0.057543 -0.113475
0.100938 0.075314 -0.102110
3.215846 0.099949 -0.078132
1.826119 -0.045666 -0.118395
5.318849 0.077325 -0.100568
0.223166 -0.118574 -0.045233
2.278532 0.116155 0.051073
4.933827 -0.123868 -0.031027
1.358177 -0.063523 -0.110998
0.049085 -0.124373 0.027191
2.667067 -0.098798 -0.079631
3.017311 -0.125193 -0.020966
0.257059 -0.049581 -0.116773
0.112504 0.055783 -0.114204
0.825024 0.106153 -0.070046
0.718139 0.067488 0.108115
5.200354 -0.024365 0.124745
4.829176 -0.115981 -0.051494
1.944664 0.003156 -0.127537
5.824887 0.108672 0.066763
2.037849 0.105799 0.070507
5.448299 -0.022072 0.125047
4.996041 0.039836 -0.120810
5.069229 0.126063 -0.014356
2.650485 -0.126901 -0.007992
5.989890 0.042515 -0.119700
2.378160 -0.097374 0.081487
0.662759 -0.127576 0.002863
4.110794 -0.111367 -0.062633
0.325233 -0.068073 0.107667
0.204614 -0.119741 0.042416
5.286968 0.031947 -0.123747
6.062992 0.001457 -0.019166
5.268898 -0.089863 0.090947
3.267161 0.012508 -0.126306
2.817088 -0.073603 -0.103423
2.410770 -0.126053 0.014432
0.042416 0.080347 0.098248
3.112447 0.083110 0.096129
1.297266 -0.058253 0.113181
1.443509 -0.000123 -0.127937
5.748840 0.061452 -0.111856
0.107231 0.068198 0.107571
3.914570 0.105322 -0.071129
1.984209 0.111296 -0.062805
0.117547 -0.001755 0.127722
2.338272 0.042815 -0.119576
1.953027 -0.098665 0.079805
4.429756 0.119752 0.042388
5.347015 0.038349 -0.121426
5.798420 -0.024381 0.124743
1.112211 0.125668 0.017350
4.007323 -0.066288 -0.109037
3.526252 -0.093386 0.086685
1.771720 -0.091027 -0.089759
5.888277 -0.104016 -0.072830
2.018749 0.125685 0.017225
3.736031 -0.087736 0.092579
5.864475 -0.002544 0.127618
3.583503 -0.124175 -0.028695
3.922808 -0.113099 0.058450
5.642370 -0.125699 0.017120
4.445780 0.020826 0.125211
0.185560 0.093379 0.086694
0.704210 0.030853 -0.123891
4.606868 -0.091720 -0.088856
4.212438 -0.017960 -0.125588
5.023326 -0.094288 -0.085508
3.642500 0.028528 -0.124197
5.858913 0.106921 -0.069045
0.848786 0.009332 0.126724
3.905232 -0.014335 -0.126066
5.921289 -0.095692 0.083678
5.030275 -0.046218 -0.118166
5.421078 -0.090952 -0.089857
2.731334 0.002481 -0.127626
5.432518 -0.103641 0.073319
0.284475 0.017032 -0.125711
4.049854 0.095114 -0.084432
2.662858 -0.032361 0.123692
4.240986 -0.032851 -0.123628
1.253493 0.126227 0.013110
0.091754 -0.019258 0.125417
4.950610 0.016431 -0.125790
5.406303 0.012922 0.126251
2.452921 0.127170 0.005943
4.919611 -0.013581 0.126165
3.670244 0.068252 -0.107530
4.680322 -0.124644 0.025135
3.181948 0.008039 0.126894
0.880067 0.116958 0.049134
0.769798 -0.094800 -0.084841
1.124856 -0.062424 -0.111453
2.541008 -0.127199 0.005726
2.533983 -0.084244 0.095258
2.840694 0.109748 -0.065360
4.528450 0.026389 0.124478
0.523609 0.082051 -0.096941
4.031436 -0.124198 -0.028523
3.247383 -0.030946 0.123879
4.164151 -0.123577 -0.033155
3.928173 0.116169 -0.051038
0.206038 -0.038518 -0.121356
5.706203 0.033884 0.123275
5.259183 -0.079964 -0.098543
3.605362 -0.080377 -0.098226
0.069241 0.035121 0.122762
2.318368 0.089991 0.090848
1.872134 -0.005227 0.127265
6.018849 0.044976 0.118680
3.436091 -0.089461 -0.091255
1.673765 0.085283 -0.094462
0.124271 0.123912 -0.030691
2.593764 -0.124662 0.024998
0.010415 0.126446 0.011273
0.000000 -0.098574 -0.007262
4.536318 0.030440 -0.123945
2.085078 0.121169 -0.038969
4.674936 -0.026975 -0.124401
1.661607 -0.112763 0.059263
1.138175 0.127423 0.004022
3.859705 -0.092900 0.087318
5.957323 -0.095985 -0.083297
3.109484 -0.084576 -0.095004
3.175992 0.010010 -0.126635
2.742578 0.025885 0.124545
1.975969 -0.069136 0.106851
4.614139 -0.045202 -0.118587
2.534940 0.127508 0.003381
4.826700 -0.115028 0.053794
2.142584 0.119554 0.042866
3.682499 -0.126209 0.013247
2.048955 -0.125636 0.017601
0.289702 0.125480 0.018784
2.975707 0.053660 0.115083
1.223432 0.002511 0.127622
0.407899 0.090312 -0.090602
0.357337 -0.111209 -0.063014
5.656032 0.049654 -0.116743
2.630322 -0.106299 0.069855
3.307966 0.125699 -0.017118
0.810203 -0.014220 -0.126081
1.886419 -0.112898 -0.058937
5.602396 -0.106389 -0.069738
5.343362 0.089214 -0.091445
4.068802 0.125821 0.016195
2.174023 -0.113532 0.057406
5.759922 -0.095283 0.084212
4.529090 -0.078559 0.099621
2.156207 0.116354 -0.050592
5.098849 -0.005353 0.127248
2.898439 0.051798 -0.115855
3.398776 0.085190 0.094533
2.586169 -0.029810 -0.124028
0.287878 -0.125520 0.018479
3.041858 -0.011503 0.126438
0.240829 0.080887 -0.097834
2.573546 0.023452 0.124865
0.508931 0.125095 0.021708
5.828198 -0.066832 0.108619
3.406781 0.033302 0.123516
3.562415 -0.119530 -0.042925
3.204327 -0.094172 0.085660
0.383074 0.011336 0.126460
4.232059 -0.119940 0.041935
2.685725 -0.080893 -0.097830
5.935118 -0.034379 0.123070
2.933681 -0.039994 -0.120744
3.897437 -0.060790 0.112130
1.007296 0.069992 0.106194
2.993368 -0.063689 -0.110929
1.357002 0.102036 0.075412
3.891444 0.070193 -0.106040
4.028268 0.125785 0.016463
6.062992 -0.034792 0.106584
1.298977 0.124290 -0.027820
3.092431 0.126028 -0.014622
5.368016 0.105445 0.070968
0.868401 -0.114747 0.054473
2.246128 0.121720 0.037638
2.331031 -0.001493 0.127756
3.321076 -0.127439 -0.003906
0.535560 0.109449 -0.065751
1.947868 -0.053016 0.115350
0.706529 -0.053150 -0.115295
1.066519 -0.009437 -0.126710
2.217580 0.106560 -0.069516
0.842332 -0.109589 0.065568
1.697957 -0.000997 -0.127822
0.986965 0.015243 -0.125946
0.200851 -0.126015 0.014721
4.919827 -0.094178 -0.085652
2.770330 -0.067137 -0.108385
3.733028 0.005121 -0.127279
3.381330 -0.121546 -0.038058
-0.000000 -0.082306 0.014866
3.841407 0.044274 0.118971
0.896867 0.091947 0.088559
1.525206 -0.074007 0.103114
3.032751 0.016416 -0.125792
1.660596 0.122025 0.036900
2.404794 0.046589 0.118012
1.103794 -0.042001 0.119913
5.860428 -0.069662 0.106447
0.669524 0.111561 -0.062164
1.235153 0.123823 0.031366
1.694228 0.018167 0.125561
3.116564 -0.124834 0.023691
3.576018 0.096679 0.082392
3.969143 0.078377 0.099761
1.320860 0.126039 -0.014537
3.292802 -0.077662 -0.100309
5.100883 0.110452 0.064443
3.365272 -0.013276 -0.126205
4.046761 0.120123 0.041494
5.205481 -0.097985 -0.080691
1.549185 -0.085896 0.093991
4.019475 0.113840 0.056662
5.587885 0.080144 0.098404
5.469980 0.048758 0.117114
2.556117 -0.106780 -0.069228
5.216726 0.127271 -0.005181
4.079760 -0.012071 0.126364
0.823661 -0.036398 -0.122234
5.454546 0.081301 -0.097517
1.373324 -0.113570 0.057314
3.666350 -0.003083 0.127547
0.576452 -0.125999 0.014844
2.775292 -0.000469 -0.127891
2.960872 -0.116194 0.050978
5.327579 -0.037411 0.121814
3.904934 0.012433 -0.126316
3.374057 -0.114668 0.054664
1.400080 0.036707 -0.122106
5.167398 -0.127845 0.000818
2.441612 0.089591 0.091155
2.200405 0.127823 -0.000985
6.048307 -0.094953 0.084642
1.319302 -0.051239 -0.116086
4.222434 -0.060710 0.112163
2.713259 -0.124809 0.023880
1.698910 0.025395 -0.124610
5.024963 0.110213 0.064755
3.031511 0.049264 -0.116904
4.459876 -0.126879 -0.008160
1.769301 0.034887 -0.122860
