ply
format ascii 1.0
element vertex 1714
property float x
property float y
property float z
end_header
6.815050 0.067720 1.184190
8.621760 -0.979566 1.091370
5.716260 -0.011276 0.998775
6.093920 -1.545340 1.563680
8.122620 -1.449380 1.556390
7.413650 -2.908780 0.992373
5.072290 0.062305 1.364290
6.403820 -2.170250 1.578610
7.429970 -1.885240 1.279960
6.120950 -2.118620 1.578610
8.262730 -1.548450 1.577270
5.325670 -0.967555 1.508520
6.257230 -0.596885 1.525560
7.208090 -2.917410 0.991699
5.586590 -1.132530 1.064760
5.500980 -0.691564 1.443540
7.903620 -1.853570 1.433930
8.919700 -1.205600 1.196230
8.729120 -0.509400 1.191840
5.583020 -1.450580 1.044740
8.178040 -1.427280 1.320420
8.348380 -0.682299 1.575840
4.957900 -0.346478 1.456660
7.600800 -1.293520 1.006400
7.233530 -0.327888 1.349890
7.580200 -1.302440 1.553040
7.479480 -1.889330 1.078040
6.637500 0.050908 1.511710
6.071260 -0.858441 1.058360
7.497910 -1.204040 0.991700
5.518460 -1.078180 1.071090
5.475200 -0.690085 1.156900
5.597100 -1.962450 1.081850
8.674950 -0.830383 1.578620
6.750920 -1.730160 1.108320
6.306270 -0.678741 1.468350
6.531830 -1.454460 1.571310
7.144110 -0.999439 1.526290
7.478760 -2.973270 0.991699
8.701780 -0.654439 0.991700
5.721900 -1.701280 1.022970
5.876740 -0.418693 0.991700
6.618910 -2.302740 1.180240
8.126270 -2.371010 1.122340
5.816320 -0.514271 0.998371
7.921370 -0.147965 1.291740
7.376900 -1.102230 0.995736
7.808710 -0.472026 1.031230
7.256360 -1.760870 1.099490
6.089970 -1.820940 0.999820
7.826460 -2.822720 1.407170
5.512770 -1.823700 1.558160
6.752880 -2.500800 1.098610
6.880620 -2.826610 1.054940
5.807680 -2.153870 1.290770
6.592450 -2.233890 1.349280
6.973930 0.056001 1.217600
7.851180 -1.823230 1.110400
7.141620 -2.834420 1.561160
5.977280 -1.271680 1.262490
7.301490 -3.035620 1.032890
5.434360 -1.223580 1.065420
6.995820 -1.069650 0.998890
7.936800 -0.275485 0.992409
6.629700 -0.842640 1.296120
6.588010 -2.661550 1.097120
7.736970 -2.924920 1.173430
5.442840 -0.672478 1.091400
7.356310 -1.057170 1.502830
8.084110 -1.371180 1.398820
6.383940 -2.246650 0.991699
5.968190 0.092793 1.221400
8.470210 -1.428210 1.184370
6.049800 -0.856339 1.506140
6.436100 -1.025580 1.177600
5.228700 -0.354414 1.067000
5.819180 -1.208910 1.435360
6.611620 -1.068620 1.289330
7.608050 -0.416134 1.470940
7.191190 0.000480 1.489690
6.564730 -2.145900 1.357880
8.388160 -1.598600 0.991700
5.998820 -0.119815 1.578620
7.741550 -0.094405 1.230290
6.532510 -1.838280 0.996069
5.759340 -1.189660 1.488360
7.502240 -0.056079 1.479840
5.060310 -1.128130 1.087290
5.528050 -1.942060 1.325960
7.400920 -1.798680 1.018620
6.909010 -1.682890 1.514160
4.925580 -1.310850 1.081400
7.136520 -0.967697 1.206540
5.873980 -0.652748 1.568940
6.117370 -0.582674 0.991700
7.211990 -2.917590 1.578610
7.850020 -1.479430 1.443690
6.283970 -1.563770 1.571020
5.397590 -0.421180 1.048930
7.060080 -0.948253 1.159440
7.987420 -0.169303 1.322310
5.455430 -1.884000 1.366910
5.485990 -0.465162 1.040180
5.617120 -0.678841 1.515230
4.871650 -1.373280 1.473840
7.104470 -1.420570 1.578610
6.371390 -0.738040 1.210390
6.320620 -2.166540 1.578620
7.221570 -0.321167 1.136850
6.493700 -0.267407 1.376540
8.614050 -1.284970 1.409700
7.088690 -0.300012 1.277080
7.886250 -0.523560 1.449820
6.192390 -1.797930 1.578610
7.540990 -1.927550 1.056840
4.958260 -0.152142 1.088370
7.168700 -1.717800 1.507600
7.517810 -2.831990 1.550900
6.719810 -0.890400 1.028770
8.011180 -0.324549 1.578620
6.130870 -2.300770 1.560820
7.982870 -1.445570 0.996608
6.679690 -1.437430 1.047970
6.762500 -2.543210 1.036630
7.718920 -2.887910 1.535650
6.536810 0.062805 1.084970
6.691200 -0.959413 0.991896
6.525010 -1.052500 1.285690
5.436620 0.059759 1.431060
7.563600 -0.339051 1.573870
5.694150 -1.973340 1.566290
8.660400 -1.629330 1.243700
7.933200 -0.552904 1.272420
4.656130 -1.196130 1.392670
6.088680 -0.702609 1.578620
8.031610 -2.404500 0.994219
7.191740 -0.246377 1.573670
6.010350 -2.281670 1.465870
6.220470 -0.220087 1.578620
6.744700 0.068923 1.154830
7.022410 -0.217420 1.573270
7.558240 -2.744620 1.347990
6.544960 -1.554840 1.578610
5.825460 -0.211414 1.578620
6.514640 -1.044310 1.196660
6.280360 -0.599796 1.437680
7.540240 -1.103510 1.200870
7.732280 -1.183150 1.260220
5.331620 -0.696207 1.446900
7.130130 -0.027019 1.550750
7.787210 -0.117523 1.167670
8.087120 -2.432310 1.077070
7.326930 -0.312556 1.014270
7.222160 -1.020520 1.520520
6.232530 -0.681603 0.991700
6.645060 -1.062860 1.156730
7.129390 -1.546690 1.578610
7.942500 -1.452620 1.563080
7.289380 -2.929080 1.578610
6.590920 -0.842735 1.107300
8.052980 -2.361140 1.572910
6.109060 -0.240168 0.991700
7.674700 -2.605780 1.395400
4.582520 -1.032240 1.190980
5.142690 -0.869814 1.440400
8.178390 -1.528190 1.578190
6.180670 0.076063 1.108990
8.526980 -0.828470 1.561740
7.489260 -1.088050 1.138590
6.278320 -2.239520 1.578620
7.992730 -1.390540 1.571000
6.360540 -0.345469 1.476880
8.546190 -0.405517 1.344940
6.608790 -1.415640 1.120820
6.889220 -0.036828 0.995016
7.216440 -1.724420 1.047500
8.367640 -1.473650 1.434540
5.733940 -0.507465 1.009230
5.516010 0.043026 1.089280
5.406270 -1.823940 1.474730
7.271470 -0.006938 1.473610
8.469610 -1.730980 1.293470
4.680850 -1.198220 1.477290
6.769950 -0.026532 0.994787
5.969010 -0.045890 1.578620
5.126720 -1.177260 1.512420
8.968400 -0.657238 1.370900
8.248660 -1.544870 0.991700
5.990210 -0.358626 1.578620
5.797780 -0.000002 1.002640
6.505880 -1.395440 1.247440
6.024830 -1.589680 1.563590
8.306340 -1.488140 1.495390
5.071470 -0.788041 1.179010
5.498750 -1.712370 1.552050
7.133720 -2.760120 1.401070
5.951010 -2.233570 1.105860
7.486120 -1.082260 1.287800
6.680160 -0.038618 1.578620
8.413660 -1.712820 1.464510
6.004450 -1.289650 1.448260
7.146500 0.036368 1.311810
8.463300 -0.397193 1.092570
8.142390 -2.298350 1.128480
7.936090 -0.318456 1.578620
7.718220 -1.374450 1.537280
8.454550 -0.841758 1.188730
6.779660 -0.072023 1.578620
6.412730 -1.984980 0.991699
7.905340 -1.348460 0.991750
6.825370 -2.804590 1.499850
6.165980 -1.347330 1.472850
8.518400 -0.869675 1.483970
8.606130 -1.321500 1.485790
5.393750 -0.568981 1.509130
4.790310 -1.104730 1.395360
6.421980 0.086942 1.437620
7.829890 -2.272800 1.572990
7.019860 -1.425460 0.998684
6.173890 0.100289 1.342310
7.936410 -0.552268 1.387490
6.170320 -2.232350 1.578610
7.760850 -2.450050 1.495020
6.999970 -2.922000 1.126570
4.737820 0.058280 1.205920
6.819290 -0.259833 1.185600
5.307630 -0.901528 1.467350
6.844770 -2.605380 1.523430
6.755040 -0.166522 0.991700
5.741520 -1.164090 1.274330
5.016360 -1.482800 1.069260
8.430220 -0.743658 1.572600
7.765660 -2.871900 1.105930
8.633360 -1.024490 1.367910
6.297650 -0.733506 0.999031
8.954230 -0.684422 1.090360
8.448450 -1.441670 1.393380
6.918170 -1.628050 1.571310
5.003060 -0.259760 1.090710
6.940650 -0.235049 1.547540
6.300090 -0.420402 1.494730
8.117930 -2.433450 1.301480
6.765200 -2.597890 1.569850
8.055670 -1.555150 1.076160
8.438500 -0.500703 0.991700
7.196130 -1.366720 0.998982
6.347350 -0.363785 1.087050
5.913630 -2.191660 1.512930
5.177820 -0.909615 1.096180
5.778200 -1.767470 1.016390
5.924770 -1.908480 1.001250
8.579510 -1.455200 1.578110
6.788980 -0.258070 1.258200
8.955620 -0.679843 1.486230
6.126840 -2.347510 1.076570
5.393130 -1.669140 1.038910
5.817440 -0.076753 0.991700
5.467610 -1.386850 1.534530
5.589120 -1.093220 1.137620
5.444400 -1.869060 1.185650
7.562950 -1.112440 1.360490
8.875480 -0.590591 1.201690
5.079800 -1.209230 1.081320
6.090790 0.069342 1.092930
5.066550 -0.167132 1.074580
6.836790 -2.552720 1.367310
7.549660 -3.007850 1.008650
8.513880 -0.884501 1.220960
5.932460 -1.266740 1.477220
8.056910 -1.357370 1.132950
7.004230 -1.681270 1.062420
7.906380 -1.845810 1.353700
6.095010 -1.890680 1.578610
7.124970 -0.255505 0.999103
6.231890 -1.721180 1.000150
8.510140 -0.850580 1.034470
7.027090 -2.950060 1.195630
5.988050 -2.273740 1.165400
7.305680 0.009382 1.305090
6.011860 -0.394044 0.991700
5.901750 -1.306460 1.545110
6.329200 -2.020690 0.991699
6.354410 -2.176660 0.991699
8.528730 -0.553834 1.578620
6.040660 -2.321120 1.345920
7.846860 -1.239560 1.391230
7.143780 0.004230 1.085630
6.534220 -2.062250 1.067130
8.876580 -1.284600 1.192750
6.595250 -1.838030 1.060270
8.734260 -1.299450 0.992004
6.121490 0.089183 1.171530
6.699330 -2.410770 1.279800
6.039590 -1.379510 1.553450
6.889760 -0.901065 1.290580
6.620140 -1.853380 1.399350
5.844630 -2.051890 1.578610
6.430470 -0.301995 1.206900
5.266630 -0.579415 1.079600
7.251210 -0.107980 0.991864
7.360400 -1.838980 1.271710
6.839010 -1.113450 1.167230
5.310150 -0.322765 1.053220
6.006990 -0.844511 1.105890
6.856610 -1.385090 1.194800
8.091220 -0.315455 0.996605
4.985650 -0.394873 1.115830
8.881320 -0.701604 0.999712
5.629140 -1.101950 1.277420
6.144700 -0.211563 1.578620
6.428310 -0.166386 1.578620
5.075050 -0.442329 1.095230
7.390840 -2.829560 1.485840
5.596300 -1.821940 1.560890
5.054410 -1.090580 1.505590
8.112980 -1.398730 1.463620
7.149970 -2.786970 1.095970
7.108360 0.018044 1.479840
8.178780 -0.242431 1.375610
7.956240 -0.352256 0.991700
8.558840 -1.369990 1.080450
8.115480 -1.387730 1.298770
6.094760 -1.395160 1.026620
8.260200 -0.494721 1.578620
7.682970 -2.821360 1.578610
6.978870 -2.927200 1.306050
5.320980 -0.412140 1.058810
8.702660 -1.566560 1.224630
8.000530 -1.543450 1.471910
6.110800 -1.471060 1.021130
7.698690 -1.798600 1.573160
6.515560 -2.636480 1.403390
6.374100 -0.739787 1.290840
8.069900 -1.451810 0.991700
6.559650 -2.071370 1.406800
7.396650 -0.240188 0.991700
6.682490 -1.771000 1.120030
7.451250 -1.467270 1.063960
5.143830 -0.170700 1.506150
9.009980 -0.710344 1.312490
7.007800 -0.238008 1.000770
5.472920 -0.587357 1.518630
6.269130 -0.538519 1.479290
7.913670 -1.888580 1.078650
5.675710 -0.606266 1.545190
7.804950 -0.499160 1.346580
8.047010 -2.505710 1.099090
5.744330 -0.321827 0.993066
8.327730 -0.756432 1.151420
6.327490 -0.689772 1.254120
7.321170 -0.205320 0.991700
7.335260 -1.792950 1.073720
5.306270 -0.047480 1.031920
8.563640 -1.348720 1.190640
8.360940 -0.317310 1.278710
8.420800 -1.723860 1.184410
8.717440 -1.443690 1.030370
7.665890 -1.725080 1.542720
6.505810 -0.069587 0.991700
7.050190 0.035526 1.152310
6.658250 -2.731880 1.250480
7.456580 -1.742780 1.578610
6.360390 -2.250890 1.578620
8.190620 -1.453970 1.493860
8.874070 -1.286520 1.421170
8.617740 -1.607400 1.526580
7.740790 -2.038120 0.992910
5.743770 -1.303830 1.539640
6.857570 -0.901856 1.104790
6.062330 -2.317620 1.124450
6.841780 -2.743730 1.571970
5.507310 0.066423 1.191940
4.961840 -1.451580 1.113330
6.321770 -1.644030 1.576360
6.541520 -0.945151 0.994103
8.331700 -0.733971 1.515250
6.243370 -2.440440 1.115880
7.500040 -1.104820 1.489480
8.086710 -0.216963 1.431460
8.714370 -1.554570 1.298590
5.900350 -2.118680 1.570320
5.820040 -0.780020 1.277440
5.687280 -1.167850 1.530860
7.290770 -1.058480 1.006580
8.005110 -2.592510 1.194420
5.458230 -1.526870 1.541300
8.441170 -0.668351 1.578620
8.805810 -0.552918 1.191390
6.905800 -2.608070 1.338030
6.342350 -2.525850 1.224320
5.778040 -0.597848 1.010300
5.159620 -0.630908 1.471830
8.390610 -0.596933 0.991700
8.123140 -2.414460 1.396510
7.907130 -1.980610 0.992491
5.669240 -1.971880 1.012070
7.936200 -0.537203 1.065800
6.681820 -0.246803 1.187030
7.128550 -1.636940 0.993554
5.547490 -0.706380 1.378190
6.386260 -0.788935 1.022430
8.693900 -1.053630 0.999405
6.882510 -1.716360 1.300170
5.903920 0.079601 1.153290
8.307870 -0.739461 1.444650
7.723070 -2.522470 1.437760
5.390180 -1.387390 1.531940
6.219360 -2.161080 1.578610
8.603440 -1.553040 1.576150
5.132040 -0.980193 1.093640
8.019170 -0.446409 0.991700
8.285380 -1.705770 1.248780
5.223250 -1.693510 1.396950
7.751380 -2.336190 1.207760
6.900860 -2.683290 1.557400
7.021460 -1.404940 1.573400
7.982660 -2.490600 0.997180
5.592690 -0.050930 1.577750
5.454390 -1.720280 1.033070
5.573690 -1.961780 1.455880
5.234380 -0.856752 1.499830
7.291670 -0.338891 1.168070
9.033880 -0.920705 1.189960
5.806580 -1.544720 1.553950
5.533410 -1.045800 1.381710
6.670940 0.087403 1.311330
6.349050 -0.858892 0.991700
7.920590 -2.614200 1.014900
8.731740 -1.484320 1.106060
6.224240 -1.977420 1.578610
8.067580 -2.504170 1.418980
6.812570 0.076275 1.303400
6.618910 -0.841951 1.381270
5.990690 -2.134410 1.578610
8.053610 -1.579540 1.156970
7.832150 -1.296220 1.566620
6.785250 -1.736620 1.339810
6.592050 -1.059780 1.212390
6.291970 -0.623341 1.191530
8.086060 -2.052380 1.382100
8.046010 -0.589215 1.481590
6.122250 -1.710030 1.572970
7.994080 -1.510380 1.050020
8.693000 -1.007040 1.568990
5.993810 -0.720308 0.991781
7.596440 -3.052740 1.408980
5.361330 -0.269186 1.528430
7.617820 -0.080005 1.128660
6.347690 -0.378823 1.182500
7.522530 -2.909660 0.991699
6.791110 -2.749930 1.021200
5.139130 0.063762 1.316830
5.190750 0.063817 1.261410
6.530620 -1.650330 1.578610
6.419150 -1.393510 1.179190
7.013860 -2.945310 1.383770
7.931900 -1.282720 1.380210
6.020560 -0.516852 1.578620
7.441900 -0.319790 1.564970
5.523570 -0.020105 0.999679
7.238650 -1.748800 1.497350
8.873150 -1.304770 1.293550
6.285930 -0.816701 0.991700
5.827970 -2.117570 1.529650
7.640740 -3.013300 1.459890
6.732380 -2.483330 1.495290
6.702940 0.064684 1.470720
8.433610 -1.455220 1.108110
7.652050 -0.440144 1.155330
8.112570 -2.325260 1.528630
5.033650 -0.999359 1.500280
7.834960 -0.155398 1.501020
6.332370 -1.927810 0.991699
8.246160 -1.632710 1.037570
7.077900 -1.569710 0.991699
8.887990 -0.635415 1.509280
5.487270 -1.020870 1.436230
7.223320 -0.043344 1.551340
5.381860 -0.059518 1.022410
7.650740 -0.350686 0.991700
7.742990 -2.281660 1.383930
7.748680 -1.223800 1.023800
7.075780 -2.968440 1.136210
8.024880 -0.571539 1.045640
6.280170 -2.484980 1.234200
6.262120 -2.284790 0.991699
8.618580 -1.372410 1.565330
8.996510 -1.040880 1.188110
6.935390 0.057483 1.413970
8.993940 -0.713000 1.147590
6.783160 -2.780900 1.089200
7.845780 -1.800890 1.408290
4.651080 -0.350590 1.210160
6.061320 -0.450472 0.991700
6.936230 -1.111610 1.068470
8.660680 -1.066170 1.069540
6.037850 -2.072510 1.578610
7.901850 -1.437810 1.015210
7.661390 -0.187483 1.578620
7.692780 -1.199330 1.530180
6.345280 -2.339870 1.578610
7.026290 -2.698170 1.208000
6.005030 0.097149 1.292190
5.449270 -1.061690 1.517450
7.189320 -1.603030 1.578610
6.999710 -0.262517 1.510090
8.528170 -1.564900 0.991700
8.658540 -1.044720 1.495210
7.023870 -0.289023 1.322750
7.760810 -1.956830 1.578610
6.564260 -2.490330 1.578610
7.727690 -0.466621 1.151510
8.109810 -2.285250 1.031070
5.810770 -0.159072 0.991700
5.002950 -1.242980 1.082430
8.627570 -0.769491 0.991700
6.138560 -1.327130 1.277040
7.136470 -1.345710 1.050050
6.341660 -2.309000 0.991699
7.719120 -2.199610 1.386560
7.525190 -1.275090 1.015940
7.757170 -2.386330 1.151500
6.487510 -2.073660 1.001140
5.889780 -2.180440 1.080160
5.267150 -1.247140 1.071000
6.848450 -1.393800 1.478050
5.759650 -1.297280 1.046990
5.676290 0.032715 1.046110
8.770350 -1.238490 1.578620
6.598680 0.073583 1.134260
6.243140 -2.457340 1.396290
7.221950 -1.170100 1.021120
5.892210 -0.081667 0.991700
9.012430 -0.819501 1.498530
6.314910 -1.376370 1.184260
7.820290 -2.508280 1.575160
6.889970 -1.610050 0.992047
8.278800 -1.690160 1.158470
8.032330 -1.582150 1.238200
8.670290 -0.493614 1.475180
8.267200 -0.279353 1.375970
6.360690 -0.108333 1.578620
8.063040 -2.058150 1.496250
7.206970 -1.081140 0.991700
7.905060 -2.257050 1.578610
6.792590 -0.878293 1.348720
6.126760 -0.318425 0.991700
7.312270 -0.345691 1.349430
7.254990 -1.677190 0.993235
7.750010 -2.112600 1.560420
8.959640 -1.110960 1.160370
7.545410 -3.068750 1.148700
8.490140 -0.867160 1.348460
6.975390 -1.710870 1.264300
6.084560 0.098907 1.303960
6.774780 -2.793960 1.164690
7.317030 -1.097300 1.573280
7.738570 -1.197430 1.462980
5.831680 -2.159610 1.442170
7.352400 -1.704060 0.991699
5.242020 0.019696 1.521990
6.884400 -0.946310 1.553140
8.216280 -1.472190 1.039780
6.304110 -2.408510 0.999757
8.136350 -1.558010 1.017460
8.666620 -0.526963 1.040550
7.871100 -0.325662 0.991700
6.762140 -1.744190 1.261410
5.607260 0.077552 1.363610
6.675800 -0.115300 0.991700
8.038660 -1.478050 1.578620
4.988130 0.033565 1.494630
9.009980 -1.028880 1.270550
6.513400 0.081985 1.153280
7.121100 -0.068691 0.994256
5.596680 -0.569417 1.537180
7.396950 -0.142204 0.991700
7.048110 -2.712320 1.404030
8.656590 -1.120110 1.138560
6.526900 -1.865800 1.568720
7.742670 -2.441570 1.213840
5.655100 -1.126370 1.454000
8.000320 -1.318710 1.281060
8.090550 -2.460390 1.149740
7.393080 -0.089175 1.565100
7.174070 -0.129309 0.991700
5.836110 -0.775521 1.172670
8.045310 -0.518644 1.576060
6.400660 -2.064240 0.991699
5.687800 -0.715507 1.468130
5.968400 -1.752780 1.569940
8.302370 -1.711130 1.322820
7.221870 -3.024190 1.512690
7.441530 -3.100310 1.301780
4.658190 -1.192810 1.201330
7.820690 -2.803910 1.101630
7.954960 -0.495322 1.568330
6.870750 -1.715030 1.221720
7.276170 -0.240253 1.578530
6.268000 -1.896170 1.578610
6.025640 -1.757250 1.006580
8.632420 -0.684316 0.991700
5.308590 -0.133187 1.531920
6.276230 -1.812210 1.578610
7.377950 -1.500770 0.991699
5.515570 -1.458940 1.539790
6.111710 -0.392832 0.991700
6.028930 -0.873625 1.432590
6.157950 -0.786711 1.578620
8.574200 -1.336500 1.359970
7.355940 -0.154267 1.578620
6.995540 -0.162936 0.991700
7.641160 -1.152200 1.106920
8.070560 -2.216240 0.997312
8.950260 -0.961225 1.566550
4.786410 -1.295870 1.475690
6.328940 -0.321232 1.561420
5.306330 -0.380887 1.511960
8.403510 -0.392512 1.042140
6.385110 -0.760983 1.097090
7.855790 -0.158164 1.093840
6.610530 -2.695650 1.190390
5.837930 -0.343148 0.991700
7.023420 -0.950683 1.069400
7.228330 -0.994978 1.217100
7.253560 -1.779570 1.383240
5.378270 -1.486140 1.051140
6.342200 0.094533 1.199980
6.623990 -0.098876 1.578620
8.632380 -1.659410 1.307880
5.820440 -0.417447 1.578620
5.661570 0.081863 1.309110
8.410740 -0.813305 1.242710
5.903810 -2.127800 0.999821
7.007030 -1.139610 1.498250
7.662800 -2.908950 1.001970
6.620840 -1.828960 1.476790
4.782020 -0.039671 1.143210
7.097620 -0.220823 1.576410
8.110330 -2.114050 1.448090
6.621450 -1.719700 1.574430
5.608330 -0.718048 1.329220
8.343500 -1.476040 1.127070
8.824490 -1.387190 1.254350
8.421560 -0.808950 1.095180
7.980900 -2.555740 1.034470
6.288930 -0.476004 1.422830
6.062410 -0.330734 1.578620
8.963240 -1.132530 1.317260
5.352090 -0.922409 1.376110
6.619940 -2.401780 1.553020
8.021500 -0.183015 1.239000
5.586230 -1.986890 1.346810
6.346040 -0.383326 1.257610
7.540890 -0.065857 1.107120
4.740560 -1.238350 1.502480
7.693040 -1.907790 1.578610
8.447880 -1.552250 0.991700
6.544050 -2.158810 1.089350
6.948150 -1.653470 1.016420
5.288190 -0.691168 1.105970
6.953160 -2.860220 1.037730
6.472340 -0.278364 1.277370
7.910960 -0.403775 1.578620
6.073830 -1.310760 1.415030
8.323090 -0.312832 1.169190
6.132480 -1.553780 1.014960
7.298950 -3.083580 1.278690
5.437170 -0.981473 1.244580
6.174110 -2.412630 1.370740
8.591210 -0.514680 1.564260
5.641150 -0.014611 0.999167
6.344060 -0.385017 1.356980
6.416300 -0.312807 1.316540
6.389290 -1.023900 1.267060
8.349040 -1.717620 1.206590
6.451210 -2.149510 0.991699
8.609790 -0.971900 1.416480
7.207290 -1.610700 0.991699
6.883030 -1.523520 0.991699
6.444350 -2.336160 1.578610
7.370750 -1.059240 1.059180
8.401380 -1.667860 1.026970
7.588640 -3.017970 1.525610
8.133390 -2.223200 1.098520
8.113530 -2.144870 1.104250
7.213890 -1.010580 1.051520
7.168630 -0.314718 1.297270
8.881400 -1.171170 1.035720
5.338350 -1.724590 1.037710
6.016650 -1.868550 1.577430
6.478790 0.094415 1.378140
7.291840 -1.025720 1.462930
5.748610 0.086427 1.307420
7.276300 -1.791200 1.247950
5.969810 0.092470 1.387750
6.311090 -0.066588 0.991700
5.224190 -1.698710 1.318000
7.117080 -0.961462 1.288430
5.943940 -1.261070 1.400250
7.505380 -1.931940 1.165370
5.190300 -1.670250 1.247280
5.430190 -0.697371 1.403150
7.841070 -1.791610 1.333840
7.475510 -0.387895 1.226390
8.079790 -2.495210 1.232730
4.969020 -0.852693 1.285500
8.600540 -0.436397 1.392900
8.526140 -0.712326 1.578620
8.364880 -0.337571 1.458730
6.388770 -1.382920 1.329910
4.848290 -1.264090 1.507420
7.886420 -2.755690 1.279770
6.165750 -0.653877 1.578620
6.257080 -0.975599 1.421530
7.777430 -2.291290 1.520480
8.557830 -1.686610 1.126470
6.802480 -0.248836 1.090400
5.950370 -1.619450 1.562590
6.752440 -1.017630 1.567950
5.868380 -0.773708 1.480730
5.344940 -1.309120 1.526460
7.653530 -1.725440 1.016570
8.349910 -0.774407 1.319360
7.841980 -1.392590 1.573010
8.764310 -0.850043 1.578620
6.683550 -2.423580 1.097290
6.439340 -2.591600 1.245190
5.890890 -0.810318 1.261070
4.639940 -0.072881 1.285160
7.293240 -3.013830 1.558300
6.825920 -2.576720 1.078170
8.936780 -0.789238 0.997220
8.692630 -0.505159 1.120750
8.357950 -0.319308 1.384010
6.263460 -2.322430 1.578610
8.296290 -0.581935 1.578620
4.813910 -0.095300 1.185820
6.566080 -2.266260 1.049000
5.261480 -1.306390 1.523500
5.505440 -1.505000 1.044570
6.965930 -0.023227 1.006460
6.213620 0.020081 1.566410
4.970450 -0.033680 1.077290
7.608230 -1.668770 1.036680
5.876210 -1.252770 1.098560
9.036940 -0.778972 1.335920
6.585150 -2.685910 1.290340
5.082570 0.051369 1.440960
8.360800 -1.538180 1.572690
6.030630 -1.980880 0.992185
7.583910 -0.051097 1.324670
6.759560 -0.870601 1.273450
8.653730 -1.283900 1.544200
5.841920 -1.319490 1.042110
8.108310 -0.223160 1.182480
7.812250 -2.705650 1.573230
8.536810 -0.636533 1.578620
8.879510 -0.944668 0.991700
6.226870 -1.363010 1.145990
6.775220 -1.448910 1.571450
7.673150 -0.077498 1.383500
8.013300 -0.212262 1.497410
6.271550 -2.210740 0.991699
6.146420 -0.036580 1.578620
6.275670 -0.670625 1.536790
6.897990 0.068196 1.339680
8.694950 -1.194040 0.999660
6.745260 -1.609150 0.991699
8.707640 -0.492213 1.381080
8.023770 -1.332940 1.198450
6.066730 -0.682421 0.991700
6.011450 -1.318930 1.064340
6.694960 -1.024770 1.028030
6.694930 -2.754480 1.345620
7.677280 -2.116490 1.243820
8.469120 -0.603636 0.991700
8.804290 -0.553042 1.420170
6.096640 -1.634230 1.568270
7.616400 -3.046370 1.248730
5.938520 -1.991240 0.995423
6.284910 0.065133 1.077140
7.352000 -2.980220 0.991699
5.383050 -0.951050 1.442810
7.216320 -3.045590 1.157450
6.816680 -0.226697 1.017430
7.088690 -1.035050 1.576210
7.829550 -1.995860 0.991699
6.974160 -1.705710 1.185330
6.289300 -1.803000 0.992529
6.773940 -2.754750 1.530470
8.936810 -1.129990 1.482260
6.777160 -2.793840 1.443500
6.378050 -1.862980 0.991699
7.594990 -2.709060 1.276890
7.980390 -1.545170 1.170800
7.116160 -2.754440 1.183550
6.716980 -0.243690 1.113540
6.447760 -1.900290 1.578610
8.218640 -0.599222 1.577540
6.516120 -2.641600 1.292420
8.992770 -1.066900 1.350270
6.554730 -2.119250 1.157180
5.907850 0.083692 1.429870
6.494200 -1.795640 1.578610
5.877120 -1.532970 1.027080
5.462760 -1.632850 1.038260
5.785790 0.000480 1.572480
5.831540 -1.862880 1.570900
7.740380 -2.436260 1.289700
7.208140 -2.788030 1.362710
5.100670 -1.583840 1.165180
5.670650 -0.312509 1.002520
5.459970 -0.129131 1.553190
7.528090 -1.167810 1.570300
6.997340 -2.674010 1.327340
5.998120 -2.291240 1.246500
6.929120 -0.262046 1.474130
6.219600 -2.439930 1.196720
6.176040 -0.282659 1.578620
8.378060 -1.727820 1.291450
6.753730 -0.252481 1.390370
7.314430 -1.374730 1.578620
5.964860 -0.108841 0.991700
6.073350 -2.309270 1.506400
5.790890 -0.434373 0.995551
6.802770 -2.820490 1.355770
7.884370 -0.531555 1.336970
5.290230 -1.475970 1.533050
8.122100 -0.570988 1.570170
8.708270 -0.795212 0.991700
7.883480 -0.524840 1.122910
5.875280 -2.199630 1.391490
4.799900 -1.184110 1.094750
5.388090 -0.162640 1.540580
6.938820 -1.542680 1.578610
7.616740 -1.134370 1.193400
8.080180 -0.362041 1.578620
5.593220 -1.487380 1.543850
5.040690 -1.543650 1.333550
5.407590 -1.847290 1.252950
5.680240 -2.056280 1.222680
5.775840 -2.114720 1.141420
7.791460 -2.250390 1.018920
7.114220 -0.302486 1.391720
7.706560 -1.695920 1.384740
7.250650 -1.466620 1.578610
7.724460 -2.743130 1.578610
7.402300 -0.366664 1.176780
7.310740 -1.020910 1.256000
4.868120 -1.052860 1.418930
6.960930 -0.927246 1.107170
8.588930 -0.786176 1.578620
6.839560 -1.704980 1.478480
7.830560 -2.138240 1.578610
5.279120 -1.026320 1.509920
6.210050 -0.716162 1.578620
6.147840 -0.694799 0.991700
5.312750 0.062593 1.223870
8.868320 -1.201490 1.536670
6.338480 -0.845470 1.578620
8.758560 -0.657614 1.578620
6.753650 -1.099180 1.217570
7.717330 -2.518450 1.245600
6.071050 -0.070353 1.578620
5.196050 -1.213580 1.516600
7.186330 -1.744890 1.436410
7.131450 -3.013860 1.222360
6.568480 -1.990720 1.399490
7.272960 0.012412 1.225850
6.931310 0.003101 1.546400
8.890740 -0.858262 0.991700
6.860660 -0.157912 0.991700
6.445010 -1.394340 1.421680
7.439940 -1.244490 1.018160
7.812180 -1.779850 1.169630
8.829720 -1.001530 0.991700
5.466280 -1.645180 1.547560
7.504960 -2.777300 1.253060
7.042330 -2.935190 1.497920
6.293600 -0.739002 1.564840
8.385760 -1.486290 1.508640
7.529250 -0.037338 1.250910
5.624290 -1.128470 1.523610
8.812150 -1.267890 1.016850
6.054230 -0.537964 0.991700
8.012300 -0.589195 1.282300
7.750210 -2.658750 1.575070
5.249210 -1.116270 1.080050
6.457640 -0.800622 1.407120
6.543740 -2.656550 1.219540
7.195980 -0.990395 1.429520
5.944470 -1.265840 1.179390
6.727220 -2.456810 1.159800
5.961310 -1.796830 1.006790
5.220080 -1.630040 1.048700
6.246090 0.006103 0.999515
5.151330 -0.429931 1.083690
4.940140 -0.191180 1.476340
5.152470 -1.628810 1.429830
7.265710 -1.181410 1.556640
6.094530 -0.144683 0.991700
6.186960 -0.621492 0.991700
6.836590 -1.632570 1.573210
7.221580 -3.058080 1.289310
6.708940 -1.053440 1.509520
5.705140 -0.538166 1.554660
6.719320 -2.741960 1.090510
7.237760 -0.206698 0.991700
7.398470 -0.339398 1.030870
6.530590 -2.224460 1.549370
5.400380 -0.342056 1.042260
5.907050 -1.880800 1.574350
5.183900 -0.565748 1.089960
8.723820 -1.389260 1.569660
6.168080 -1.815780 0.996844
6.296330 -2.485310 1.442990
7.086290 -1.698470 1.501290
5.175130 -1.294450 1.519980
6.030090 -0.883722 1.229650
6.225430 -0.536739 1.565280
4.877140 -0.048428 1.478940
8.528990 -1.480820 0.991700
6.188680 -0.404582 1.578620
7.711330 -2.602390 1.059280
6.281160 -0.302914 0.991700
7.768530 -1.952470 0.991699
8.934560 -1.018520 1.014560
7.915940 -1.933700 1.551620
7.426220 -1.561270 0.991714
8.793520 -0.733161 0.991700
6.498580 -0.200501 1.568800
7.473320 -1.078890 1.377010
7.214250 0.024882 1.275750
6.647760 -0.894969 1.001130
6.623380 -2.624010 1.563750
6.359320 -1.558880 1.573320
7.780970 -2.203980 1.553100
6.018840 -0.790771 1.010400
7.686840 -1.943410 0.991699
4.961460 0.055368 1.421230
5.575080 0.015359 1.546690
7.511680 -0.396595 1.393010
5.877840 0.091529 1.358630
8.675950 -1.527360 1.051310
5.383540 -0.088278 1.545850
9.030410 -0.773818 1.203700
9.046130 -0.843514 1.270830
8.999250 -0.709545 1.424300
5.770860 -0.153449 1.578620
5.869810 -2.056610 0.994182
7.185090 -0.317519 1.204600
8.655020 -1.318670 0.995942
5.706330 -1.804320 1.017090
7.101500 -1.160190 1.513860
5.256000 -1.553470 1.052040
7.131760 -1.075700 0.991700
6.821600 -2.832800 1.282540
4.686730 -1.228390 1.271130
8.844730 -0.940938 1.578620
6.698360 -1.774140 1.212870
7.140280 -0.969143 1.368860
8.966690 -0.874302 1.009510
5.153540 -0.266936 1.499860
5.861820 0.059913 1.086120
8.509900 -0.788664 0.991700
6.031900 -0.794717 1.566920
6.220510 -0.933006 1.506830
5.721190 -1.556200 1.551650
6.392780 -0.329672 1.388390
5.685950 0.082085 1.238350
6.458380 -1.859070 0.991699
5.396000 -1.605250 1.543160
7.136950 -3.006190 1.450640
6.291080 -0.376605 1.000340
7.337260 -3.089970 1.384870
7.541260 -2.763850 1.175170
5.169260 -1.290020 1.072410
7.390300 -1.616540 1.578620
7.593320 -3.026890 1.074840
5.961680 -0.799427 1.062170
7.091420 -2.754560 1.479930
5.827460 -2.138430 1.089410
5.257140 -0.941831 1.090780
7.743730 -2.244920 1.451820
6.812700 -2.551570 1.472400
6.723960 -1.073060 1.119270
6.546970 -2.400350 1.578610
8.209290 -1.654730 1.124750
4.724660 -1.258210 1.204860
5.449160 -1.041550 1.076340
7.992650 -2.300190 0.991699
7.994130 -1.322030 1.433650
5.936580 -2.048300 1.578610
5.668210 -1.465160 1.040210
7.238920 -1.443600 0.991699
7.090090 -1.687560 1.050180
6.457060 -1.544210 1.001850
7.875390 -2.758230 1.176580
6.103770 -2.365070 1.352080
8.441360 -0.413834 1.537390
5.552590 -1.160770 1.525950
7.755130 -2.339770 1.432550
7.276470 -3.058270 1.112890
8.113320 -1.412890 1.042690
7.782310 -2.044390 1.578610
8.823160 -1.320130 1.076550
4.810420 0.050596 1.442880
6.754080 -1.639670 1.576960
7.220970 -1.760210 1.179820
4.771910 -0.022047 1.442110
5.016810 -0.103237 1.076390
5.484940 -1.024340 1.155810
6.956330 -1.389960 1.532820
5.518730 -0.175027 1.557680
7.382420 -2.810260 1.318670
7.782160 -2.854880 1.476920
5.205180 -1.203360 1.076390
7.583790 -2.863350 0.991699
5.898820 -0.364998 1.578620
5.145000 -1.606950 1.107090
5.022080 -1.315000 1.077050
6.488620 -0.241583 1.030680
6.410280 -1.385610 1.255240
5.237880 -0.464461 1.074460
5.933540 -0.247331 1.578620
7.647490 -0.441754 1.296320
7.722090 -2.503350 1.358180
5.809930 0.077560 1.163870
7.924440 -2.175460 1.578610
6.358600 -1.979050 1.578610
8.059800 -2.010670 1.316120
6.578050 -1.898460 1.484460
8.202840 -0.273804 1.475830
6.169300 0.100523 1.248820
8.227080 -1.455380 1.412850
6.680020 -2.391980 1.205090
7.922050 -0.155427 1.413640
5.712580 -0.332156 1.572040
6.295130 -2.025820 1.578610
7.974060 -1.911380 1.369540
5.641540 -0.517553 1.022810
8.532410 -0.417702 1.460120
6.376660 -1.872320 1.578610
7.974720 -1.928250 1.141270
4.836470 -1.075430 1.100090
7.640710 -2.650760 1.316290
6.569090 -0.174116 1.573520
7.749650 -1.440280 1.412570
9.043090 -0.908107 1.331790
7.199770 -1.758700 1.293760
5.611080 -0.706897 1.165380
8.727570 -1.074570 1.576270
7.489850 -0.263611 1.578620
7.037340 -2.916710 1.049010
7.840300 -1.384760 0.999398
5.832240 0.079486 1.435030
8.739770 -0.507280 1.311890
4.899200 -0.244082 1.434680
6.299700 -2.458060 1.059220
6.349670 -1.005950 1.191830
8.418320 -0.342237 1.337200
6.962220 -2.748840 0.998144
7.441380 -0.150962 1.578620
8.125430 -0.434201 0.991700
6.273790 0.100556 1.257230
7.382610 -1.729280 1.577840
5.859230 -0.583007 0.997886
4.963160 -0.989500 1.430750
6.590350 -2.425550 0.993230
5.933720 -0.536322 1.578620
6.140320 -0.906799 1.093860
6.603230 -2.326800 1.515880
6.021990 -1.429340 1.027530
6.173160 -2.413660 1.271690
8.125680 -1.631840 1.344380
5.189770 -1.135860 1.512450
5.973950 -0.010407 0.994760
7.766380 -0.132716 1.086440
5.159540 -0.327122 1.074400
7.844680 -1.269470 1.025030
7.627150 -2.027260 1.470550
7.516080 -0.396910 1.153420
6.644370 -2.333290 1.293480
6.793170 -1.393440 1.427550
7.035570 -0.938778 1.290550
7.597580 -1.977630 1.060470
5.451280 0.014786 1.036560
6.910980 -0.066762 1.578620
7.536830 -0.133071 1.575290
6.061950 -0.077449 0.991700
6.270760 -2.479870 1.329610
6.628100 -2.711990 1.360460
5.128810 -0.644614 1.350620
6.570220 -1.657140 0.991699
5.740680 -1.192720 1.084420
6.159920 -2.315150 1.002430
8.856110 -0.694367 1.578620
6.571850 -0.242382 1.410810
6.300460 -1.595840 1.005200
6.883860 -2.805030 1.549130
7.026130 -1.369290 1.079670
7.626740 -1.650620 1.109200
5.913210 -1.957440 1.578440
7.759830 -2.473650 1.073760
7.959580 -2.375510 0.991699
7.492150 -1.923020 1.429970
4.938260 -0.105309 1.482890
7.672040 -2.674030 1.045700
8.695480 -0.744448 1.578620
6.271220 -0.627380 1.043260
5.779300 -1.583780 1.027990
6.651610 -0.847422 1.222460
7.624410 -1.630510 1.418640
6.667680 -1.079140 1.226320
8.452980 -1.707580 1.109940
5.880490 -0.771783 1.089040
7.932450 -1.283030 1.180890
6.267920 -2.101610 1.578610
6.580970 -2.676670 1.415550
6.848780 -1.529090 1.578610
7.453420 -0.367166 1.481670
6.791470 -2.521020 1.168450
7.681130 -1.160350 1.315980
6.236720 -1.644970 1.004770
6.416320 -0.786100 1.469980
5.863080 -1.969320 1.000000
5.516750 -1.933300 1.248330
6.687990 -0.034612 0.992121
5.076500 -0.271006 1.488870
7.605210 -1.128470 1.292440
5.983590 -2.279140 1.374760
8.366060 -1.488390 1.049080
5.967500 -0.461469 0.991700
6.580510 -1.814900 1.552660
8.263050 -0.664933 1.557240
7.829270 -2.388340 1.569910
7.734520 -2.916270 1.465590
8.657670 -1.437760 1.578620
8.099880 -0.578760 1.001000
6.873910 -1.027060 1.578620
5.952710 -1.396940 1.032510
7.177750 -0.983113 1.144160
4.947020 -1.027610 1.498780
7.783160 -2.405110 1.048390
4.876080 0.001680 1.087540
6.794440 -2.618830 0.999598
6.842380 -0.023056 1.578620
8.643380 -1.205510 1.388990
5.536470 0.069123 1.407860
4.907920 -1.424960 1.387460
5.655410 -0.002403 1.569220
6.525250 -0.824250 1.165770
6.807180 -0.963344 1.576470
5.222010 -1.393940 1.526600
7.698970 -2.973500 1.402250
6.703520 -2.718040 1.520410
5.770850 -1.640470 1.557590
8.118150 -2.112020 1.212830
7.865650 -2.399330 0.991699
6.299610 -0.967852 1.094650
7.930750 -2.336310 1.578610
8.091480 -0.627976 1.242650
5.922480 -0.750437 1.553510
6.001600 -1.907910 0.998040
6.612480 -2.671290 1.502250
7.308280 -2.886980 1.000720
7.886290 -1.469700 1.509630
7.604560 -2.022500 1.211680
7.617600 -3.033310 1.152880
6.872310 -2.862440 1.365750
4.734740 0.042794 1.130230
5.676890 -2.056290 1.307270
7.144180 0.029556 1.414750
7.648340 -2.076130 1.317700
6.125060 -0.505188 1.578620
7.334230 -1.608740 0.991699
5.222950 0.023509 1.065220
7.648190 -2.069380 1.403710
7.868470 -2.776910 1.357370
7.564050 -0.117182 1.019300
7.749920 -0.223538 0.991952
5.771840 -1.845190 1.011730
7.387570 -1.048830 1.172580
5.911010 -0.733634 1.010370
8.649530 -1.459400 0.994342
6.589450 -2.591980 0.997724
5.021530 -0.995968 1.097310
7.985450 -0.397960 1.578620
8.607670 -1.677090 1.376420
8.203260 -0.466367 0.991700
6.302410 -0.452868 1.345840
7.830550 -1.818860 1.504680
7.650710 -2.661380 1.126690
6.021350 -2.071910 0.991699
6.582600 0.009121 1.568770
7.949090 -1.888300 1.215030
8.465870 -0.823421 1.510490
6.797120 -1.411590 1.092330
5.839830 0.090071 1.241300
5.482040 -0.703571 1.315640
7.140440 -0.296247 1.475040
6.258750 -1.871240 0.991699
6.064510 -2.338400 1.267930
6.355700 -0.737625 1.463600
7.855410 -1.802570 1.248930
7.064940 -2.977570 1.259420
7.706170 -2.155700 1.166020
7.739170 -2.249170 1.190590
8.959770 -0.879723 1.571040
8.020260 -1.960610 1.275810
5.546240 -1.946810 1.173460
5.639660 -0.693688 1.091690
7.445990 -1.890010 1.187800
7.812260 -2.841240 1.206130
4.976030 -0.784353 1.175530
6.102410 -0.808454 0.996238
6.639910 -0.235969 1.453900
7.108210 -0.300908 1.161450
8.520340 -0.446033 1.528320
6.792830 -1.666190 1.009020
7.308930 -1.022410 1.389880
7.956900 -2.665280 1.267420
7.996950 -1.992360 1.524860
7.575750 -2.768840 1.066750
6.965580 -2.653410 1.256950
7.517300 -1.541990 1.492010
6.404100 -2.526750 1.519090
6.416620 -0.860341 1.575110
8.064470 -1.593630 1.405820
4.841650 -1.363950 1.202070
6.301900 -0.966612 1.496690
7.960270 -1.955780 1.042480
7.655820 -2.991810 1.103050
6.691270 -2.603470 0.991699
7.173280 -1.156320 1.550640
8.118740 -2.424720 1.210040
6.663450 -2.721570 1.450900
5.128520 -0.120141 1.062280
5.659150 -2.039700 1.386930
6.407490 -0.996549 1.496730
5.198560 -1.658300 1.130150
7.789990 -0.109852 1.383640
6.390710 0.097919 1.365300
8.203100 -1.670260 1.390890
6.136130 -1.336410 1.158690
5.967630 -0.283899 0.991700
7.210150 -1.350100 1.578380
7.816830 -0.392072 0.991700
4.739490 -1.138610 1.125880
7.151010 -0.300450 1.089990
6.826260 -1.458020 1.002700
6.583260 -0.243617 1.213480
5.987870 -0.719642 1.578620
5.366150 -1.173010 1.520280
8.327450 -0.410949 0.997231
8.707640 -1.471780 1.534650
7.570140 -1.595990 1.481210
4.746410 -1.283360 1.295730
6.283390 -0.218126 0.991700
4.752570 -1.129890 1.480110
6.463400 -0.953060 1.571180
6.389780 -2.406410 1.578610
8.490820 -1.640180 1.571390
7.599390 -0.073422 1.460960
5.872140 -0.294716 1.578620
7.732050 -0.471687 1.309190
8.038570 -0.190906 1.378980
4.927640 -1.389750 1.076310
6.049360 -0.618003 1.578620
6.939890 -1.135760 1.140160
8.362430 -1.722690 1.381410
5.866160 -2.195210 1.234190
5.697200 -0.415264 1.007000
5.649110 -1.751600 1.022860
6.062110 0.022507 1.562080
7.651440 -0.117971 1.050310
5.760750 -1.393410 1.040850
7.368550 -0.351846 1.111740
6.932660 -2.635670 1.185620
6.610930 -1.038090 1.093210
7.683840 -2.584150 1.307760
6.373540 -1.010060 1.427950
7.663290 -0.072166 1.245670
6.898750 -1.101190 1.512670
6.007280 -1.283580 1.365350
7.910090 -1.511310 1.173960
5.991420 -1.310580 1.537810
8.180580 -0.240773 1.280420
7.523300 -0.378734 1.510200
7.496030 -1.934920 1.345220
7.090280 -2.989660 1.384890
6.712690 -0.250399 1.255560
8.394600 -1.462440 1.186030
7.427260 -0.049358 1.501260
6.954280 -2.746290 1.570710
6.781110 0.030191 1.048170
6.974400 0.042797 1.140770
5.001060 -0.049038 1.496040
6.993700 -0.928630 1.188820
6.948910 -0.917832 1.386070
6.880850 -0.249207 1.052000
6.566960 -2.025970 1.332500
6.084500 -2.255000 0.998746
8.546010 -1.382680 1.472750
7.262650 -2.978880 0.994723
6.783290 -2.504610 1.243360
6.513420 -1.421700 1.083660
5.573710 -1.377000 1.537610
6.203800 -1.383280 1.547720
8.815700 -0.647509 1.005450
7.743730 -1.375110 1.025090
8.887450 -0.591211 1.292570
8.456250 -1.475800 1.540190
8.393360 -0.778525 1.501990
8.259490 -0.700577 1.489590
7.481100 -1.821940 0.998173
5.913670 -0.809639 1.432420
4.795660 0.063394 1.253150
8.981410 -0.753026 1.055910
8.688470 -0.887764 0.991700
6.207970 -0.436396 0.991700
7.691170 -2.596250 1.137870
7.701790 -2.165750 1.315140
8.177490 -0.673273 1.304070
5.539910 0.075258 1.318040
6.847080 -0.251351 1.475500
7.672650 -1.362230 1.050650
8.003960 -2.291420 1.578610
8.140430 -1.629420 1.176020
7.932680 -2.059630 0.991699
6.672590 -0.861382 1.096080
6.316740 -1.678740 0.999250
7.715840 -2.191220 1.234170
7.765820 -2.897290 1.396280
4.978440 -1.162500 1.088570
5.835110 0.048661 1.518080
6.685540 0.052022 1.079490
6.330090 0.090974 1.427530
5.091940 -0.575574 1.466850
7.836860 -2.606520 1.578610
7.352190 -0.355435 1.241920
7.800830 -1.834400 1.016460
6.661620 -1.808340 1.284620
6.976860 -0.268174 1.074980
7.709470 -1.869890 0.991699
7.446590 -2.807430 1.162030
7.105730 -0.163143 0.991700
5.018780 0.025599 1.070410
7.362860 -3.045480 1.542640
5.192150 -1.058870 1.508640
7.618060 -0.112061 1.531490
5.896860 -1.549120 1.557220
5.637700 -1.264610 1.054220
8.277630 -0.281434 1.282400
6.430240 -0.782650 1.180050
8.862030 -0.863522 1.578620
7.092680 -2.903330 1.567290
8.486790 -0.857862 1.122520
8.975940 -1.070660 1.449650
7.702840 -1.725110 1.077950
6.337080 -2.489740 1.506580
6.187330 -1.342970 1.390740
6.285320 -0.591368 1.274180
8.782860 -1.451890 1.352280
5.664460 -1.545490 1.035280
5.742710 -2.090630 1.453530
6.750220 -1.410630 1.497990
6.032770 -1.700090 1.569450
6.562670 -0.226097 1.045750
5.706760 0.073015 1.166750
7.474400 -0.090194 1.548370
6.096780 -2.349390 1.441130
5.119270 -1.517570 1.060100
7.914450 -1.364640 1.576930
7.678480 -2.600090 1.219750
7.878250 -2.684010 1.543160
7.434870 -3.097730 1.391630
6.448080 -2.579870 1.465170
8.241880 -0.270048 1.216330
7.306530 -1.522930 0.991699
6.678190 -1.665830 1.578040
7.646710 -2.822160 0.991699
6.761240 -1.533890 1.578610
5.611870 -0.436924 1.020520
5.219980 -0.573203 1.484750
6.321680 -0.707642 1.067140
5.796910 -2.023840 0.999342
6.369040 -2.531520 1.452450
6.612090 -2.278670 1.252760
6.652260 -1.772850 1.517610
5.735820 -0.684800 1.027100
5.449710 -0.532633 1.050550
5.136510 0.042454 1.121080
7.313880 -1.753680 1.546190
7.600820 -2.022890 1.364020
6.952520 -1.392490 1.068390
8.935070 -1.189690 1.270220
7.245010 -0.330614 1.275500
7.887700 -0.255693 1.578620
6.936750 0.026763 1.072360
5.811950 -0.773097 1.387600
4.885030 0.063489 1.253400
8.325850 -1.554720 0.991700
7.947370 -1.882760 1.300330
8.964290 -1.127240 1.236510
7.365890 -1.171650 1.578620
7.313260 0.001718 1.409950
4.958760 -1.472930 1.277250
6.467600 -1.781700 0.991699
4.860120 -0.121912 1.470760
7.934350 -1.282360 1.255590
6.279600 -0.448636 1.042300
9.026410 -0.779429 1.432850
6.722960 -1.414940 1.107010
6.560620 -1.760000 0.991904
7.992380 -2.213470 0.991699
5.569420 -0.098346 0.999541
5.619370 -0.257839 1.005280
8.750000 -0.986136 0.991700
6.274190 -0.518582 1.089630
7.748260 -2.365250 1.348350
8.791260 -0.837919 0.991700
6.218810 -0.851810 0.993674
7.374320 -1.840750 1.180300
8.045940 -1.368020 1.050990
6.782290 -1.029260 1.010220
8.242310 -1.456740 1.255690
7.315130 -0.062529 1.018950
8.188150 -0.527201 1.578620
5.272540 -1.152770 1.516100
5.580690 -1.285130 1.533200
5.012870 -1.509660 1.170940
8.587970 -0.945086 1.175400
6.037680 -2.277380 1.059300
5.744330 -2.069600 1.071070
6.197700 -0.105779 1.578620
7.510210 -1.275760 1.551730
7.855790 -2.075310 0.991699
5.306010 -0.503072 1.502220
8.125690 -2.214430 1.503600
5.448930 -0.701888 1.240780
7.946340 -1.512370 1.107920
8.500990 -1.423020 1.071280
6.721970 -0.863737 1.180360
6.305440 -2.492520 1.162920
8.186530 -1.597730 1.543940
8.228870 -0.678140 1.048320
6.705560 -1.081550 1.426050
6.376290 -0.930887 1.004120
8.763550 -0.545161 1.121330
8.879990 -1.090790 1.576730
6.435260 -1.464460 1.007830
5.539900 -0.664011 1.521180
6.282020 0.072117 1.490950
6.598990 -1.422000 1.516780
7.078420 -0.272392 1.517650
6.675890 -2.454030 1.538940
6.873610 -1.121770 1.441150
5.056480 -1.555260 1.227970
8.618960 -0.929790 1.014600
6.480330 -0.154336 0.991700
6.555950 -1.976050 1.481170
6.354520 -2.536110 1.303180
6.456920 -2.461290 1.578620
9.017300 -0.784342 1.124160
6.285040 -1.397800 1.063410
5.762340 -0.728903 1.096900
8.714180 -1.156980 1.569370
7.990380 -2.125150 0.991699
5.198580 -0.156880 1.055500
7.229200 -0.321665 1.429890
5.103050 -1.265990 1.516110
5.522080 0.048492 1.484350
6.335230 -1.007960 1.362050
7.849360 -2.773530 1.475790
8.756620 -1.118030 0.991700
5.577240 -0.236180 1.560920
6.588000 -0.243338 1.320230
7.227880 -0.305554 1.505620
6.079460 -1.308780 1.334510
5.333760 -1.570370 1.047680
5.096890 -1.335910 1.072560
7.392340 -0.008065 1.312640
5.297010 0.048798 1.455830
6.912120 -2.638200 1.486670
7.023580 -1.494220 1.578610
6.446910 -1.993060 1.578610
8.366570 -1.634250 1.574430
7.390910 -1.851870 1.423250
5.542400 -0.171557 1.009090
7.963170 -1.323840 1.510900
6.205440 -0.353012 0.991700
6.097180 -0.913011 1.200460
8.002950 -2.598040 1.396670
5.662070 -1.146500 1.095360
6.563260 -2.099570 1.280950
6.564650 -0.829651 1.235560
6.052480 0.094134 1.394530
6.902940 -0.917884 1.476540
5.663200 0.044897 1.509080
8.299400 -0.351684 1.036250
5.512470 -1.582940 1.545960
5.080000 -0.911606 1.460170
8.738040 -1.517930 1.365250
8.429530 -0.826142 1.316520
8.016500 -1.970480 1.439720
8.876780 -1.233950 1.088640
8.617160 -0.992173 1.238280
6.145170 -0.008162 0.994180
6.867050 -1.395650 1.116900
8.669780 -1.183180 1.510840
8.055940 -1.595480 1.325880
8.989410 -0.991922 1.501600
6.358160 -0.262116 0.991700
6.560740 -0.172043 0.991700
8.091050 -2.251770 1.559350
6.429900 -0.079855 0.991700
8.260980 -0.720423 1.262060
5.260350 -1.728260 1.255520
6.138430 -0.465914 0.991700
6.055520 -1.525390 1.020020
5.690170 -1.640120 1.554850
5.514610 -1.901920 1.092040
6.437020 -1.514720 1.573710
5.307280 0.062789 1.377830
5.530750 -1.876420 1.022880
7.749040 -1.423230 1.118300
5.619040 -0.155949 0.997244
8.598320 -0.962046 1.306510
5.211090 -1.660720 1.485530
8.284320 -0.734064 1.336570
7.489760 -0.028894 1.313740
8.323630 -1.636330 1.010770
7.299060 -3.067450 1.468160
6.240770 -1.980950 0.991699
8.677750 -1.606950 1.348700
7.827440 -2.749070 1.027950
6.674720 -1.412200 1.484280
7.033500 0.004004 1.527230
8.404210 -0.806708 1.387150
6.945570 -0.999396 1.576870
6.519480 0.048137 1.527310
6.192890 -2.361550 1.546800
6.420850 -0.248971 1.558920
7.744670 -2.304120 1.286420
7.675300 -2.087960 1.470710
4.953310 -1.430110 1.505730
6.675010 -1.404940 1.180980
7.480060 -0.038233 1.167520
6.760990 -2.486010 1.408280
4.950160 -0.312343 1.102200
7.691480 -2.103770 1.098110
6.916620 -1.053520 1.002050
4.849350 -1.255780 1.088110
5.180920 -0.844328 1.149980
5.682830 -1.485430 1.546780
7.560040 -1.980340 1.419490
5.587430 -1.077080 1.337660
8.450600 -1.438180 1.290840
7.304940 -2.830470 1.095880
6.936120 -2.897440 1.399800
5.162370 -0.470571 1.484920
5.835310 -1.650840 1.021370
6.954970 -2.689590 1.050520
7.439950 -0.021982 1.390350
7.606300 -2.784300 1.554900
9.012370 -0.997460 1.429810
6.362940 -2.514610 1.095120
7.700620 -0.450044 1.458060
6.526990 -1.473130 1.003400
7.948410 -2.019340 1.574930
9.026070 -0.989115 1.344350
6.247320 -0.858016 1.578620
6.609580 -1.563200 0.994196
7.309210 -0.302094 1.549000
6.546410 -1.014180 1.063030
7.906340 -2.426720 1.578610
6.612920 -0.071944 0.991700
6.035430 -0.210694 0.991700
5.154170 -0.367721 1.491950
5.383100 -0.156958 1.029970
5.393980 -0.967824 1.132950
5.666090 -1.865620 1.565450
6.388710 -0.993776 1.094800
6.737580 -0.228208 1.036880
6.517010 -2.005070 1.546480
8.179150 -0.259532 1.133950
6.366760 -2.470240 1.012920
4.877560 -0.107363 1.095990
4.782640 -1.312460 1.214070
5.318050 -0.050973 1.539750
5.700460 -0.240093 0.992653
6.254720 -1.492350 1.566420
7.808300 -0.470730 1.523760
6.867280 -0.190180 1.575420
8.661700 -1.114640 1.458400
8.037280 -0.265325 1.015230
6.994200 -0.046052 1.578620
8.238040 -0.333699 1.548950
5.320780 -1.752840 1.108610
5.494140 -0.089087 1.009220
6.524910 -2.600020 1.046800
7.424560 -1.067330 1.442280
7.810160 -0.494685 1.119430
6.612880 -0.857647 1.496120
8.175140 -0.670651 1.188740
6.889940 -2.597670 1.245230
7.484410 -1.530670 1.042410
6.151440 0.091291 1.424950
6.522430 -2.520200 0.991800
5.545830 -1.205090 1.061880
8.189240 -0.390333 1.578620
8.446920 -0.538644 1.578620
7.254830 -1.002980 1.336130
7.115350 -2.966000 1.519610
6.007720 -1.981500 1.578610
5.563960 -0.418341 1.544640
7.080700 -1.472640 0.991699
5.564370 -0.329054 1.551770
4.710660 -1.157830 1.356950
8.508900 -1.680780 1.060290
8.608680 -0.947000 1.492550
8.156160 -0.627162 1.528740
6.272170 -1.383860 1.512980
6.354010 -1.469190 1.568600
7.673740 -1.676260 1.172110
5.650920 -0.602945 1.028290
8.821460 -1.037230 1.578620
5.074050 -0.039059 1.063380
5.259070 -1.709570 1.134640
6.637850 -1.752970 1.017520
8.780080 -1.432180 1.153780
5.027550 -0.467971 1.198110
6.460550 -0.987691 1.043120
5.637130 -2.010540 1.454990
5.081510 -1.050970 1.091290
7.814130 -0.272418 1.578620
5.142650 -0.210404 1.067480
5.481480 -1.243430 1.527740
5.974260 -1.495320 1.025360
8.757460 -1.482570 1.205410
5.362230 -1.766820 1.518200
5.438460 0.054423 1.145320
7.307210 -0.073289 1.566950
7.600360 -1.884720 1.577570
7.405230 -0.369163 1.307910
5.848850 -0.728397 1.542860
6.290870 -0.487079 1.280440
5.072550 -0.366394 1.480760
7.773490 -2.893380 1.302840
4.804230 0.026446 1.095520
9.005150 -0.899112 1.512460
6.491800 -0.263421 1.125360
6.060900 0.000092 0.997577
7.257240 -0.129791 1.578620
6.353100 0.100337 1.292970
6.122150 -2.371930 1.190620
5.834900 -1.253040 1.540150
6.456340 -2.067190 1.578110
6.183210 -1.368440 1.078100
5.191100 0.047811 1.455190
7.560370 -0.269997 0.991700
7.813950 -1.234290 1.470540
6.613130 -0.970307 1.578620
5.984400 -2.138650 0.991699
8.598880 -0.459683 1.105990
5.250930 -1.342090 1.065660
7.888970 -0.501575 1.527430
6.611350 -1.030280 1.509630
6.854110 -0.262554 1.400490
7.986230 -0.187203 1.137700
5.642400 -1.620040 1.031480
7.796660 -0.174058 1.027360
6.643440 -1.074400 1.366420
7.211270 -2.819420 1.067560
6.400790 -1.412970 1.075870
8.079200 -0.245579 1.514200
5.796360 -1.205310 1.141240
7.630980 -2.669290 1.395210
6.570600 0.088042 1.204670
5.368500 0.040725 1.485600
6.645680 -2.516750 0.991705
6.952470 -2.858070 1.536500
7.217530 0.007430 1.140260
7.570630 -1.130310 1.482060
5.646670 -1.119360 1.184740
7.787240 -2.802090 1.539220
7.883530 -1.508640 1.356780
8.152870 -2.321100 1.375710
6.392920 -1.784900 0.991699
7.776370 -1.751850 1.418810
8.825500 -1.385230 1.334730
6.547100 -0.997694 1.541620
7.496420 -0.217605 0.991700
8.486230 -0.375304 1.300040
5.968100 -0.820498 1.487420
7.392970 -1.408320 1.022230
7.479690 -2.841530 1.025180
8.031500 -2.210720 1.578610
7.636030 -2.661140 1.232930
6.134190 -0.935849 1.342330
7.402910 -1.538040 1.578610
7.760830 -0.125655 1.486880
6.754080 -2.686350 0.994411
4.955770 -1.203270 1.507970
5.304650 -1.756330 1.182670
7.027740 -0.284707 1.133070
4.905380 -1.204910 1.088970
6.209920 -0.911022 1.041800
5.014550 -0.445294 1.446230
7.249850 -2.799860 1.272880
7.858430 -0.128938 1.351640
6.390690 -1.692940 0.995223
