ply
format ascii 1.0
element vertex 761
property float x
property float y
property float z
end_header
2.805460 -0.035604 1.276340
2.915630 -0.082118 1.285160
3.119480 -0.140482 1.341170
2.207040 -0.568131 1.395200
2.642820 -0.079302 1.285160
2.967200 -0.564994 1.395200
2.011750 -0.348073 1.203710
1.445910 -0.566305 1.287800
0.723436 -0.440869 1.285160
2.347110 -0.354750 1.395200
1.172630 -0.155310 1.175110
1.150720 -0.065143 1.299890
3.913890 -0.579486 1.204810
4.546760 -0.231348 1.193870
4.497070 -0.226428 1.395200
3.768690 -0.065143 1.376180
1.287560 -0.549520 1.376320
4.096440 -0.471829 1.395200
2.800400 -0.577425 1.285160
1.997060 -0.120785 1.175110
2.102070 -0.029103 1.231770
2.521860 -0.125180 1.175110
1.629870 -0.099620 1.285160
4.021220 -0.140793 1.395200
0.898708 -0.086094 1.285160
2.588240 -0.429655 1.395200
2.518410 -0.151094 1.346470
1.062240 -0.326723 1.395200
4.576980 -0.682818 1.285160
2.954020 -0.159167 1.350510
0.297848 -0.318052 1.286050
2.087840 -0.507489 1.395200
2.004480 -0.028815 1.212990
3.283080 -0.391799 1.189880
2.263390 -0.332734 1.188450
3.437600 -0.350741 1.395200
4.826920 -0.665118 1.175560
0.947984 -0.368035 1.395200
3.507750 -0.302988 1.395200
0.507235 -0.045455 1.198320
3.085220 -0.276926 1.395200
3.410530 -0.260289 1.175110
0.719964 -0.150410 1.192440
4.102260 -0.065143 1.383890
4.608050 -0.501174 1.395200
2.816980 -0.321788 1.175110
1.086690 -0.201585 1.371720
0.792693 -0.333061 1.395200
1.921750 -0.028571 1.278940
0.680926 -0.066998 1.304430
3.943780 -0.351012 1.395200
3.521600 -0.578694 1.365450
4.504280 -0.079869 1.285160
0.873140 -0.172786 1.191770
2.139080 -0.578694 1.362930
3.999550 -0.530823 1.395200
0.796185 -0.243448 1.392650
1.924340 -0.154074 1.347960
4.253790 -0.766498 1.282870
3.652860 -0.222540 1.175110
0.555932 -0.328986 1.285160
2.798910 -0.445840 1.219100
2.150940 -0.029795 1.175110
2.030060 -0.320912 1.395200
3.512600 -0.384141 1.395200
2.303820 -0.076891 1.285160
0.331837 -0.148642 1.345250
3.583880 -0.237353 1.395200
0.794513 -0.462076 1.301190
1.706680 -0.036806 1.175110
0.362597 -0.176752 1.233590
2.616740 -0.357405 1.395200
1.406060 -0.149461 1.345660
3.076970 -0.393154 1.193040
1.079150 -0.409836 1.285160
4.562130 -0.154945 1.395200
4.027520 -0.254715 1.175110
4.015310 -0.065143 1.383620
3.303030 -0.574529 1.262620
4.878720 -0.853433 1.175460
4.444070 -0.387886 1.527340
2.477270 -0.390531 1.205120
3.012190 -0.569313 1.273220
1.850930 -0.578694 1.386960
4.598420 -0.228221 1.395200
3.299700 -0.578694 1.340420
3.806340 -0.062916 1.175110
3.125380 -0.110771 1.175110
2.602960 -0.119019 1.175110
3.308670 -0.292879 1.175110
1.297780 -0.474593 1.395200
0.355800 -0.337616 1.394420
4.789810 -0.772072 1.175420
0.771356 -0.156681 1.349270
1.699380 -0.068417 1.305140
1.601320 -0.416875 1.395200
2.537240 -0.034004 1.175110
2.248450 -0.425528 1.225880
3.226040 -0.578146 1.285160
1.940820 -0.053120 1.175110
3.326740 -0.065143 1.302510
-0.128900 -0.069608 1.228730
3.974600 -0.348929 1.175110
4.326390 -0.818872 1.175110
1.589240 -0.339894 1.219350
0.266123 -0.227479 1.270340
3.631030 -0.403622 1.191950
1.365880 -0.031337 1.198040
3.573230 -0.312596 1.175110
3.245560 -0.547780 1.395200
2.607250 -0.128399 1.335130
1.936950 -0.573106 1.285160
2.130040 -0.065143 1.303060
1.772670 -0.080938 1.175110
2.198310 -0.029386 1.235340
0.525668 -0.301721 1.395200
1.150160 -0.265762 1.395200
4.212810 -0.302175 1.529320
4.496290 -0.910341 1.285160
2.545680 -0.216559 1.175110
2.706410 -0.294155 1.395200
1.702860 -0.442870 1.395200
3.224900 -0.152404 1.347130
1.680400 -0.110708 1.175110
3.425960 -0.049876 1.175110
4.801370 -0.864808 1.175380
1.962430 -0.430229 1.238510
1.830910 -0.065143 1.300310
1.951250 -0.578694 1.361840
4.308820 -0.810982 1.259010
4.606270 -0.749793 1.175110
1.774600 -0.399915 1.395200
0.985606 -0.293908 1.395200
4.632650 -0.676174 1.175110
3.942850 -0.109000 1.395200
4.575660 -0.383534 1.175180
4.602890 -0.942958 1.175110
2.222830 -0.208870 1.375360
3.252240 -0.226035 1.383940
2.610460 -0.578694 1.366790
4.081800 -0.065896 1.178720
1.742360 -0.578694 1.375130
0.272076 -0.051699 1.186370
3.031620 -0.495407 1.395200
1.521500 -0.483818 1.285160
2.104540 -0.165621 1.175110
2.439170 -0.231859 1.386860
1.528460 -0.180985 1.361420
4.498460 -0.299652 1.145760
4.803370 -0.886219 1.285410
1.239970 -0.122083 1.331970
0.420723 -0.081660 1.184950
3.508190 -0.242285 1.175110
3.067540 -0.578694 1.392440
3.359310 -0.479376 1.395200
4.808650 -0.526676 1.189640
0.481814 -0.362059 1.285160
2.698180 -0.373691 1.395200
4.020300 -0.176217 1.175110
1.648030 -0.506546 1.395200
1.242560 -0.395958 1.395200
3.666760 -0.295815 1.395200
3.196550 -0.398541 1.193660
1.006050 -0.182827 1.187560
2.874530 -0.158695 1.350270
2.848250 -0.131315 1.175110
1.322350 -0.095874 1.175110
3.358440 -0.361453 1.176820
2.760700 -0.382863 1.194880
4.424200 -0.186433 1.145760
4.153600 -0.400488 1.066500
-0.073831 -0.169167 1.353360
4.928120 -0.771328 1.285600
4.196190 -0.463392 1.529320
1.365350 -0.512178 1.395200
3.577470 -0.448118 1.395200
2.960860 -0.037969 1.176660
4.377860 -0.070172 1.285160
2.518460 -0.560224 1.285160
4.262070 -0.578694 1.366020
2.394820 -0.067677 1.304760
4.273520 -0.759159 1.175110
4.989680 -0.712454 1.204740
4.373040 -0.488073 1.474620
4.189570 -0.071089 1.197420
4.856420 -0.331351 1.395200
3.556580 -0.395958 1.189370
0.072114 -0.070588 1.211410
2.547160 -0.295277 1.395200
1.169970 -0.412487 1.285160
1.827480 -0.028792 1.184280
2.080070 -0.578303 1.285160
4.691090 -0.841640 1.285180
4.599700 -0.307819 1.175300
4.533020 -0.070317 1.395200
4.882910 -0.946292 1.175370
0.848758 -0.474712 1.360480
1.593510 -0.230249 1.386050
3.159540 -0.242961 1.392410
3.447040 -0.578694 1.375760
1.553460 -0.476189 1.395200
0.452090 -0.369132 1.365520
-0.086029 -0.065143 1.293720
4.355960 -0.590132 1.175110
1.759010 -0.492534 1.395200
-0.142618 -0.133716 1.282100
1.675270 -0.146750 1.344300
1.451410 -0.227980 1.384920
4.020050 -0.437839 1.175110
0.030977 -0.155649 1.348750
2.522140 -0.446922 1.226170
1.250490 -0.262201 1.206560
2.965480 -0.455277 1.395200
1.243150 -0.240839 1.391350
2.845070 -0.578694 1.352450
2.980520 -0.221216 1.175110
4.152790 -0.251148 1.101750
0.681646 -0.211879 1.222370
4.713710 -0.918309 1.285180
4.272590 -0.388287 1.550210
0.682368 -0.177355 1.359600
2.121850 -0.236794 1.389320
4.627460 -0.117344 1.395200
4.705970 -0.578694 1.395200
4.272930 -0.369988 1.058200
3.915400 -0.226222 1.175110
3.195910 -0.163476 1.175110
3.870320 -0.081644 1.395200
4.103720 -0.142652 1.395200
4.220860 -0.220812 1.064860
3.098030 -0.204558 1.373210
2.905540 -0.400427 1.395200
2.963170 -0.325202 1.395200
0.113611 -0.175307 1.358580
3.272310 -0.149276 1.175110
2.774050 -0.578694 1.386900
4.451670 -0.065143 1.341810
3.134600 -0.336374 1.175110
3.197910 -0.075227 1.175110
1.914280 -0.221041 1.381450
2.611900 -0.368215 1.192610
0.882928 -0.240667 1.391260
0.637641 -0.421534 1.285160
4.528850 -0.717707 1.175110
3.432560 -0.177980 1.175110
4.313050 -0.190173 1.082820
3.342560 -0.391772 1.395200
2.623030 -0.227036 1.384440
1.181240 -0.334825 1.395200
4.972870 -0.578694 1.380170
1.358020 -0.545050 1.285160
3.439960 -0.155442 1.349730
2.921100 -0.221323 1.381590
4.297010 -0.508626 1.092110
4.351720 -0.199511 1.515330
0.981729 -0.501753 1.289660
0.216670 -0.288345 1.296050
4.633370 -0.897465 1.285160
1.320560 -0.252724 1.395200
2.501760 -0.431979 1.395200
2.420050 -0.506117 1.395200
1.672100 -0.260899 1.183140
1.817860 -0.134259 1.338060
1.400210 -0.439364 1.395200
0.362014 -0.249577 1.285160
2.534970 -0.342811 1.184450
4.400090 -0.079522 1.395200
3.677390 -0.578694 1.363350
2.055830 -0.578694 1.378480
4.863700 -0.813764 1.285540
3.494900 -0.466384 1.218320
1.730510 -0.575615 1.285160
2.019780 -0.498172 1.263470
2.281880 -0.244000 1.175110
0.895087 -0.037426 1.221000
3.891310 -0.578694 1.357090
3.066210 -0.054027 1.175110
3.717240 -0.395829 1.187950
4.263840 -0.187704 1.511490
2.705250 -0.217142 1.379500
2.693950 -0.121465 1.331660
3.271480 -0.224045 1.175110
4.790900 -0.942611 1.175300
2.910180 -0.260082 1.175110
3.620580 -0.058352 1.175110
2.439720 -0.524347 1.285160
1.845490 -0.573799 1.285160
4.764580 -0.816778 1.285390
-0.063970 -0.140243 1.285160
3.256360 -0.333241 1.395200
0.669182 -0.431245 1.362980
1.009170 -0.192557 1.367210
2.004320 -0.250595 1.395200
3.424540 -0.065143 1.294520
2.482910 -0.274900 1.175110
2.229130 -0.188490 1.175110
4.136050 -0.333314 1.104940
1.952000 -0.305476 1.189020
0.992902 -0.424313 1.285160
1.875640 -0.104173 1.175110
4.128770 -0.562032 1.175110
3.371200 -0.133520 1.175110
2.203760 -0.269927 1.175110
3.672690 -0.390309 1.395200
0.040842 -0.150046 1.251910
4.651910 -0.875906 1.175110
4.325150 -0.273521 1.058200
4.709290 -0.484036 1.395200
0.146280 -0.239077 1.285160
3.387990 -0.453893 1.213790
3.712220 -0.056385 1.211830
4.913010 -0.636891 1.201540
4.310540 -0.670776 1.175110
2.732980 -0.034535 1.236030
0.976337 -0.114253 1.175110
1.541990 -0.412319 1.250930
2.992390 -0.382114 1.190110
0.120355 -0.072169 1.307010
1.919790 -0.205080 1.175110
2.176750 -0.554689 1.285160
2.341350 -0.297391 1.175110
2.311490 -0.267408 1.395200
3.286830 -0.044701 1.217460
4.593020 -0.065143 1.350220
0.793737 -0.196305 1.207700
4.454500 -0.570953 1.175110
3.884800 -0.061986 1.193380
4.468090 -0.838193 1.285160
4.391610 -0.578694 1.376190
2.168000 -0.482687 1.395200
0.978674 -0.068605 1.285160
0.907183 -0.486904 1.314480
1.077270 -0.034739 1.178310
1.274200 -0.316184 1.395200
2.680760 -0.576274 1.395200
3.913850 -0.178970 1.395200
4.390780 -0.266791 1.529320
3.433790 -0.511823 1.236850
3.530800 -0.507674 1.395200
4.590340 -0.826789 1.175110
1.600660 -0.104839 1.175110
2.460880 -0.325806 1.395200
2.256350 -0.493291 1.395200
-0.004239 -0.088648 1.315250
0.822814 -0.090085 1.315970
1.521360 -0.568222 1.285160
2.442640 -0.153704 1.347780
0.961244 -0.036450 1.185630
4.068060 -0.065651 1.254090
2.456930 -0.031326 1.198450
3.364220 -0.046714 1.220540
3.912500 -0.276064 1.395200
4.448890 -0.346514 1.087850
3.652580 -0.132601 1.175110
1.682840 -0.214259 1.378060
4.724950 -0.674505 1.175350
4.318260 -0.075033 1.395200
4.365960 -0.403862 1.529320
1.454180 -0.030555 1.175900
2.934720 -0.566543 1.272210
4.140790 -0.067846 1.274540
3.605660 -0.340629 1.395200
2.345550 -0.428898 1.224250
2.381120 -0.030655 1.237020
3.919800 -0.505051 1.395200
0.697837 -0.249592 1.395200
3.880860 -0.400757 1.395200
4.657910 -0.996468 1.175110
2.422460 -0.397330 1.395200
1.488050 -0.030256 1.274900
4.267760 -0.666373 1.285160
0.282498 -0.162581 1.233650
0.649521 -0.042382 1.225070
1.877340 -0.325974 1.200680
4.329150 -0.541621 1.395200
2.250160 -0.029562 1.175110
1.995080 -0.244204 1.175110
4.098640 -0.174542 1.175110
4.072670 -0.554783 1.395200
1.064770 -0.116765 1.175110
3.000700 -0.244781 1.393320
1.143190 -0.153273 1.347560
3.360210 -0.170870 1.356360
1.713460 -0.493145 1.285160
1.672890 -0.324960 1.395200
2.600530 -0.508930 1.395200
1.135060 -0.420535 1.395200
1.758900 -0.311384 1.395200
3.266260 -0.464674 1.219180
1.573310 -0.553254 1.395200
1.302380 -0.183672 1.362760
0.280939 -0.312344 1.384990
2.329570 -0.034190 1.175110
0.351976 -0.049578 1.201320
3.207830 -0.293641 1.175110
3.355630 -0.556375 1.395200
1.261120 -0.414644 1.285160
3.016380 -0.378815 1.395200
4.410950 -0.121222 1.179980
4.173400 -0.578694 1.393940
2.634430 -0.287810 1.175110
1.223930 -0.532931 1.285160
0.065368 -0.229089 1.382790
4.521070 -0.796518 1.175110
4.009070 -0.065143 1.306280
3.655000 -0.582088 1.282960
3.828110 -0.311881 1.395200
3.014700 -0.303745 1.175110
1.477680 -0.480695 1.395200
4.177400 -0.155532 1.155670
3.728440 -0.191466 1.175110
1.609840 -0.029434 1.180780
2.016890 -0.065143 1.286480
2.107250 -0.335319 1.195200
4.647250 -0.433067 1.395200
1.147040 -0.071524 1.175110
3.794160 -0.391092 1.175110
4.067330 -0.342321 1.153610
3.250650 -0.081787 1.311820
3.510190 -0.140653 1.175110
3.811090 -0.246656 1.175110
2.841050 -0.230909 1.175110
2.778960 -0.035213 1.176370
3.474300 -0.448504 1.395200
1.505120 -0.570997 1.363560
2.317970 -0.546434 1.395200
3.139160 -0.453047 1.216150
1.503790 -0.286358 1.395200
0.139311 -0.259421 1.368530
2.261350 -0.324012 1.395200
1.243980 -0.193138 1.176920
4.785840 -1.018950 1.175240
1.773370 -0.028951 1.261100
1.744120 -0.334640 1.209870
4.881820 -0.889441 1.285480
0.063355 -0.219573 1.285160
0.459999 -0.178890 1.225850
1.579830 -0.304539 1.395200
1.415510 -0.294248 1.395200
2.869260 -0.476558 1.395200
2.106780 -0.415089 1.395200
2.678520 -0.578694 1.314740
4.758200 -0.980352 1.285250
3.849840 -0.320159 1.175110
0.881110 -0.095000 1.175110
3.598410 -0.578694 1.374310
4.246510 -0.440045 1.058200
2.778730 -0.241481 1.391670
3.581640 -0.155779 1.366300
2.950380 -0.494902 1.235530
0.928617 -0.187285 1.364570
3.814340 -0.514574 1.217300
0.452391 -0.259729 1.285160
4.505910 -0.631211 1.175110
2.152470 -0.151971 1.346910
4.620900 -0.576648 1.395200
1.422920 -0.564000 1.388550
1.473670 -0.335652 1.224090
1.481000 -0.253755 1.189520
0.796602 -0.317972 1.285160
1.116850 -0.212884 1.192760
1.638690 -0.188430 1.175110
4.379800 -0.469055 1.076080
2.060580 -0.196915 1.369380
4.107620 -0.578694 1.326630
1.001860 -0.257239 1.219250
3.504750 -0.120198 1.338110
3.061990 -0.241945 1.175110
2.682680 -0.527415 1.254030
2.864390 -0.041414 1.175110
1.801600 -0.287415 1.188100
4.509250 -0.742847 1.285160
2.275360 -0.578694 1.334010
1.238290 -0.103446 1.175110
2.763760 -0.113098 1.175110
4.250160 -0.508329 1.455890
1.515660 -0.360355 1.395200
4.246540 -0.561152 1.152150
0.510694 -0.217138 1.379500
4.643150 -0.737252 1.285160
3.028420 -0.166784 1.354320
0.914493 -0.249637 1.222650
2.666800 -0.033559 1.199920
3.013430 -0.039055 1.232080
2.688970 -0.344932 1.181580
3.827310 -0.216588 1.395200
1.061570 -0.403312 1.395200
0.430623 -0.244128 1.392990
4.678220 -0.227573 1.395200
0.881994 -0.317582 1.395200
4.875500 -0.750527 1.175550
4.360520 -0.730816 1.175110
3.090960 -0.560450 1.285160
0.887858 -0.420300 1.395200
2.197490 -0.372428 1.206740
2.181800 -0.130443 1.175110
3.099030 -0.361790 1.395200
0.259428 -0.070754 1.306300
4.254440 -0.111436 1.175110
1.216020 -0.512924 1.395200
4.573030 -0.584845 1.175110
3.491960 -0.050105 1.251270
4.542660 -0.572921 1.395200
0.620414 -0.216107 1.378980
3.176570 -0.578694 1.349410
0.166474 -0.092803 1.213720
4.516470 -0.491165 1.175110
4.012220 -0.297885 1.395200
3.180590 -0.330792 1.395200
2.560390 -0.068765 1.305310
4.909200 -0.660359 1.285700
0.704891 -0.065990 1.175110
2.852820 -0.337350 1.395200
1.162690 -0.489665 1.285160
1.437810 -0.486439 1.285160
1.840930 -0.488603 1.395200
2.750680 -0.271277 1.175110
2.603100 -0.551874 1.285160
4.338200 -0.101293 1.175110
1.833110 -0.215937 1.175110
4.651530 -0.551498 1.175250
2.032180 -0.129995 1.335920
1.053040 -0.339057 1.250270
3.755960 -0.362302 1.395200
4.776870 -0.293893 1.395200
4.622300 -0.169178 1.285160
4.431350 -0.728437 1.285160
2.344800 -0.122496 1.332170
1.398320 -0.065143 1.288860
3.835840 -0.133690 1.175110
3.739130 -0.137697 1.395200
0.593874 -0.061280 1.175110
3.989150 -0.219040 1.395200
2.409200 -0.578694 1.359520
1.365820 -0.405987 1.258210
1.012520 -0.507887 1.381690
1.566420 -0.262086 1.188830
0.841933 -0.183266 1.362560
3.663350 -0.321391 1.175110
4.386480 -0.386865 1.058200
2.106410 -0.255815 1.175110
2.644850 -0.204428 1.175110
4.529230 -0.977141 1.175110
2.390410 -0.288913 1.395200
3.746100 -0.112206 1.175110
2.229230 -0.093383 1.285160
0.703045 -0.333037 1.395200
4.389440 -0.232881 1.074250
2.792760 -0.163580 1.352720
4.465870 -0.937945 1.191060
3.509780 -0.061774 1.175110
1.845360 -0.289507 1.395200
4.745940 -0.415921 1.395200
2.268760 -0.110422 1.175110
3.671230 -0.466004 1.395200
0.463562 -0.151851 1.346850
4.132340 -0.316313 1.528940
4.192550 -0.065143 1.378330
1.648890 -0.578694 1.374790
0.805600 -0.039159 1.186130
4.302680 -0.065143 1.309940
3.749920 -0.472245 1.217040
4.329340 -0.724911 1.285160
4.323040 -0.508064 1.529320
0.253671 -0.240635 1.391240
1.530290 -0.035070 1.175110
3.974640 -0.532713 1.175110
0.180888 -0.121507 1.331680
3.069860 -0.066974 1.304410
1.751770 -0.166025 1.353940
4.425940 -0.774501 1.175110
4.003700 -0.582262 1.233620
2.683590 -0.131607 1.175110
0.800975 -0.418254 1.395200
1.667500 -0.029263 1.246060
4.466520 -0.551098 1.395200
0.389868 -0.340159 1.285160
2.932520 -0.336161 1.175110
2.219880 -0.417598 1.395200
4.232450 -0.686025 1.175110
4.145530 -0.678981 1.198940
3.445530 -0.259371 1.395200
0.628768 -0.299076 1.285160
3.731750 -0.237623 1.395200
4.702670 -0.420580 1.175490
2.172010 -0.303103 1.395200
4.945770 -0.483429 1.395200
4.828890 -0.235207 1.395200
3.985250 -0.065225 1.189470
1.984220 -0.504548 1.395200
1.789740 -0.494193 1.285160
4.023290 -0.406737 1.395200
4.700020 -0.311023 1.395200
4.535100 -0.295474 1.395200
4.184440 -0.614743 1.175110
4.020930 -0.578694 1.329100
2.509330 -0.553890 1.395200
4.059220 -0.610771 1.191060
4.471920 -0.122647 1.395200
4.714450 -0.917131 1.175140
2.384140 -0.368887 1.199260
4.296870 -0.254615 1.529320
2.356120 -0.189275 1.365560
0.636501 -0.127138 1.188040
1.481040 -0.173954 1.175110
4.558490 -0.868182 1.285160
4.705720 -0.756812 1.175240
2.093460 -0.078154 1.175110
4.101390 -0.644128 1.252750
2.346740 -0.458524 1.395200
3.330060 -0.236483 1.389170
1.839540 -0.200772 1.371310
3.736780 -0.526838 1.395200
1.992990 -0.412196 1.395200
3.278510 -0.472411 1.395200
4.532330 -0.900904 1.175110
4.056560 -0.511487 1.175110
4.604810 -0.468135 1.175190
0.340062 -0.225052 1.383450
3.828410 -0.060155 1.263320
1.311910 -0.065143 1.300770
0.605307 -0.065143 1.295660
0.196767 -0.187132 1.364490
2.424390 -0.462460 1.235250
1.282870 -0.032071 1.180860
1.332620 -0.174128 1.175110
1.562150 -0.183929 1.175110
4.238820 -0.076352 1.254000
4.722040 -0.736831 1.285350
4.494420 -0.171184 1.176610
3.908040 -0.387528 1.175110
1.059140 -0.515684 1.308380
1.610850 -0.574530 1.285160
1.624690 -0.500677 1.285160
2.393060 -0.086991 1.175110
0.399563 -0.048314 1.266960
0.600439 -0.187704 1.217410
2.906120 -0.180137 1.175110
0.201042 -0.158787 1.239610
1.067310 -0.034886 1.266400
3.374330 -0.578694 1.309530
4.673050 -0.981166 1.285160
2.741340 -0.185564 1.175110
4.586230 -0.789223 1.285160
1.856960 -0.365066 1.395200
3.663760 -0.473605 1.221500
2.239080 -0.513020 1.285160
1.740310 -0.226885 1.175110
1.236530 -0.049798 1.285160
2.443190 -0.171052 1.175110
3.437650 -0.385382 1.185940
3.145260 -0.525841 1.395200
0.603163 -0.300361 1.395200
1.756050 -0.233474 1.387660
4.428430 -0.869528 1.175110
3.576100 -0.052340 1.239430
4.214490 -0.493585 1.100110
4.830060 -0.745641 1.285550
4.191100 -0.715820 1.273670
4.101180 -0.458121 1.145760
3.840910 -0.523458 1.395200
3.683060 -0.065143 1.354670
3.951890 -0.433901 1.395200
2.648910 -0.430996 1.216560
0.557368 -0.400931 1.321720
3.886030 -0.503384 1.175110
4.524060 -0.498595 1.395200
2.778800 -0.363790 1.395200
3.332410 -0.314094 1.395200
4.376710 -0.790353 1.285160
0.869281 -0.415991 1.285160
0.533574 -0.391103 1.395200
3.593960 -0.065143 1.327100
3.817940 -0.451420 1.395200
3.216960 -0.400310 1.395200
3.098720 -0.441776 1.395200
4.841220 -0.577156 1.395200
4.579130 -0.952597 1.285160
3.198080 -0.496465 1.232730
2.917120 -0.099560 1.175110
4.611130 -0.340915 1.395200
2.337870 -0.143813 1.175110
3.657520 -0.151530 1.382300
3.044450 -0.502119 1.236970
3.792300 -0.578694 1.369830
3.212430 -0.043164 1.245110
4.864880 -0.418591 1.395200
0.469619 -0.065143 1.292810
4.408740 -0.891459 1.285160
3.011400 -0.105412 1.175110
2.587820 -0.032484 1.231590
-0.003813 -0.060699 1.219760
3.138170 -0.041631 1.256660
0.948162 -0.357415 1.285160
1.912310 -0.489711 1.273580
0.528935 -0.146683 1.205720
3.931800 -0.124805 1.175110
2.786120 -0.438919 1.395200
4.178330 -0.232840 1.529320
2.333900 -0.567919 1.285160
0.620792 -0.139405 1.340630
4.404580 -0.667015 1.175110
3.738870 -0.075956 1.285160
1.430280 -0.114079 1.175110
0.793047 -0.039418 1.265220
1.112960 -0.520594 1.395200
2.922420 -0.410418 1.202590
1.201560 -0.032906 1.212530
0.731910 -0.364649 1.285160
1.371500 -0.360544 1.395200
1.401380 -0.307423 1.216000
2.270700 -0.141293 1.341570
4.063400 -0.208832 1.395200
4.730950 -0.543391 1.175460
4.166130 -0.386423 1.529320
1.562030 -0.029601 1.261890
2.659600 -0.455743 1.395200
4.783620 -0.175379 1.395200
1.847480 -0.429879 1.243440
2.145130 -0.422288 1.228540
3.574530 -0.182111 1.175110
4.571910 -0.427551 1.395200
1.930010 -0.315058 1.395200
3.737000 -0.578694 1.303220
1.659780 -0.369929 1.227870
3.822680 -0.578694 1.288820
3.579810 -0.480519 1.223430
4.680060 -1.067010 1.285160
3.472200 -0.309074 1.175110
1.918950 -0.455850 1.395200
2.065850 -0.443687 1.240070
1.773550 -0.159713 1.175110
1.331510 -0.256820 1.199150
3.731820 -0.271224 1.175110
1.396160 -0.213415 1.177070
2.011050 -0.578694 1.317170
3.897760 -0.579668 1.282220
2.728940 -0.471238 1.230700
4.772570 -0.540934 1.395200
0.524501 -0.246330 1.249420
4.723250 -0.832092 1.175230
3.142480 -0.247866 1.175110
0.772657 -0.261872 1.238130
3.532030 -0.575964 1.262170
2.734040 -0.495773 1.395200
2.849980 -0.392698 1.196880
1.615860 -0.428041 1.253530
1.200370 -0.335837 1.239440
0.938480 -0.493138 1.394470
3.441790 -0.580055 1.275750
2.844950 -0.091478 1.316670
4.327330 -0.331465 1.547880
2.103000 -0.337520 1.395200
4.782590 -0.603703 1.175530
2.516770 -0.031855 1.257100
2.384740 -0.234938 1.175110
0.549553 -0.159964 1.350910
4.590450 -1.038650 1.284920
3.743390 -0.444834 1.395200
4.824740 -0.486622 1.395200
4.439580 -0.429163 1.106520
