ply
format ascii 1.0
element vertex 473
property float x
property float y
property float z
end_header
0.882064 28.333300 10.576300
0.927398 27.110001 10.714400
0.063390 4.251870 10.847500
0.216014 33.747002 12.027300
-0.369790 7.987330 10.864600
0.420608 9.331020 11.970600
0.442952 32.279900 11.934300
-0.287344 14.572700 11.828100
0.607168 36.223801 10.154400
-0.353034 28.976400 10.091600
0.906189 20.448299 11.122300
0.218382 7.284060 10.230300
-0.182739 5.647160 9.937920
0.085929 15.659100 11.881900
0.315837 13.871800 10.221600
1.031040 36.328899 11.257500
-0.892868 20.560301 10.800200
0.906784 27.183399 11.368400
-0.859642 35.786098 10.412700
-1.004220 36.900101 11.357800
-1.506790 39.688202 11.774100
-0.220882 21.696199 11.918000
1.040040 35.437801 11.129800
0.334011 17.568100 11.837200
0.941009 23.530899 11.069200
-0.364999 7.935420 11.948500
-0.022091 19.291100 10.108700
-0.299734 23.710800 10.120700
0.217894 30.958599 10.029100
-0.912233 22.673599 10.802500
-0.899410 19.315300 11.096500
-0.833983 24.575600 10.548400
-0.990955 31.983999 10.761700
-0.740412 30.417200 10.335100
0.221744 11.386800 10.191000
0.655718 26.655800 10.298700
0.291022 16.929300 11.848900
-0.844972 14.794100 10.826000
0.058372 5.919830 12.118400
0.772273 13.795200 11.382500
-0.707062 17.243999 10.485100
-0.759280 37.112900 11.768300
-0.001243 3.604180 10.920900
-0.309171 37.232700 9.994660
1.029480 34.626701 11.155600
0.357396 31.510000 10.068900
0.985303 29.033100 10.920300
-0.916045 29.878300 10.622200
0.275294 17.325100 10.172200
-0.846180 13.053800 10.950300
-0.691331 22.054501 10.394300
-0.541003 17.460699 11.717100
-0.292398 6.638610 12.058200
0.717261 28.797600 10.328700
-0.332308 7.284060 11.433800
-0.982484 30.181499 11.211100
-0.799718 20.728001 11.475600
0.789705 35.203800 10.329900
0.436756 28.819799 11.903500
0.904980 27.743999 11.385900
-0.894786 21.431999 10.768800
-0.841547 13.710100 10.871800
-0.646399 13.894700 11.577300
0.052907 4.932390 12.053100
-0.348768 19.874500 11.853200
-0.343835 27.386700 10.103200
-0.273018 22.990900 11.914700
0.855526 22.734100 10.643600
-0.649665 23.378700 11.700200
-0.672229 26.541901 10.312600
-0.064928 29.773899 12.011700
-0.905810 19.934700 10.941200
-0.113697 4.776180 10.284400
0.960321 34.113400 10.631000
-0.281675 6.526850 11.547700
-0.267880 24.370800 10.101100
-0.367833 9.352470 10.002900
-0.862861 37.222599 10.396400
-0.326403 15.251900 10.213000
0.749943 25.635401 11.613400
-0.135767 5.006190 11.394500
0.969418 30.949499 10.726100
-0.725222 31.772800 10.295500
0.449107 24.448200 10.175400
0.305308 28.217100 10.079200
-0.841710 36.474602 10.379500
-0.119832 4.840120 10.864200
0.307644 6.797490 10.842500
-0.469324 32.048199 11.921200
0.344518 25.552601 10.121300
-0.608385 11.037900 10.432900
-0.413789 8.566060 11.054800
0.552656 10.459400 11.686100
-0.935381 32.497299 10.608000
0.773241 10.919400 10.755900
-1.024940 35.733002 11.264100
0.086630 20.180599 11.922100
-0.673528 10.994600 11.530200
0.922682 30.949499 11.418000
-0.649018 33.673801 11.816700
0.622445 25.063601 10.291200
-0.004660 3.639790 10.346600
1.024060 36.015499 10.741700
0.974705 28.486900 11.154100
-0.172911 5.393310 10.458000
-1.042000 37.611401 10.772300
-0.895420 22.895500 11.295200
-0.513662 24.955900 10.208900
0.450499 36.909199 11.975100
0.180130 21.780199 10.107100
0.836660 13.045300 11.152700
0.355620 31.491100 11.962900
-0.844108 14.198800 11.172300
0.267258 30.294001 10.043300
0.847676 31.430500 10.460100
0.023520 8.412210 9.856420
0.690763 33.882198 10.244400
0.695944 38.375702 11.832100
-0.612645 32.447601 10.200400
0.712298 10.984000 11.424300
0.561155 9.665920 11.395800
-0.370137 26.876900 11.912300
0.702718 10.301200 11.212500
-0.028132 23.514500 11.959900
-0.872336 17.968700 11.210700
-0.298535 30.325300 11.975300
0.847305 15.018900 11.202600
0.058891 34.245098 12.052400
-0.646044 12.054500 11.551800
0.949538 33.433201 11.410700
-0.940265 31.080700 10.652700
0.907363 21.096600 11.157700
1.080130 38.767899 10.986000
-0.228862 31.580500 10.025000
-0.230941 36.092499 9.985260
0.906076 22.339600 11.252700
-0.108856 25.286501 10.066000
-0.161768 31.253300 12.012200
0.950312 27.790001 10.753800
0.222824 26.403799 10.070900
-0.778035 34.726101 11.709800
0.172531 36.270802 12.055300
0.417413 18.479799 10.220000
0.711901 15.506200 11.514900
0.286582 15.424800 10.194900
-0.862615 28.646601 10.522000
-0.950086 27.994301 11.282900
-0.947399 30.885201 11.356900
0.354792 7.376140 11.961500
-0.935370 24.042500 11.147200
0.592047 35.636200 11.882000
0.987931 37.864700 10.612400
0.717366 30.788700 10.299700
0.805971 21.536100 10.552000
-0.060294 4.219610 11.738200
-0.786891 29.076401 11.615900
-1.136680 39.207802 10.725400
0.834793 12.572600 10.895400
-0.732937 12.676400 10.584000
0.936590 25.305401 11.224800
0.466895 14.820100 10.286500
-0.904841 25.965900 11.344500
0.858866 31.575399 11.558800
0.326603 34.305901 10.029400
0.972329 26.542700 10.992800
0.821927 37.355301 10.341200
0.482731 10.578600 10.274200
-0.346991 7.207570 12.102400
-0.468668 34.176498 11.941800
-0.983666 29.103701 11.128300
-0.091514 18.084499 10.128700
-0.043449 14.318900 10.155600
0.631463 19.705799 10.358500
0.822351 26.252001 11.528100
-0.732102 34.937401 10.264400
-0.664336 29.856199 11.762200
-0.446221 30.898001 10.111600
0.191383 5.585820 10.781700
0.814662 17.105499 11.355500
-0.802862 20.040400 11.452000
0.463119 30.899700 11.912700
-0.048173 4.105180 10.046400
0.353309 26.994801 11.920400
-0.351711 7.256770 10.268000
-0.207348 35.803699 12.046600
-0.746865 38.501598 10.236900
0.908438 31.945000 10.555800
-0.946897 26.475401 11.227000
-0.738544 18.752600 10.504200
0.281721 9.375480 10.002600
0.631640 12.950400 10.448200
-0.930074 29.349701 10.668400
0.332796 33.460499 10.040100
-0.937982 25.114901 11.201100
-0.937582 26.780800 10.746700
0.304497 6.764690 10.110400
-0.601513 24.053900 11.744800
-1.026210 37.553001 11.319500
-0.453480 22.269600 11.833000
-0.672860 10.431900 11.491200
0.598974 20.637800 10.323100
-0.878424 18.730801 11.216100
0.424316 8.854950 11.639900
-0.930944 32.031700 11.423200
-0.907494 25.893200 10.694900
0.666635 10.180600 10.616000
-0.143485 10.218600 11.941100
1.001150 34.073299 11.300900
0.233966 27.262100 10.064600
-0.834769 18.165199 10.699900
-0.113139 35.020100 12.052100
0.822940 32.104401 11.613300
0.225006 35.448101 9.990130
0.923334 35.060001 11.511300
0.721290 16.132401 11.511600
-0.366337 7.911090 11.412300
0.059007 22.378599 11.945500
-0.363868 8.002810 10.090000
0.947972 30.321899 10.688900
-0.434380 37.915600 11.991200
0.276400 24.650000 11.929400
-0.927444 36.198700 11.527300
0.240272 14.230200 11.844400
-0.281498 28.638500 11.966100
-0.966234 27.245501 11.133100
0.953164 36.725201 10.554200
0.901227 36.752800 11.578200
0.626825 12.333200 10.450600
-0.925330 27.889299 10.691100
-0.937629 24.594601 11.168000
0.601428 32.178600 10.194800
0.930904 32.708099 10.592300
0.093714 18.207001 11.903500
0.426004 36.778301 10.047300
-1.005650 35.244301 10.714500
1.049580 38.024799 11.228700
-0.544194 14.482900 10.349500
1.019290 32.931400 11.118700
-0.440040 36.732399 10.053500
-0.664397 31.220800 11.777500
-0.600880 20.010401 10.331700
0.485195 29.598499 10.140300
0.892470 18.616199 11.101700
-0.900810 34.111099 11.540900
-0.289725 34.347198 10.013800
0.326841 23.070601 11.893200
0.863005 26.219801 10.579800
0.941095 37.410500 11.521700
-0.559309 24.685600 11.784300
0.904018 24.848301 10.711100
-0.900149 23.351299 10.736800
-0.292337 22.751301 10.126900
0.276545 20.229401 10.144800
0.473288 30.333799 11.903000
0.626762 13.491400 10.434200
-0.487399 35.624100 10.083600
0.119074 25.722799 11.967900
-0.502010 17.712500 10.281500
0.976758 30.300600 11.262800
0.154418 28.297600 11.986500
-0.330410 25.793301 10.113100
-0.529527 21.260799 11.768500
0.302481 6.743680 11.504100
-1.019200 32.834499 11.112800
-0.465338 25.519199 11.859600
0.628442 34.578899 11.842500
0.365878 7.965960 10.038000
0.268364 20.830400 11.895700
-0.724864 33.316299 10.276800
-0.494251 38.478100 11.971600
-0.609155 13.930700 10.405300
-0.585013 18.614901 11.696200
0.310965 6.832110 12.141300
-0.293968 6.654960 10.097000
-0.812902 11.329200 11.154000
0.254059 6.239030 10.327800
0.029577 10.294900 10.086800
-0.499457 9.365250 10.508900
0.356921 7.556460 11.256600
0.056994 7.565310 9.824920
0.937092 29.351900 11.346000
-0.550903 27.421200 11.821700
-0.110923 9.107110 12.102200
-0.289667 8.434240 12.154500
-0.736186 19.339800 10.492600
-0.817940 37.813400 10.329500
0.694523 33.778702 11.782900
0.413790 8.757770 10.043800
0.651146 17.903900 10.402700
0.062770 32.072899 9.998730
-0.865924 38.866501 11.658100
0.872033 17.651600 10.839800
-0.245527 29.896601 10.042300
-0.391637 28.290600 10.114200
0.895476 19.846399 10.868800
-1.019480 34.678398 10.796300
1.003840 33.359600 10.766300
0.994183 29.859800 10.931100
0.079706 12.504400 10.176100
-0.004671 19.040300 11.922600
0.826177 16.377701 10.720300
-0.046226 13.212100 11.865700
0.746978 19.768900 11.530900
-0.320280 37.792099 9.994050
-0.355134 7.368590 10.877200
-0.592250 9.633930 11.072100
-0.477905 18.020399 11.771800
-0.202079 12.223400 11.836700
0.070162 26.540701 11.981700
-0.046862 16.272200 10.138900
1.021400 32.162102 11.050500
-0.602753 21.528799 10.316000
-0.403539 32.867901 11.956300
0.048097 21.208799 10.094900
0.915460 22.955601 11.223700
0.515847 32.742199 10.122800
0.694813 18.338200 11.578100
-0.862849 16.056499 10.877400
0.907113 19.161501 11.027500
0.325725 32.811501 11.988000
0.049786 27.696301 11.994900
-0.613163 35.231701 11.861400
-1.037090 33.971901 10.977600
0.131873 23.338100 10.086700
-0.458954 9.488330 11.934300
0.345090 16.376301 11.821200
-0.296463 6.680970 10.627700
-0.839292 12.360000 11.087900
0.304495 29.333500 11.963300
0.654169 29.787100 11.769200
-0.164335 16.188700 11.876200
0.742839 15.731000 10.553500
-0.546702 16.656900 10.327500
0.342924 9.894610 11.942600
0.076160 11.577300 11.856900
-0.571417 9.958600 11.713400
0.754159 22.082899 10.475800
-0.994852 33.483700 10.728800
0.290408 13.705900 11.818700
-0.825182 32.619900 11.617900
-1.021400 35.031200 11.244100
-0.825923 27.367599 10.491400
-0.506178 11.539200 11.690300
-0.739767 15.181900 11.473900
0.591654 9.630580 10.864000
-0.422645 8.672200 11.576200
0.285825 23.946699 10.112600
0.649523 33.255199 11.811600
-0.734870 10.456800 10.918500
-0.546599 26.059999 11.809600
-0.526871 23.218399 10.238700
0.225520 37.360401 9.973490
-0.392326 8.421110 10.553400
-0.581591 10.337300 10.421500
1.013120 31.481400 11.067100
-0.255381 22.228100 10.116700
0.671578 23.951099 11.689900
-0.570238 15.974700 10.353100
0.550159 27.673901 11.825200
0.437170 34.874401 10.069900
-0.592341 20.739700 10.316900
-0.140070 37.491402 12.070200
-0.960838 29.613400 11.294800
-0.354722 32.975300 10.053800
0.392903 14.803400 11.786600
-1.069620 38.201199 10.943400
0.836620 13.860500 10.824500
-0.398369 12.118400 10.272000
-0.743686 16.810200 11.492200
0.746815 24.801901 11.605200
0.816911 23.800100 10.532300
-0.976318 28.573700 11.147800
0.555584 11.990600 11.646800
0.688153 27.601200 10.312900
0.491922 16.519100 10.287000
-0.231145 6.000220 10.547300
0.174668 28.982700 10.041200
0.345322 37.677898 12.025800
-0.203921 16.723400 11.875800
-0.499897 33.815701 10.105900
0.946587 34.735901 10.583500
0.379330 8.162730 10.624300
0.818625 11.842900 11.209600
-0.867723 16.579700 10.879300
-0.387036 36.629398 11.998800
-0.126713 19.858601 10.117400
0.592623 21.493900 11.722700
0.496649 9.167450 10.638600
0.254419 37.977798 9.971940
-0.518027 13.331200 10.341900
0.378717 8.433840 11.947100
-0.025279 13.422500 10.161000
-0.428253 9.861300 10.121500
0.780173 15.205700 10.636000
-0.315373 29.257700 11.958000
0.961372 25.863701 10.956300
-0.722933 35.794300 11.783300
-1.011700 31.492300 11.078600
-0.606334 29.511900 10.228500
-0.365284 28.088900 11.926000
0.308936 11.961900 10.235200
-0.165825 25.081301 11.955900
-0.489016 9.098650 11.106600
0.089399 7.988190 12.196600
0.601827 23.108101 10.297500
-0.784463 23.875799 10.488900
0.545843 12.905700 11.663400
0.931816 21.841600 11.023000
0.452760 19.118401 10.228500
-0.634337 19.157499 11.664400
-0.016846 3.766790 11.434200
0.581147 22.625299 11.744300
0.750003 28.199200 11.651100
-0.237291 6.064270 11.202800
0.062693 5.162980 9.971990
0.399000 8.438240 11.236800
-0.826657 15.359100 10.744700
-0.884832 17.158800 10.970300
-1.039650 36.933399 10.799200
-0.628613 11.575100 10.458600
0.830025 32.688301 11.612600
0.073860 19.574900 11.918300
0.362921 7.903340 11.714400
-0.818833 22.356899 11.467500
0.115211 24.048901 11.953200
-0.840742 11.832600 10.991800
-0.719969 15.873300 11.509600
-0.917777 22.057899 10.886900
-0.767362 30.465599 11.661800
0.691390 17.192801 10.465400
0.943122 24.322701 11.107600
-0.971745 33.574001 11.360400
-0.588972 13.277700 11.634400
0.777279 14.366500 11.383300
-0.186697 5.536980 11.770900
1.065910 37.028198 10.992400
0.682135 20.415100 11.624900
0.714420 19.219000 11.565300
0.176660 10.759000 11.883700
-0.701924 12.762600 11.488900
0.879889 29.424101 10.545500
-0.861068 34.339699 10.435300
-0.148515 34.926601 9.984660
-1.054440 36.266102 10.955800
-0.762847 28.534401 11.639300
-0.911656 38.289902 11.586300
-0.390039 8.669920 10.073800
0.528142 22.033300 11.778200
0.357430 7.602350 10.622500
0.761275 18.729000 10.534200
0.806677 14.503400 10.715900
-0.486663 20.422001 11.791900
0.741074 17.642500 11.507700
0.846029 25.492001 10.555900
-0.833050 21.573000 11.414800
0.282177 12.430500 11.810300
-0.154840 10.919300 10.156800
0.313555 22.391399 10.139200
-0.841712 25.299601 10.550000
0.230804 5.996670 11.440600
0.004251 33.867100 9.975040
-0.179511 33.349899 12.028600
0.813116 36.085899 11.683500
-0.098431 16.864300 10.140400
0.799044 11.545800 10.764700
-0.233755 18.668501 10.142200
-1.076370 38.771198 11.074000
-0.223441 20.390900 10.125400
-0.332916 15.232800 11.815400
0.086707 4.494880 11.315700
0.410536 18.724800 11.816500
0.847362 24.331200 10.586400
0.063390 4.251870 10.847500
