ply
format ascii 1.0
element vertex 1606
property float x
property float y
property float z
end_header
-0.127920 -0.043632 -0.000399
-0.129140 -0.041170 -0.000850
-0.125760 -0.040763 -0.000881
-0.125430 -0.039463 0.000117
-0.125420 -0.042384 0.000116
-0.127230 -0.039134 0.000134
-0.125750 -0.043352 0.000119
-0.125670 -0.039001 -0.000881
-0.126380 -0.039387 0.000126
-0.128060 -0.040412 0.000142
-0.129300 -0.040717 0.000153
-0.128790 -0.043427 -0.000854
-0.126940 -0.043626 -0.000766
-0.125020 -0.042280 -0.000889
-0.127780 -0.042217 -0.000863
-0.124770 -0.040088 0.000111
-0.128100 -0.042658 0.000141
-0.126220 -0.039822 -0.000876
-0.129060 -0.039433 -0.000850
-0.125580 -0.040516 0.000118
-0.129400 -0.043640 -0.000191
-0.127010 -0.041804 0.000131
-0.124890 -0.040737 -0.000889
-0.127250 -0.040997 -0.000867
-0.127290 -0.040816 0.000134
-0.125900 -0.042768 -0.000881
-0.127410 -0.043206 0.000134
-0.128080 -0.041239 -0.000860
-0.128850 -0.039657 0.000149
-0.126820 -0.042158 -0.000872
-0.126480 -0.041379 -0.000875
-0.129320 -0.038686 0.000154
-0.120610 -0.041296 0.000071
-0.122340 -0.040143 -0.000913
-0.124470 -0.039134 0.000108
-0.123220 -0.040032 -0.000905
-0.122150 -0.041365 0.000086
-0.122180 -0.039788 0.000087
-0.120230 -0.040231 -0.000933
-0.119830 -0.039266 0.000065
-0.123720 -0.042202 0.000100
-0.120360 -0.043591 -0.000869
-0.120320 -0.042330 -0.000933
-0.122840 -0.043605 -0.000248
-0.123230 -0.043181 -0.000906
-0.121080 -0.040776 -0.000925
-0.124660 -0.039242 -0.000891
-0.124430 -0.041745 0.000107
-0.122100 -0.043600 -0.000877
-0.123920 -0.040008 0.000103
-0.123920 -0.043450 0.000101
-0.122690 -0.041555 -0.000910
-0.121440 -0.043597 0.000045
-0.123610 -0.041087 -0.000902
-0.120250 -0.043493 0.000067
-0.122490 -0.042185 0.000089
-0.121560 -0.040701 0.000080
-0.124050 -0.040958 0.000104
-0.124340 -0.041700 -0.000895
-0.121720 -0.041425 -0.000919
-0.123760 -0.042322 -0.000901
-0.121390 -0.042645 -0.000923
-0.122110 -0.038981 -0.000915
-0.124560 -0.042675 0.000108
-0.124260 -0.043300 -0.000896
-0.121080 -0.038910 0.000077
-0.121510 -0.039618 -0.000921
-0.120820 -0.042592 0.000073
-0.122060 -0.038923 0.000086
-0.120360 -0.040213 0.000069
-0.123130 -0.041345 0.000095
-0.123180 -0.039394 0.000096
-0.123360 -0.038991 -0.000903
-0.119970 -0.041900 0.000065
-0.122660 -0.042461 -0.000911
-0.120590 -0.038739 -0.000929
-0.121210 -0.039882 0.000077
-0.124370 -0.040066 -0.000894
-0.121390 -0.041930 0.000078
-0.122780 -0.040445 0.000092
-0.116200 -0.041028 -0.000971
-0.115430 -0.040781 0.000023
-0.115170 -0.039624 0.000021
-0.115000 -0.041916 0.000018
-0.119400 -0.040769 0.000060
-0.116170 -0.039780 -0.000971
-0.117050 -0.041210 -0.000963
-0.117260 -0.043575 -0.000949
-0.115180 -0.039809 -0.000980
-0.116550 -0.039536 0.000034
-0.116970 -0.042603 0.000036
-0.116620 -0.041266 0.000034
-0.118150 -0.043580 -0.000116
-0.116340 -0.043570 -0.000132
-0.118250 -0.039903 0.000050
-0.116590 -0.040403 0.000034
-0.117030 -0.039962 -0.000963
-0.115070 -0.042782 0.000019
-0.116550 -0.043031 -0.000969
-0.119230 -0.040340 -0.000942
-0.117050 -0.039000 -0.000962
-0.115540 -0.043565 -0.000916
-0.117400 -0.041707 0.000041
-0.119640 -0.038918 -0.000938
-0.118140 -0.041042 0.000048
-0.115880 -0.042335 0.000026
-0.117870 -0.040694 -0.000955
-0.119360 -0.043479 0.000059
-0.118670 -0.039464 -0.000947
-0.118030 -0.042488 -0.000955
-0.115280 -0.038965 -0.000979
-0.118680 -0.041782 -0.000948
-0.118890 -0.039221 0.000056
-0.117270 -0.043575 -0.000019
-0.118700 -0.042621 0.000053
-0.118850 -0.042764 -0.000947
-0.115760 -0.042589 -0.000976
-0.119590 -0.041287 -0.000939
-0.117080 -0.042157 -0.000963
-0.115270 -0.041724 -0.000980
-0.117370 -0.039167 0.000042
-0.118960 -0.041553 0.000056
-0.117500 -0.040479 0.000042
-0.119060 -0.043584 -0.000801
-0.110330 -0.040382 -0.000025
-0.110960 -0.041670 -0.001021
-0.111730 -0.040602 -0.001013
-0.113240 -0.039102 0.000003
-0.113360 -0.043554 -0.000858
-0.110310 -0.039770 -0.001026
-0.114350 -0.040214 0.000013
-0.111540 -0.043544 -0.000954
-0.110430 -0.040861 -0.001025
-0.111710 -0.042457 -0.001014
-0.112070 -0.039114 -0.001009
-0.111680 -0.042523 -0.000013
-0.112960 -0.040059 -0.001001
-0.114460 -0.040736 -0.000987
-0.112460 -0.043549 -0.000900
-0.110410 -0.043538 -0.000969
-0.111800 -0.043495 -0.000013
-0.114670 -0.043228 -0.000986
-0.114340 -0.039558 -0.000988
-0.112920 -0.041809 -0.000001
-0.111040 -0.038853 -0.000018
-0.113330 -0.040276 0.000003
-0.112110 -0.040947 -0.000009
-0.112310 -0.039885 -0.000006
-0.114130 -0.042974 0.000010
-0.113000 -0.042769 -0.001002
-0.110670 -0.042663 -0.000023
-0.110000 -0.041235 -0.000028
-0.112830 -0.043465 -0.000003
-0.113670 -0.041270 -0.000995
-0.111190 -0.040192 -0.000017
-0.110940 -0.041474 -0.000020
-0.114020 -0.042563 -0.000992
-0.112340 -0.041702 -0.001008
-0.114270 -0.041079 0.000012
-0.109820 -0.039323 -0.000029
-0.110650 -0.042717 -0.001024
-0.111360 -0.039709 -0.001016
-0.110780 -0.043540 -0.000171
-0.113810 -0.041792 0.000007
-0.113440 -0.039353 -0.000996
-0.112610 -0.042609 -0.000004
-0.107610 -0.042041 -0.000051
-0.108050 -0.040007 -0.000046
-0.107710 -0.043249 -0.000051
-0.106840 -0.039853 -0.001059
-0.105490 -0.043512 -0.000622
-0.104820 -0.038920 -0.000076
-0.109660 -0.043534 -0.000137
-0.105870 -0.041172 -0.000067
-0.108550 -0.043528 -0.001015
-0.109310 -0.040262 -0.001036
-0.105910 -0.040477 -0.001068
-0.105940 -0.042171 -0.001068
-0.107140 -0.042156 -0.001057
-0.106590 -0.043517 -0.000940
-0.108060 -0.042801 -0.001048
-0.107180 -0.038798 -0.001055
-0.104950 -0.040725 -0.000076
-0.109670 -0.042020 -0.000032
-0.105120 -0.040919 -0.001075
-0.108250 -0.039472 -0.001045
-0.108700 -0.041863 -0.000041
-0.109560 -0.042840 -0.001034
-0.107590 -0.043523 -0.000877
-0.109130 -0.038937 -0.001037
-0.106950 -0.040687 -0.000057
-0.108910 -0.039114 -0.000038
-0.106750 -0.041948 -0.000059
-0.105640 -0.038943 -0.001070
-0.105400 -0.039682 -0.000071
-0.107120 -0.041172 -0.001057
-0.108670 -0.042819 -0.000042
-0.105300 -0.042020 -0.000073
-0.108190 -0.040874 -0.000045
-0.106340 -0.039351 -0.000062
-0.109290 -0.041855 -0.001036
-0.108620 -0.040887 -0.001042
-0.105000 -0.039952 -0.001076
-0.107830 -0.040561 -0.001050
-0.108270 -0.041958 -0.001046
-0.106530 -0.043336 -0.000062
-0.109090 -0.040732 -0.000037
-0.106050 -0.042639 -0.000066
-0.104670 -0.039163 -0.001079
-0.103250 -0.041364 -0.001093
-0.101080 -0.043477 -0.001114
-0.101150 -0.043240 -0.000113
-0.102130 -0.042119 -0.001104
-0.103290 -0.042529 -0.001093
-0.104630 -0.043162 -0.000080
-0.103640 -0.042948 -0.000089
-0.101560 -0.040665 -0.001109
-0.099966 -0.041554 -0.000123
-0.103770 -0.043502 -0.000729
-0.103880 -0.039039 -0.000085
-0.100480 -0.039261 -0.000117
-0.104170 -0.042500 -0.001085
-0.101870 -0.041340 -0.000105
-0.103740 -0.040539 -0.001088
-0.100650 -0.040998 -0.000116
-0.100770 -0.039997 -0.001116
-0.102740 -0.039343 -0.000096
-0.102060 -0.039529 -0.001103
-0.104440 -0.042203 -0.000081
-0.101070 -0.039024 -0.001113
-0.104300 -0.041355 -0.001083
-0.103600 -0.040915 -0.000089
-0.102030 -0.042891 -0.000104
-0.101580 -0.039549 -0.000107
-0.104220 -0.039903 -0.000082
-0.102180 -0.043143 -0.001104
-0.102640 -0.040859 -0.000097
-0.100940 -0.041506 -0.001115
-0.102440 -0.040437 -0.001100
-0.099992 -0.041200 -0.001124
-0.101630 -0.040514 -0.000107
-0.103530 -0.039028 -0.001089
-0.100030 -0.043483 -0.000276
-0.102960 -0.039694 -0.001095
-0.103120 -0.040147 -0.000093
-0.103090 -0.041706 -0.000094
-0.102970 -0.043498 -0.000141
-0.100600 -0.042340 -0.000117
-0.104630 -0.043409 -0.001081
-0.100710 -0.042390 -0.001117
-0.100050 -0.043228 -0.001124
-0.100640 -0.040095 -0.000116
-0.103010 -0.043359 -0.001096
-0.098884 -0.042023 -0.001134
-0.097697 -0.042596 -0.001146
-0.095679 -0.039442 -0.001163
-0.099731 -0.042414 -0.001126
-0.099199 -0.040872 -0.001131
-0.098270 -0.043473 -0.000551
-0.096766 -0.040434 -0.001154
-0.096578 -0.043464 -0.001039
-0.098959 -0.038873 -0.001132
-0.094960 -0.043455 -0.000893
-0.099167 -0.043478 -0.000383
-0.094965 -0.042280 -0.001171
-0.097064 -0.040455 -0.000150
-0.099489 -0.039599 -0.001128
-0.098006 -0.039845 -0.000141
-0.095891 -0.041414 -0.001162
-0.095517 -0.041155 -0.000165
-0.095149 -0.040590 -0.001169
-0.097683 -0.039214 -0.001144
-0.099472 -0.040026 -0.000127
-0.097567 -0.043466 -0.001147
-0.096951 -0.039229 -0.000150
-0.099164 -0.040965 -0.000130
-0.098840 -0.043168 -0.001135
-0.095827 -0.042499 -0.000162
-0.096926 -0.042964 -0.000152
-0.097903 -0.041521 -0.001143
-0.098251 -0.040298 -0.001140
-0.096679 -0.042535 -0.001155
-0.097843 -0.041813 -0.000143
-0.099691 -0.042565 -0.000126
-0.098750 -0.042025 -0.000135
-0.097798 -0.042807 -0.000144
-0.096027 -0.038874 -0.000159
-0.096666 -0.042131 -0.000154
-0.095614 -0.042933 -0.001166
-0.095837 -0.040115 -0.000161
-0.097813 -0.040863 -0.000143
-0.096829 -0.041289 -0.000152
-0.096897 -0.041666 -0.001153
-0.094955 -0.040334 -0.000170
-0.094952 -0.039029 -0.000169
-0.098863 -0.039379 -0.000132
-0.095645 -0.043397 -0.000164
-0.092601 -0.041509 -0.001193
-0.092744 -0.043443 -0.001163
-0.090138 -0.039530 -0.001215
-0.094663 -0.041481 -0.000173
-0.093273 -0.043446 -0.000348
-0.093290 -0.040209 -0.001186
-0.090237 -0.043430 -0.001144
-0.094383 -0.041182 -0.001176
-0.091659 -0.039953 -0.000200
-0.092155 -0.039879 -0.001197
-0.090048 -0.040582 -0.001217
-0.093180 -0.039189 -0.000186
-0.093497 -0.041409 -0.000184
-0.091969 -0.042401 -0.000198
-0.091469 -0.040489 -0.001203
-0.090788 -0.043404 -0.000210
-0.091908 -0.039051 -0.000198
-0.091644 -0.043438 -0.000260
-0.094692 -0.039741 -0.001173
-0.094747 -0.042898 -0.000173
-0.093860 -0.042701 -0.001182
-0.091561 -0.042671 -0.001203
-0.093556 -0.041593 -0.001184
-0.091277 -0.039264 -0.001205
-0.093173 -0.038777 -0.001187
-0.090771 -0.039156 -0.000208
-0.093879 -0.042633 -0.000181
-0.090900 -0.042049 -0.001209
-0.092652 -0.040016 -0.000191
-0.090792 -0.040946 -0.000209
-0.090565 -0.042048 -0.000212
-0.092548 -0.042583 -0.001194
-0.093864 -0.040256 -0.000180
-0.092875 -0.042683 -0.000190
-0.094078 -0.039128 -0.000177
-0.092252 -0.041304 -0.000195
-0.091515 -0.041459 -0.001203
-0.093802 -0.039475 -0.001181
-0.089688 -0.039958 -0.000219
-0.088898 -0.039770 -0.001227
-0.085588 -0.042916 -0.000259
-0.086919 -0.041595 -0.001247
-0.084989 -0.043402 -0.001197
-0.088605 -0.039666 -0.000229
-0.089578 -0.041791 -0.000221
-0.086740 -0.040720 -0.001248
-0.089307 -0.038965 -0.001223
-0.087201 -0.039241 -0.001243
-0.085682 -0.041371 -0.001258
-0.086432 -0.042821 -0.000251
-0.087685 -0.042560 -0.000239
-0.084751 -0.040004 -0.001266
-0.088163 -0.040472 -0.001234
-0.088770 -0.041200 -0.001229
-0.085656 -0.039428 -0.001258
-0.089506 -0.043342 -0.000222
-0.088113 -0.041578 -0.000234
-0.086702 -0.039606 -0.000247
-0.086216 -0.043336 -0.001254
-0.088743 -0.042845 -0.001230
-0.087156 -0.043413 -0.001018
-0.088442 -0.043380 -0.000232
-0.085931 -0.040433 -0.001255
-0.086545 -0.038683 -0.001249
-0.085957 -0.038988 -0.000254
-0.085383 -0.041810 -0.000260
-0.087360 -0.041136 -0.000241
-0.085223 -0.040936 -0.000261
-0.088447 -0.040603 -0.000231
-0.087891 -0.038748 -0.000235
-0.087025 -0.042022 -0.000245
-0.087614 -0.040074 -0.000238
-0.089579 -0.041554 -0.001222
-0.085843 -0.042386 -0.001257
-0.088281 -0.038928 -0.001233
-0.086256 -0.041081 -0.000252
-0.087907 -0.042256 -0.001238
-0.084818 -0.040054 -0.000265
-0.089635 -0.040857 -0.000220
-0.085705 -0.040137 -0.000256
-0.088658 -0.042345 -0.000230
-0.080071 -0.042468 -0.000310
-0.083163 -0.038875 -0.000280
-0.083180 -0.041529 -0.000281
-0.084168 -0.038783 -0.001271
-0.082676 -0.040111 -0.000285
-0.083629 -0.040476 -0.001277
-0.083346 -0.042109 -0.001280
-0.081886 -0.043012 -0.001294
-0.083854 -0.043267 -0.000275
-0.083070 -0.039084 -0.001282
-0.082716 -0.042626 -0.000286
-0.080261 -0.043376 -0.001285
-0.082224 -0.041620 -0.001291
-0.084580 -0.042567 -0.001269
-0.084669 -0.039130 -0.000266
-0.081411 -0.042003 -0.001299
-0.080947 -0.041118 -0.000302
-0.082001 -0.041610 -0.000292
-0.081098 -0.039691 -0.000300
-0.083701 -0.043292 -0.001278
-0.084057 -0.041269 -0.001273
-0.081802 -0.040758 -0.000293
-0.080038 -0.040396 -0.000310
-0.079999 -0.042471 -0.001312
-0.084141 -0.041208 -0.000272
-0.081621 -0.042384 -0.000296
-0.082089 -0.039945 -0.001291
-0.083884 -0.039952 -0.000273
-0.079873 -0.041334 -0.000312
-0.081118 -0.040665 -0.001301
-0.079787 -0.039732 -0.001313
-0.081925 -0.043177 -0.000293
-0.080226 -0.040669 -0.001309
-0.082852 -0.043391 -0.000734
-0.080904 -0.042687 -0.001304
-0.080536 -0.041634 -0.001307
-0.082628 -0.040789 -0.001287
-0.084347 -0.042300 -0.000270
-0.080993 -0.039576 -0.001302
-0.084742 -0.043285 -0.000267
-0.081116 -0.043381 -0.000551
-0.081971 -0.039543 -0.000291
-0.080206 -0.043362 -0.000309
-0.076027 -0.039461 -0.000347
-0.079368 -0.043039 -0.000317
-0.078131 -0.042086 -0.000328
-0.075751 -0.043352 -0.000794
-0.077063 -0.043359 -0.001028
-0.079536 -0.041299 -0.001316
-0.076841 -0.041319 -0.000340
-0.075586 -0.040038 -0.001353
-0.079093 -0.042016 -0.000319
-0.076871 -0.040910 -0.001341
-0.079304 -0.039489 -0.000316
-0.074770 -0.039404 -0.000359
-0.076012 -0.038705 -0.001348
-0.078853 -0.040693 -0.000321
-0.077955 -0.043364 -0.001173
-0.077614 -0.042216 -0.001334
-0.078380 -0.041681 -0.001327
-0.077892 -0.040832 -0.001331
-0.076784 -0.042910 -0.000341
-0.075104 -0.038838 -0.001356
-0.078495 -0.043223 -0.000325
-0.074863 -0.042153 -0.001360
-0.077077 -0.039000 -0.001338
-0.075097 -0.040233 -0.000356
-0.077964 -0.039596 -0.001330
-0.075236 -0.041128 -0.001356
-0.076216 -0.041581 -0.001347
-0.078787 -0.039805 -0.001322
-0.078969 -0.043369 -0.001261
-0.075771 -0.042322 -0.001352
-0.076559 -0.042728 -0.001344
-0.076151 -0.042159 -0.000347
-0.079137 -0.042198 -0.001320
-0.077281 -0.042177 -0.000336
-0.075124 -0.041575 -0.000356
-0.075372 -0.042502 -0.000354
-0.078199 -0.039610 -0.000327
-0.079311 -0.039030 -0.001317
-0.076793 -0.038972 -0.000340
-0.077457 -0.040155 -0.000334
-0.076342 -0.039533 -0.001345
-0.076346 -0.040331 -0.000344
-0.077601 -0.043247 -0.000334
-0.077812 -0.041151 -0.000331
-0.074316 -0.040628 -0.000364
-0.071707 -0.042400 -0.001390
-0.070810 -0.041906 -0.001398
-0.071787 -0.039940 -0.001388
-0.069985 -0.041503 -0.000405
-0.073299 -0.039235 -0.001374
-0.072458 -0.038988 -0.001382
-0.072105 -0.041269 -0.001386
-0.073891 -0.040266 -0.001368
-0.070805 -0.042507 -0.000397
-0.073623 -0.041716 -0.000371
-0.071263 -0.039141 -0.001393
-0.072816 -0.043018 -0.000379
-0.071158 -0.041655 -0.000394
-0.072167 -0.040626 -0.000384
-0.070119 -0.038746 -0.000402
-0.073196 -0.042804 -0.001376
-0.073204 -0.040566 -0.000374
-0.072085 -0.041712 -0.000385
-0.073387 -0.041120 -0.001374
-0.069877 -0.043321 -0.000483
-0.071188 -0.043328 -0.000819
-0.070409 -0.039246 -0.001401
-0.070639 -0.040775 -0.000398
-0.073812 -0.043342 -0.000650
-0.074416 -0.043345 -0.001341
-0.070970 -0.040817 -0.001396
-0.074655 -0.042969 -0.000361
-0.070202 -0.043323 -0.001368
-0.072403 -0.038700 -0.000381
-0.072250 -0.039704 -0.000383
-0.072204 -0.043333 -0.001249
-0.073571 -0.039755 -0.000370
-0.069937 -0.039821 -0.000404
-0.072518 -0.040481 -0.001382
-0.070872 -0.039833 -0.000396
-0.072666 -0.041975 -0.001381
-0.071844 -0.042578 -0.000388
-0.072866 -0.042131 -0.000378
-0.074743 -0.039656 -0.001360
-0.069982 -0.042473 -0.001406
-0.070220 -0.040231 -0.001403
-0.073938 -0.042227 -0.001369
-0.074044 -0.038896 -0.000365
-0.074193 -0.041395 -0.001366
-0.068507 -0.041531 -0.001420
-0.067725 -0.042024 -0.001427
-0.067444 -0.043305 -0.001430
-0.065929 -0.040270 -0.000442
-0.064919 -0.039469 -0.000451
-0.065313 -0.041879 -0.001450
-0.068576 -0.042684 -0.001419
-0.066363 -0.043302 -0.001419
-0.066843 -0.039879 -0.000434
-0.066047 -0.043301 -0.000461
-0.067786 -0.040184 -0.000425
-0.069173 -0.039437 -0.000411
-0.065177 -0.043296 -0.000756
-0.068933 -0.041523 -0.000415
-0.067800 -0.042650 -0.000426
-0.066479 -0.041955 -0.000438
-0.068719 -0.039096 -0.001417
-0.065643 -0.042536 -0.000446
-0.066308 -0.039031 -0.000438
-0.065389 -0.041580 -0.000448
-0.067079 -0.043229 -0.000433
-0.067931 -0.040315 -0.001425
-0.068081 -0.039259 -0.000422
-0.068646 -0.040555 -0.000417
-0.069419 -0.041204 -0.001411
-0.066735 -0.040271 -0.001436
-0.068853 -0.042410 -0.000416
-0.069227 -0.040132 -0.001412
-0.067504 -0.041220 -0.000428
-0.067650 -0.041126 -0.001428
-0.066759 -0.041259 -0.001436
-0.065975 -0.042543 -0.001444
-0.064771 -0.042927 -0.001455
-0.068163 -0.043312 -0.000823
-0.066213 -0.041072 -0.000440
-0.066013 -0.040816 -0.001443
-0.066797 -0.042111 -0.001436
-0.065691 -0.039993 -0.001445
-0.069565 -0.040592 -0.000408
-0.065012 -0.040669 -0.001452
-0.064835 -0.039033 -0.001453
-0.066797 -0.039000 -0.001435
-0.067712 -0.039079 -0.001426
-0.069035 -0.043317 -0.000720
-0.062416 -0.043281 -0.001070
-0.060332 -0.040558 -0.001496
-0.060376 -0.042438 -0.001496
-0.064260 -0.041201 -0.001459
-0.060868 -0.040869 -0.000490
-0.063656 -0.038961 -0.000463
-0.061262 -0.040439 -0.001487
-0.060851 -0.038760 -0.000489
-0.063856 -0.043289 -0.001144
-0.061675 -0.039012 -0.000482
-0.061325 -0.042090 -0.001487
-0.062231 -0.040470 -0.000477
-0.063784 -0.040164 -0.000462
-0.064436 -0.040891 -0.000457
-0.061518 -0.043276 -0.001113
-0.060588 -0.043271 -0.000649
-0.061501 -0.039450 -0.001485
-0.063665 -0.041810 -0.000464
-0.064217 -0.042944 -0.000460
-0.063609 -0.042070 -0.001466
-0.060278 -0.039627 -0.001496
-0.063140 -0.043096 -0.000470
-0.062641 -0.039218 -0.000473
-0.064525 -0.041737 -0.000456
-0.062570 -0.041994 -0.001476
-0.062498 -0.041284 -0.000475
-0.061187 -0.042611 -0.000488
-0.060755 -0.039695 -0.000491
-0.063534 -0.039345 -0.001465
-0.062231 -0.038706 -0.001477
-0.059881 -0.040048 -0.000499
-0.061692 -0.041910 -0.000483
-0.062930 -0.040004 -0.001472
-0.060385 -0.041547 -0.001496
-0.062523 -0.042261 -0.000475
-0.059934 -0.041120 -0.000499
-0.064370 -0.040016 -0.001458
-0.062974 -0.041046 -0.001472
-0.060754 -0.041727 -0.000492
-0.062116 -0.040613 -0.001479
-0.060145 -0.043269 -0.001404
-0.058513 -0.043260 -0.001403
-0.057193 -0.042372 -0.001526
-0.054982 -0.042395 -0.000321
-0.059480 -0.042661 -0.001505
-0.057963 -0.040323 -0.001518
-0.059733 -0.042357 -0.000501
-0.055748 -0.039403 -0.001539
-0.058751 -0.039447 -0.000509
-0.057043 -0.043252 -0.001489
-0.055539 -0.043244 -0.001004
-0.057887 -0.043257 -0.000656
-0.056071 -0.042826 -0.001537
-0.055557 -0.040430 -0.000421
-0.057716 -0.039404 -0.001520
-0.059439 -0.039437 -0.001504
-0.059466 -0.038896 -0.000503
-0.057591 -0.042310 -0.000522
-0.057171 -0.041468 -0.001526
-0.056448 -0.043225 -0.000509
-0.058140 -0.040726 -0.000516
-0.056449 -0.040568 -0.001533
-0.058875 -0.041936 -0.000509
-0.057725 -0.041464 -0.000520
-0.056949 -0.040881 -0.000527
-0.058478 -0.042352 -0.001514
-0.059227 -0.041370 -0.001507
-0.057592 -0.039079 -0.000520
-0.058231 -0.041488 -0.001516
-0.057806 -0.039932 -0.000519
-0.056817 -0.039244 -0.001529
-0.059495 -0.040419 -0.001504
-0.056225 -0.041916 -0.001535
-0.059154 -0.040560 -0.000506
-0.059489 -0.043266 -0.000744
-0.057151 -0.040065 -0.001526
-0.056357 -0.041487 -0.000504
-0.056263 -0.039844 -0.000499
-0.055855 -0.042404 -0.000464
-0.145600 -0.034965 -0.000623
-0.145530 -0.035454 0.000161
-0.145370 -0.036737 -0.000307
-0.145160 -0.037662 -0.000698
-0.145260 -0.035863 -0.000696
-0.145640 -0.034580 0.000225
-0.145080 -0.037786 0.000303
-0.141370 -0.036832 0.000268
-0.140830 -0.035455 0.000264
-0.142560 -0.037852 0.000279
-0.142720 -0.038367 -0.000721
-0.141980 -0.034696 0.000275
-0.144000 -0.037176 0.000293
-0.140120 -0.034753 -0.000744
-0.143940 -0.038117 -0.000709
-0.141170 -0.038388 -0.000735
-0.141020 -0.034699 -0.000735
-0.142510 -0.033718 0.000280
-0.142750 -0.035653 0.000282
-0.142190 -0.035082 -0.000724
-0.143380 -0.034494 -0.000713
-0.142400 -0.036615 0.000278
-0.139950 -0.034558 0.000256
-0.140370 -0.035664 -0.000742
-0.141740 -0.035790 0.000272
-0.143510 -0.033720 0.000290
-0.141970 -0.037858 -0.000728
-0.144510 -0.034632 -0.000702
-0.141620 -0.036814 -0.000730
-0.142480 -0.036868 -0.000722
-0.143510 -0.034650 0.000289
-0.140680 -0.037384 0.000262
-0.144430 -0.034264 0.000298
-0.143490 -0.036964 -0.000713
-0.140590 -0.037262 -0.000740
-0.142260 -0.036026 -0.000724
-0.143720 -0.035684 0.000291
-0.141560 -0.038341 0.000269
-0.143390 -0.038292 0.000287
-0.144500 -0.037126 -0.000704
-0.140840 -0.034234 0.000264
-0.144390 -0.036281 0.000297
-0.143690 -0.035672 -0.000711
-0.140150 -0.038070 -0.000745
-0.140000 -0.036630 0.000255
-0.141500 -0.035627 -0.000731
-0.142340 -0.034128 -0.000723
-0.140000 -0.036467 -0.000746
-0.144610 -0.035094 0.000299
-0.141240 -0.033789 -0.000733
-0.135560 -0.035428 0.000214
-0.139150 -0.035571 -0.000753
-0.139440 -0.034043 -0.000750
-0.138200 -0.037614 0.000238
-0.136640 -0.038291 -0.000778
-0.136150 -0.036587 -0.000782
-0.138410 -0.036189 0.000241
-0.137200 -0.034405 0.000230
-0.138520 -0.034972 -0.000759
-0.136880 -0.035302 0.000227
-0.136630 -0.037504 0.000223
-0.135120 -0.036692 -0.000791
-0.137740 -0.035444 0.000235
-0.137340 -0.037654 -0.000771
-0.135400 -0.038291 -0.000790
-0.135780 -0.034496 -0.000784
-0.137190 -0.035304 -0.000772
-0.135650 -0.036476 0.000215
-0.137350 -0.036460 -0.000770
-0.138670 -0.034224 0.000244
-0.134980 -0.037548 0.000208
-0.135440 -0.033977 0.000214
-0.136080 -0.035476 -0.000782
-0.139060 -0.037614 -0.000755
-0.135930 -0.037444 -0.000784
-0.139180 -0.037193 0.000247
-0.138590 -0.036841 -0.000759
-0.138080 -0.035849 -0.000763
-0.138970 -0.035127 0.000246
-0.137430 -0.036942 0.000231
-0.137620 -0.034469 -0.000767
-0.139410 -0.038074 0.000249
-0.136890 -0.036257 0.000226
-0.136170 -0.034645 0.000220
-0.135850 -0.038341 0.000216
-0.138520 -0.034099 -0.000758
-0.136740 -0.034312 -0.000775
-0.139740 -0.035643 0.000253
-0.138410 -0.038368 -0.000761
-0.134900 -0.034927 -0.000793
-0.130450 -0.036970 -0.000836
-0.133950 -0.038155 -0.000803
-0.131470 -0.037629 -0.000826
-0.134490 -0.036814 0.000204
-0.131730 -0.038435 -0.000824
-0.134560 -0.035477 0.000205
-0.131100 -0.034045 0.000173
-0.134690 -0.034450 0.000206
-0.132650 -0.037007 0.000186
-0.130890 -0.036801 0.000170
-0.133100 -0.038245 0.000190
-0.130600 -0.037862 -0.000835
-0.133210 -0.034423 0.000193
-0.133990 -0.037800 0.000198
-0.132580 -0.037374 -0.000816
-0.132070 -0.035272 0.000181
-0.134220 -0.034083 -0.000799
-0.134090 -0.035746 -0.000801
-0.129780 -0.037606 0.000159
-0.131560 -0.034910 -0.000824
-0.134140 -0.033699 0.000202
-0.132950 -0.038496 -0.000813
-0.131620 -0.034020 -0.000823
-0.130460 -0.038131 0.000165
-0.133000 -0.035910 0.000190
-0.134250 -0.036978 -0.000800
-0.132860 -0.034796 -0.000812
-0.132150 -0.036154 0.000182
-0.132800 -0.035689 -0.000813
-0.131040 -0.035488 0.000172
-0.131910 -0.038668 0.000179
-0.133720 -0.034880 -0.000804
-0.130130 -0.034676 0.000163
-0.130180 -0.035542 0.000164
-0.132000 -0.036554 -0.000821
-0.133320 -0.034000 -0.000807
-0.131740 -0.037758 0.000177
-0.131950 -0.034348 0.000181
-0.129760 -0.037960 -0.000842
-0.131020 -0.035908 -0.000830
-0.130310 -0.034537 -0.000836
-0.130100 -0.035634 -0.000838
-0.133720 -0.035110 0.000197
-0.133510 -0.037086 0.000194
-0.133260 -0.036736 -0.000809
-0.133890 -0.036018 0.000198
-0.124830 -0.036549 0.000113
-0.129660 -0.036300 0.000158
-0.126870 -0.035089 0.000133
-0.129460 -0.033683 0.000158
-0.128600 -0.037175 -0.000853
-0.128530 -0.035855 -0.000853
-0.124820 -0.038241 -0.000889
-0.125210 -0.036908 -0.000885
-0.126490 -0.038457 0.000128
-0.125960 -0.037028 0.000123
-0.124760 -0.037995 0.000112
-0.129390 -0.034490 -0.000844
-0.126910 -0.037037 -0.000869
-0.125440 -0.038545 0.000118
-0.125730 -0.037976 -0.000880
-0.127740 -0.037838 0.000140
-0.128080 -0.035340 0.000144
-0.128700 -0.038587 -0.000853
-0.126280 -0.036091 0.000127
-0.124880 -0.035644 0.000114
-0.128430 -0.038559 0.000146
-0.127190 -0.036459 0.000135
-0.126440 -0.038639 -0.000874
-0.126300 -0.034961 -0.000874
-0.127010 -0.034214 0.000134
-0.125780 -0.035007 0.000122
-0.127590 -0.034428 -0.000861
-0.126870 -0.037667 0.000132
-0.127600 -0.035307 -0.000862
-0.125510 -0.035541 -0.000881
-0.129350 -0.036219 -0.000846
-0.128340 -0.037066 0.000146
-0.125380 -0.033829 0.000119
-0.126110 -0.034083 -0.000875
-0.127670 -0.037441 -0.000862
-0.129040 -0.034763 0.000153
-0.128470 -0.034668 -0.000853
-0.127630 -0.038640 -0.000863
-0.128940 -0.035712 0.000152
-0.128070 -0.034329 0.000144
-0.125390 -0.034603 -0.000882
-0.127030 -0.036131 -0.000867
-0.128090 -0.036258 0.000144
-0.126000 -0.036372 -0.000877
-0.129600 -0.037033 -0.000844
-0.121620 -0.038029 0.000082
-0.120930 -0.035948 0.000076
-0.122230 -0.037957 -0.000913
-0.120740 -0.036900 -0.000927
-0.121690 -0.036800 -0.000918
-0.124250 -0.035050 -0.000893
-0.122910 -0.036345 0.000095
-0.121510 -0.033853 0.000083
-0.123000 -0.036703 -0.000905
-0.123600 -0.037354 0.000101
-0.121320 -0.038167 -0.000922
-0.121330 -0.036925 0.000080
-0.123650 -0.035831 0.000102
-0.119830 -0.034715 -0.000934
-0.123610 -0.037368 -0.000900
-0.120760 -0.035050 0.000075
-0.121880 -0.036095 0.000085
-0.120920 -0.035904 -0.000925
-0.124650 -0.033955 -0.000889
-0.121030 -0.034002 -0.000923
-0.120190 -0.034131 0.000070
-0.119940 -0.037364 0.000067
-0.123750 -0.034071 -0.000897
-0.121940 -0.035782 -0.000915
-0.120060 -0.037700 -0.000933
-0.124540 -0.036363 -0.000891
-0.122270 -0.034291 -0.000911
-0.119950 -0.035667 -0.000934
-0.120010 -0.035541 0.000068
-0.124320 -0.034346 0.000109
-0.123050 -0.035525 -0.000904
-0.122380 -0.037352 0.000090
-0.123210 -0.034988 0.000098
-0.123200 -0.038536 0.000097
-0.123190 -0.038149 -0.000904
-0.120320 -0.038289 0.000070
-0.121530 -0.034828 -0.000918
-0.119820 -0.036593 -0.000935
-0.122240 -0.035059 0.000089
-0.124490 -0.037434 -0.000892
-0.119960 -0.036508 0.000067
-0.122430 -0.034214 0.000091
-0.118880 -0.035575 0.000057
-0.116360 -0.038629 0.000032
-0.115870 -0.037279 -0.000973
-0.116300 -0.036008 0.000033
-0.117990 -0.038443 -0.000953
-0.116250 -0.034023 -0.000968
-0.117120 -0.037822 -0.000961
-0.115080 -0.037262 0.000021
-0.119160 -0.037433 -0.000942
-0.117920 -0.035401 0.000048
-0.117050 -0.035341 0.000040
-0.115240 -0.035465 -0.000978
-0.116010 -0.035186 0.000031
-0.115360 -0.035759 0.000024
-0.115110 -0.034274 0.000022
-0.114820 -0.037195 -0.000983
-0.116180 -0.038599 -0.000970
-0.115440 -0.036377 -0.000976
-0.114760 -0.035065 0.000019
-0.118870 -0.036598 -0.000944
-0.117760 -0.038163 0.000046
-0.116610 -0.033920 0.000037
-0.117160 -0.036723 -0.000960
-0.115450 -0.038588 0.000024
-0.118750 -0.036739 0.000056
-0.115370 -0.034067 -0.000976
-0.117720 -0.037162 0.000046
-0.117490 -0.033700 -0.000956
-0.115950 -0.037018 0.000029
-0.118260 -0.034392 0.000052
-0.119270 -0.034520 0.000061
-0.119030 -0.037703 0.000058
-0.117560 -0.034737 -0.000956
-0.118480 -0.034779 -0.000947
-0.117630 -0.035917 -0.000956
-0.116150 -0.034903 -0.000969
-0.117620 -0.033723 0.000046
-0.118130 -0.037540 -0.000952
-0.116750 -0.035805 -0.000964
-0.116760 -0.037443 0.000037
-0.114810 -0.038069 -0.000983
-0.117640 -0.036263 0.000045
-0.118500 -0.035684 -0.000947
-0.113100 -0.036691 -0.000998
-0.109840 -0.033843 -0.001028
-0.113590 -0.037799 -0.000994
-0.114020 -0.036754 -0.000990
-0.110770 -0.035531 -0.000019
-0.110700 -0.034381 -0.001020
-0.112250 -0.038663 -0.000006
-0.112150 -0.038052 -0.001008
-0.109890 -0.035421 -0.001028
-0.111820 -0.034329 -0.000008
-0.113890 -0.034945 0.000011
-0.110600 -0.037231 -0.000021
-0.112440 -0.036745 -0.000004
-0.113950 -0.037325 0.000010
-0.110250 -0.037352 -0.001026
-0.112220 -0.035455 -0.000005
-0.110140 -0.038246 -0.001027
-0.112970 -0.034973 0.000002
-0.114500 -0.036051 -0.000985
-0.114590 -0.038547 0.000016
-0.113490 -0.034356 -0.000994
-0.114650 -0.036333 0.000017
-0.113690 -0.035738 -0.000993
-0.112080 -0.034439 -0.001007
-0.110910 -0.036117 -0.001019
-0.113060 -0.034003 0.000003
-0.111000 -0.038479 -0.001019
-0.111490 -0.037162 -0.001014
-0.111400 -0.038017 -0.000014
-0.113380 -0.036600 0.000005
-0.109890 -0.034665 -0.000027
-0.110000 -0.036359 -0.000026
-0.110990 -0.034164 -0.000016
-0.111110 -0.035268 -0.001017
-0.112340 -0.036281 -0.001005
-0.114240 -0.033974 0.000014
-0.110090 -0.038415 -0.000026
-0.113070 -0.038584 -0.001000
-0.114060 -0.038675 -0.000990
-0.112650 -0.035071 -0.001002
-0.114580 -0.034605 -0.000984
-0.111060 -0.036495 -0.000017
-0.113050 -0.037881 0.000002
-0.108640 -0.034562 -0.001039
-0.105650 -0.036116 -0.001068
-0.105460 -0.036924 -0.000069
-0.105920 -0.037750 -0.001066
-0.106970 -0.035343 -0.000055
-0.106020 -0.038383 -0.000065
-0.109340 -0.033910 -0.000032
-0.107440 -0.034808 -0.001051
-0.107670 -0.033993 -0.001048
-0.105180 -0.038202 -0.001074
-0.106990 -0.034039 -0.000054
-0.107320 -0.037019 -0.001053
-0.108400 -0.035458 -0.000041
-0.107280 -0.037632 -0.000053
-0.107800 -0.038669 -0.000048
-0.108170 -0.037369 -0.000044
-0.108440 -0.035444 -0.001042
-0.108800 -0.036237 -0.000038
-0.107810 -0.037704 -0.001049
-0.105040 -0.034307 -0.001073
-0.106900 -0.038596 -0.000057
-0.108960 -0.034800 -0.000036
-0.109300 -0.036579 -0.001034
-0.105160 -0.035206 -0.001073
-0.109240 -0.038158 -0.000034
-0.108140 -0.033711 -0.000043
-0.106480 -0.035207 -0.001060
-0.106780 -0.037713 -0.001058
-0.106960 -0.036172 -0.001056
-0.108400 -0.037075 -0.001043
-0.106660 -0.036521 -0.000058
-0.109150 -0.037299 -0.000035
-0.108490 -0.038333 -0.001043
-0.108070 -0.034645 -0.000044
-0.107620 -0.035902 -0.000049
-0.105440 -0.034919 -0.000069
-0.106120 -0.035433 -0.000063
-0.109380 -0.037484 -0.001034
-0.106310 -0.037577 -0.000062
-0.106100 -0.034067 -0.000062
-0.105890 -0.034356 -0.001065
-0.108000 -0.036274 -0.001046
-0.104450 -0.035902 -0.001079
-0.100200 -0.035454 -0.000118
-0.101000 -0.036379 -0.000111
-0.103040 -0.034439 -0.001092
-0.104330 -0.034967 -0.001080
-0.099847 -0.038536 -0.001124
-0.100810 -0.033698 -0.001113
-0.102380 -0.036734 -0.000098
-0.101840 -0.038451 -0.001105
-0.103490 -0.034788 -0.000087
-0.103490 -0.037406 -0.000088
-0.104180 -0.038447 -0.001083
-0.101200 -0.034871 -0.000109
-0.104740 -0.037732 -0.000076
-0.102490 -0.034779 -0.000096
-0.100880 -0.037711 -0.001114
-0.100640 -0.035018 -0.001115
-0.104290 -0.035153 -0.000080
-0.100330 -0.037100 -0.000118
-0.102620 -0.038337 -0.000097
-0.100550 -0.036218 -0.001116
-0.102060 -0.036025 -0.001102
-0.100830 -0.038425 -0.000114
-0.104750 -0.036382 -0.000076
-0.101180 -0.036833 -0.001111
-0.099961 -0.037497 -0.001122
-0.103740 -0.033942 -0.001085
-0.103490 -0.036289 -0.000088
-0.101150 -0.037397 -0.000110
-0.104580 -0.036884 -0.001079
-0.100550 -0.034210 -0.000114
-0.101680 -0.038287 -0.000105
-0.101440 -0.033736 -0.000106
-0.102320 -0.037242 -0.001100
-0.104630 -0.033880 -0.000076
-0.103360 -0.035728 -0.001090
-0.103170 -0.036835 -0.001092
-0.101780 -0.035649 -0.000103
-0.102990 -0.037974 -0.001094
-0.102050 -0.034874 -0.001102
-0.103890 -0.037485 -0.001085
-0.098151 -0.038096 -0.000139
-0.099361 -0.036564 -0.000127
-0.097499 -0.036736 -0.000144
-0.095951 -0.035690 -0.001159
-0.097014 -0.034583 -0.000148
-0.099436 -0.036754 -0.001127
-0.099074 -0.035381 -0.000129
-0.095879 -0.037031 -0.001160
-0.096588 -0.038519 -0.001154
-0.098548 -0.034548 -0.000133
-0.098565 -0.034792 -0.001134
-0.097678 -0.038252 -0.001144
-0.098818 -0.037741 -0.001133
-0.095875 -0.035899 -0.000159
-0.099507 -0.035657 -0.001126
-0.098161 -0.036108 -0.001139
-0.096823 -0.035132 -0.001151
-0.099522 -0.034128 -0.000124
-0.099748 -0.034021 -0.001123
-0.095514 -0.038008 -0.000163
-0.094829 -0.035421 -0.001170
-0.094770 -0.037403 -0.001171
-0.096947 -0.036734 -0.001150
-0.095888 -0.034910 -0.000158
-0.098304 -0.036074 -0.000136
-0.098521 -0.036999 -0.000135
-0.097860 -0.034039 -0.001141
-0.099419 -0.038678 -0.000127
-0.096581 -0.037986 -0.000153
-0.095816 -0.034792 -0.001160
-0.097345 -0.038384 -0.000146
-0.095152 -0.036558 -0.001167
-0.099242 -0.037481 -0.000128
-0.096894 -0.035488 -0.000149
-0.095578 -0.036779 -0.000162
-0.096524 -0.036939 -0.000153
-0.097807 -0.035338 -0.000141
-0.097967 -0.037374 -0.001141
-0.094782 -0.036284 -0.000169
-0.095543 -0.038131 -0.001164
-0.094971 -0.035016 -0.000167
-0.097759 -0.035102 -0.001142
-0.097756 -0.034005 -0.000141
-0.096531 -0.037599 -0.001155
-0.092096 -0.038537 -0.001197
-0.092377 -0.036996 -0.000192
-0.093795 -0.035368 -0.001179
-0.090258 -0.037456 -0.001214
-0.091381 -0.037486 -0.000202
-0.091729 -0.034074 -0.001198
-0.091570 -0.035465 -0.001200
-0.091732 -0.036671 -0.001199
-0.091064 -0.038198 -0.001206
-0.092727 -0.034487 -0.001189
-0.090238 -0.033686 -0.000211
-0.090956 -0.034871 -0.000205
-0.092410 -0.038094 -0.000193
-0.094205 -0.035526 -0.000175
-0.094160 -0.038639 -0.001177
-0.090876 -0.036364 -0.001207
-0.091588 -0.035639 -0.000199
-0.092954 -0.034099 -0.000186
-0.093298 -0.037153 -0.000184
-0.092482 -0.035596 -0.000191
-0.094097 -0.034499 -0.001176
-0.093407 -0.038181 -0.000183
-0.094560 -0.037105 -0.000172
-0.093352 -0.035226 -0.000182
-0.091983 -0.037518 -0.001197
-0.090574 -0.036696 -0.000209
-0.090368 -0.038186 -0.000212
-0.090572 -0.034935 -0.001210
-0.093911 -0.036473 -0.001179
-0.094532 -0.038058 -0.000173
-0.090124 -0.038624 -0.001215
-0.092471 -0.035593 -0.001192
-0.093612 -0.036357 -0.000181
-0.092262 -0.034773 -0.000193
-0.090723 -0.035798 -0.000207
-0.089945 -0.034902 -0.000214
-0.093018 -0.037662 -0.001188
-0.092944 -0.036304 -0.001188
-0.092085 -0.033883 -0.000194
-0.094009 -0.037802 -0.001178
-0.094232 -0.034482 -0.000174
-0.089931 -0.036331 -0.001216
-0.091041 -0.033973 -0.000204
-0.091105 -0.037256 -0.001205
-0.087200 -0.035647 -0.001242
-0.089058 -0.035833 -0.001224
-0.089625 -0.038639 -0.000219
-0.084957 -0.036365 -0.000262
-0.086999 -0.037540 -0.000243
-0.089179 -0.036835 -0.001223
-0.088380 -0.034721 -0.000229
-0.084754 -0.038076 -0.000264
-0.087471 -0.034630 -0.000238
-0.085682 -0.037369 -0.001257
-0.084828 -0.035347 -0.001264
-0.085711 -0.038327 -0.001257
-0.088816 -0.035832 -0.000225
-0.085293 -0.035276 -0.000258
-0.087086 -0.033793 -0.000241
-0.085688 -0.034147 -0.000254
-0.087978 -0.035295 -0.001234
-0.088391 -0.037202 -0.001231
-0.088572 -0.037122 -0.000228
-0.088792 -0.038219 -0.001228
-0.087700 -0.036958 -0.000236
-0.089731 -0.036164 -0.000217
-0.088634 -0.033835 -0.001227
-0.086189 -0.035069 -0.001251
-0.086734 -0.036463 -0.001246
-0.086168 -0.038075 -0.000251
-0.086255 -0.036038 -0.000250
-0.087403 -0.038131 -0.001241
-0.086499 -0.037818 -0.001249
-0.089061 -0.037898 -0.000224
-0.085199 -0.036343 -0.001261
-0.086308 -0.034081 -0.001249
-0.086645 -0.035091 -0.000245
-0.089444 -0.034448 -0.001220
-0.085671 -0.037098 -0.000255
-0.086984 -0.038654 -0.000244
-0.087584 -0.036792 -0.001238
-0.087211 -0.034662 -0.001241
-0.089742 -0.037368 -0.000217
-0.089144 -0.034079 -0.000222
-0.085168 -0.034549 -0.001260
-0.089727 -0.035252 -0.001218
-0.087608 -0.035910 -0.000237
-0.087795 -0.037900 -0.000236
-0.083059 -0.037062 -0.000280
-0.083189 -0.034350 -0.000278
-0.081506 -0.038613 -0.000295
-0.083515 -0.036070 -0.001276
-0.080828 -0.035682 -0.000300
-0.082231 -0.038549 -0.001289
-0.082170 -0.035751 -0.001289
-0.082258 -0.036522 -0.000287
-0.083227 -0.035618 -0.000278
-0.084380 -0.036089 -0.001268
-0.080256 -0.038499 -0.000307
-0.084182 -0.034432 -0.000268
-0.084206 -0.035390 -0.000269
-0.083577 -0.035187 -0.001275
-0.082192 -0.035569 -0.000288
-0.084045 -0.036887 -0.000271
-0.084382 -0.037641 -0.001269
-0.084238 -0.034086 -0.001269
-0.080631 -0.034358 -0.000302
-0.080965 -0.037740 -0.000300
-0.080533 -0.036946 -0.000304
-0.081827 -0.034930 -0.001292
-0.080159 -0.038486 -0.001309
-0.081319 -0.035902 -0.001297
-0.082652 -0.037475 -0.001285
-0.083785 -0.037005 -0.001274
-0.082721 -0.034413 -0.001283
-0.083818 -0.038324 -0.000273
-0.080884 -0.035076 -0.001301
-0.082236 -0.037918 -0.000288
-0.080396 -0.036197 -0.001306
-0.080908 -0.033917 -0.001300
-0.081396 -0.036858 -0.000296
-0.079948 -0.037159 -0.001310
-0.082334 -0.034196 -0.000286
-0.080823 -0.037114 -0.001302
-0.081546 -0.037829 -0.001296
-0.081793 -0.036873 -0.001293
-0.083440 -0.038173 -0.001278
-0.081490 -0.034445 -0.000294
-0.081261 -0.038658 -0.001299
-0.082861 -0.036633 -0.001283
-0.078709 -0.034648 -0.000320
-0.077721 -0.036272 -0.000330
-0.079518 -0.035150 -0.001313
-0.075566 -0.037375 -0.000351
-0.079312 -0.037915 -0.001317
-0.077819 -0.034461 -0.000328
-0.078563 -0.038317 -0.001324
-0.076504 -0.037771 -0.001343
-0.078027 -0.037781 -0.000328
-0.077673 -0.035957 -0.001331
-0.078438 -0.035594 -0.000323
-0.075237 -0.036435 -0.000353
-0.077363 -0.033711 -0.001333
-0.077039 -0.036723 -0.001338
-0.075698 -0.034231 -0.001349
-0.074827 -0.035214 -0.000357
-0.075552 -0.035944 -0.001351
-0.079052 -0.036772 -0.000318
-0.077185 -0.035292 -0.000334
-0.076289 -0.035211 -0.001344
-0.079267 -0.036360 -0.001316
-0.078272 -0.038605 -0.000326
-0.076353 -0.037980 -0.000343
-0.079194 -0.038564 -0.000317
-0.075335 -0.037210 -0.001354
-0.076076 -0.034321 -0.000344
-0.078387 -0.035295 -0.001324
-0.077181 -0.037339 -0.000335
-0.076572 -0.036556 -0.000341
-0.076057 -0.035335 -0.000345
-0.075168 -0.038322 -0.000355
-0.079508 -0.035766 -0.000313
-0.077160 -0.034798 -0.001336
-0.077421 -0.037786 -0.001334
-0.078644 -0.033954 -0.001321
-0.079723 -0.037523 -0.000312
-0.078348 -0.036915 -0.001325
-0.079492 -0.034250 -0.001313
-0.079601 -0.034406 -0.000311
-0.076410 -0.036074 -0.001343
-0.077286 -0.038205 -0.000335
-0.074560 -0.036834 -0.001361
-0.071679 -0.037239 -0.001388
-0.074315 -0.036360 -0.000362
-0.073391 -0.036057 -0.001371
-0.071380 -0.033852 -0.001389
-0.072114 -0.037265 -0.000383
-0.070212 -0.038216 -0.001402
-0.071613 -0.035029 -0.001388
-0.070765 -0.035502 -0.000395
-0.070743 -0.037667 -0.000396
-0.073465 -0.038247 -0.001372
-0.070018 -0.036899 -0.001403
-0.070887 -0.036813 -0.001395
-0.074745 -0.034333 -0.001358
-0.073767 -0.034097 -0.001367
-0.070095 -0.036562 -0.000402
-0.071405 -0.034465 -0.000388
-0.074228 -0.037557 -0.000363
-0.070148 -0.034625 -0.001401
-0.070474 -0.035880 -0.001399
-0.072604 -0.037821 -0.001380
-0.073506 -0.035516 -0.000369
-0.072232 -0.034898 -0.000381
-0.074312 -0.034257 -0.000361
-0.071235 -0.038078 -0.001393
-0.071456 -0.038304 -0.000390
-0.073405 -0.038152 -0.000371
-0.073079 -0.033831 -0.000372
-0.072559 -0.035964 -0.000378
-0.073534 -0.037275 -0.001371
-0.073444 -0.037217 -0.000370
-0.073602 -0.035128 -0.001369
-0.072900 -0.034615 -0.001375
-0.070440 -0.034146 -0.000397
-0.074710 -0.035797 -0.001359
-0.071861 -0.035990 -0.001386
-0.074438 -0.038076 -0.001363
-0.072532 -0.036815 -0.001380
-0.071244 -0.036400 -0.000391
-0.072153 -0.033972 -0.000381
-0.069203 -0.037969 -0.001412
-0.069165 -0.035524 -0.000410
-0.066044 -0.034624 -0.001440
-0.069195 -0.035777 -0.001411
-0.066777 -0.036701 -0.000433
-0.067760 -0.037183 -0.000424
-0.065673 -0.036508 -0.001444
-0.065391 -0.037286 -0.000446
-0.066714 -0.034634 -0.000433
-0.068048 -0.038109 -0.000422
-0.067082 -0.034801 -0.001430
-0.069518 -0.034646 -0.000406
-0.068716 -0.037131 -0.001416
-0.065323 -0.035559 -0.000446
-0.068260 -0.035419 -0.001419
-0.068805 -0.036924 -0.000414
-0.066525 -0.033784 -0.001435
-0.066928 -0.036017 -0.001432
-0.068818 -0.038575 -0.000414
-0.066017 -0.038636 -0.001442
-0.068265 -0.034484 -0.001419
-0.067248 -0.038213 -0.001430
-0.064793 -0.036438 -0.001453
-0.068156 -0.037864 -0.001421
-0.066137 -0.035551 -0.001440
-0.066117 -0.037666 -0.001441
-0.065138 -0.034613 -0.000447
-0.067258 -0.033727 -0.000427
-0.069274 -0.034918 -0.001410
-0.065571 -0.033850 -0.001444
-0.068385 -0.034704 -0.000417
-0.067184 -0.038403 -0.000430
-0.069048 -0.033810 -0.000410
-0.065992 -0.036176 -0.000440
-0.066406 -0.038062 -0.000437
-0.067964 -0.036421 -0.001423
-0.066806 -0.036975 -0.001434
-0.067417 -0.035200 -0.000426
-0.067559 -0.036070 -0.000425
-0.065122 -0.034642 -0.001449
-0.064938 -0.038014 -0.000451
-0.066165 -0.035290 -0.000438
-0.069557 -0.037940 -0.000407
-0.065243 -0.037898 -0.001449
-0.060959 -0.037311 -0.001489
-0.061341 -0.035476 -0.000483
-0.062667 -0.038191 -0.000472
-0.060662 -0.035215 -0.001491
-0.063796 -0.038358 -0.001463
-0.060540 -0.033819 -0.001491
-0.062950 -0.034965 -0.000468
-0.060419 -0.035081 -0.000492
-0.061387 -0.037473 -0.000484
-0.061025 -0.036104 -0.001488
-0.064279 -0.034077 -0.000455
-0.062119 -0.035477 -0.001477
-0.062829 -0.036083 -0.001471
-0.064491 -0.037446 -0.001456
-0.064237 -0.034032 -0.001457
-0.059860 -0.037190 -0.001499
-0.060658 -0.038288 -0.001492
-0.062100 -0.036618 -0.001478
-0.061396 -0.036510 -0.000483
-0.063895 -0.038134 -0.000461
-0.062144 -0.037043 -0.000477
-0.064440 -0.036816 -0.000455
-0.061868 -0.034555 -0.001479
-0.060099 -0.037071 -0.000496
-0.063362 -0.037177 -0.000465
-0.064306 -0.035261 -0.000456
-0.063132 -0.037057 -0.001468
-0.063898 -0.036151 -0.001461
-0.060222 -0.036008 -0.000494
-0.061750 -0.034664 -0.000479
-0.061150 -0.033723 -0.000485
-0.062148 -0.033848 -0.000475
-0.064337 -0.035145 -0.001456
-0.063153 -0.034038 -0.000466
-0.059788 -0.034277 -0.001499
-0.062896 -0.034635 -0.001470
-0.063730 -0.036071 -0.000461
-0.062293 -0.037746 -0.001476
-0.062187 -0.035869 -0.000476
-0.057873 -0.038104 -0.001518
-0.058860 -0.038289 -0.000508
-0.058569 -0.035772 -0.001511
-0.058248 -0.037586 -0.000513
-0.058175 -0.035518 -0.000513
-0.059697 -0.033791 -0.000498
-0.058220 -0.036625 -0.000513
-0.059072 -0.034576 -0.000504
-0.058874 -0.038130 -0.001509
-0.056605 -0.034775 -0.001529
-0.059373 -0.035852 -0.000502
-0.059583 -0.035125 -0.001501
-0.059592 -0.036382 -0.001501
-0.057019 -0.036812 -0.000525
-0.057731 -0.036323 -0.001519
-0.058025 -0.033823 -0.001515
-0.057703 -0.034527 -0.000517
-0.058657 -0.034616 -0.001509
-0.056635 -0.036428 -0.001529
-0.057147 -0.035436 -0.001524
-0.056553 -0.034606 -0.000507
-0.058927 -0.033761 -0.001506
-0.059651 -0.037828 -0.000500
-0.058356 -0.036904 -0.001513
-0.056702 -0.037979 -0.000515
-0.059072 -0.036661 -0.000505
-0.057822 -0.034914 -0.001517
-0.057050 -0.033834 -0.001524
-0.057202 -0.037154 -0.001524
-0.144870 -0.033106 0.000303
-0.145320 -0.029131 0.000309
-0.145900 -0.032318 0.000313
-0.145640 -0.030169 -0.000690
-0.145730 -0.033330 -0.000690
-0.146390 -0.028912 -0.000161
-0.144770 -0.030947 -0.000698
-0.145750 -0.029248 -0.000688
-0.145280 -0.031065 0.000307
-0.145430 -0.030091 0.000309
-0.145600 -0.033631 0.000309
-0.145720 -0.032276 -0.000690
-0.144890 -0.032096 -0.000698
-0.146120 -0.030928 0.000032
-0.145620 -0.031153 -0.000691
-0.146250 -0.029913 0.000091
-0.144130 -0.029148 0.000297
-0.141570 -0.030656 0.000273
-0.141110 -0.033009 0.000267
-0.142060 -0.029522 -0.000723
-0.140560 -0.030394 -0.000738
-0.143220 -0.031052 -0.000713
-0.144630 -0.032095 0.000301
-0.143220 -0.032547 0.000287
-0.142610 -0.029974 0.000283
-0.142740 -0.030184 -0.000717
-0.141720 -0.031736 0.000274
-0.144630 -0.028841 -0.000699
-0.141040 -0.032936 -0.000734
-0.143060 -0.031287 0.000286
-0.143900 -0.031889 -0.000707
-0.144740 -0.032982 -0.000700
-0.140610 -0.028909 0.000264
-0.141360 -0.028735 -0.000730
-0.140930 -0.029599 -0.000734
-0.143480 -0.029803 0.000291
-0.140240 -0.033540 -0.000742
-0.140390 -0.030874 0.000261
-0.140110 -0.029297 -0.000742
-0.144720 -0.029757 -0.000698
-0.139910 -0.031840 -0.000744
-0.141590 -0.032173 -0.000729
-0.141960 -0.033172 -0.000726
-0.142180 -0.032917 0.000277
-0.143800 -0.033200 -0.000708
-0.143050 -0.032777 -0.000715
-0.140030 -0.032232 0.000258
-0.140830 -0.031807 0.000265
-0.141380 -0.031127 -0.000730
-0.142610 -0.031990 -0.000719
-0.144130 -0.030497 0.000297
-0.144030 -0.032803 0.000295
-0.140300 -0.029715 0.000261
-0.143260 -0.029422 -0.000712
-0.143840 -0.031665 0.000294
-0.141160 -0.029602 0.000269
-0.139930 -0.032719 -0.000745
-0.143650 -0.030175 -0.000709
-0.142260 -0.030966 -0.000722
-0.142370 -0.029102 0.000281
-0.135240 -0.033629 -0.000789
-0.136140 -0.031446 0.000221
-0.136360 -0.032598 0.000223
-0.135990 -0.029790 -0.000781
-0.136560 -0.030452 -0.000775
-0.137980 -0.032614 -0.000763
-0.137820 -0.030345 -0.000764
-0.137450 -0.031510 -0.000767
-0.135870 -0.029795 0.000219
-0.139100 -0.033026 -0.000753
-0.138620 -0.031195 -0.000756
-0.138660 -0.029234 -0.000755
-0.136300 -0.032477 -0.000779
-0.135700 -0.028855 0.000218
-0.138300 -0.029701 0.000242
-0.135910 -0.031169 -0.000782
-0.139480 -0.029971 -0.000748
-0.136390 -0.033578 0.000223
-0.135370 -0.031844 -0.000787
-0.139070 -0.032075 -0.000752
-0.137170 -0.033040 -0.000771
-0.137240 -0.030313 0.000232
-0.137610 -0.032324 0.000235
-0.135060 -0.032744 -0.000790
-0.137050 -0.031345 0.000230
-0.135060 -0.030567 -0.000790
-0.138740 -0.031039 0.000246
-0.135510 -0.032688 0.000215
-0.139130 -0.032377 0.000249
-0.139480 -0.030453 0.000253
-0.137850 -0.033549 -0.000765
-0.135410 -0.030790 0.000215
-0.139140 -0.029138 0.000250
-0.134870 -0.031497 0.000209
-0.137140 -0.029529 -0.000770
-0.136800 -0.029285 0.000228
-0.136270 -0.033581 -0.000779
-0.137810 -0.033397 0.000236
-0.137880 -0.030941 0.000238
-0.139670 -0.033261 0.000254
-0.135920 -0.028822 -0.000781
-0.138380 -0.031944 0.000242
-0.139690 -0.031380 0.000255
-0.138640 -0.033123 0.000244
-0.139710 -0.030810 -0.000746
-0.131550 -0.029127 -0.000822
-0.130300 -0.033577 -0.000836
-0.134090 -0.033217 -0.000800
-0.132620 -0.029728 -0.000812
-0.130970 -0.030865 0.000173
-0.133050 -0.033008 -0.000809
-0.133280 -0.030933 0.000195
-0.134470 -0.029841 0.000206
-0.130050 -0.030624 -0.000837
-0.130340 -0.031872 0.000167
-0.132560 -0.032221 -0.000814
-0.131150 -0.032275 0.000174
-0.131000 -0.029654 0.000174
-0.130020 -0.032882 0.000163
-0.132210 -0.032204 0.000184
-0.133630 -0.032355 -0.000804
-0.132140 -0.030959 -0.000817
-0.133520 -0.029517 -0.000804
-0.130810 -0.031221 -0.000830
-0.134480 -0.029836 -0.000795
-0.132330 -0.030238 0.000186
-0.131450 -0.030389 -0.000823
-0.130740 -0.029808 -0.000830
-0.131530 -0.031784 -0.000823
-0.133090 -0.032972 0.000192
-0.132210 -0.033222 0.000184
-0.132480 -0.028691 -0.000813
-0.129760 -0.030704 0.000162
-0.133420 -0.029993 0.000196
-0.134520 -0.031984 -0.000795
-0.130440 -0.032205 -0.000834
-0.131380 -0.032952 -0.000825
-0.132540 -0.031412 0.000188
-0.134350 -0.030775 0.000205
-0.132690 -0.028916 0.000190
-0.133700 -0.030992 -0.000802
-0.133510 -0.032144 0.000196
-0.129980 -0.029620 0.000164
-0.131110 -0.033143 0.000173
-0.134450 -0.032593 0.000205
-0.132200 -0.033349 -0.000818
-0.131830 -0.029362 0.000182
-0.126780 -0.032972 0.000133
-0.129190 -0.029183 -0.000844
-0.129350 -0.033518 -0.000844
-0.125020 -0.032948 -0.000885
-0.127470 -0.033475 -0.000862
-0.126360 -0.030831 -0.000871
-0.127420 -0.031003 0.000139
-0.126630 -0.030186 0.000132
-0.127580 -0.031864 0.000141
-0.126590 -0.033268 -0.000870
-0.128740 -0.030789 0.000152
-0.125580 -0.028959 -0.000878
-0.129100 -0.031005 -0.000846
-0.125620 -0.031499 -0.000879
-0.124920 -0.030100 0.000116
-0.127800 -0.029738 0.000144
-0.127600 -0.033474 0.000140
-0.128130 -0.030295 -0.000855
-0.126190 -0.029086 0.000129
-0.125660 -0.030758 0.000123
-0.128160 -0.028872 -0.000854
-0.127120 -0.029985 -0.000864
-0.126170 -0.031957 0.000127
-0.128730 -0.032397 -0.000850
-0.126470 -0.029306 -0.000870
-0.126750 -0.032000 -0.000868
-0.124790 -0.032579 0.000114
-0.129240 -0.031783 0.000156
-0.125280 -0.030013 -0.000881
-0.128060 -0.032663 0.000145
-0.128920 -0.029646 0.000154
-0.128620 -0.033469 0.000150
-0.129010 -0.032713 0.000154
-0.125880 -0.032889 0.000124
-0.126510 -0.031107 0.000131
-0.127220 -0.030963 -0.000863
-0.125690 -0.032355 -0.000878
-0.127470 -0.032466 -0.000862
-0.128350 -0.033483 -0.000854
-0.128280 -0.031235 -0.000854
-0.129550 -0.031798 -0.000842
-0.127120 -0.029135 0.000138
-0.120920 -0.029894 -0.000922
-0.120400 -0.029003 -0.000927
-0.123970 -0.030689 0.000107
-0.124510 -0.030404 -0.000889
-0.123070 -0.030077 0.000099
-0.122130 -0.030509 -0.000911
-0.123100 -0.033296 0.000098
-0.122930 -0.031910 0.000097
-0.121860 -0.033002 -0.000915
-0.122060 -0.029572 -0.000911
-0.123910 -0.029670 0.000107
-0.120970 -0.030878 0.000079
-0.123680 -0.028860 -0.000896
-0.122980 -0.030525 -0.000903
-0.123370 -0.033168 -0.000900
-0.123950 -0.032196 0.000106
-0.120200 -0.031413 -0.000930
-0.122640 -0.029015 0.000095
-0.123030 -0.029640 -0.000902
-0.124690 -0.031817 -0.000888
-0.124250 -0.032542 -0.000892
-0.119770 -0.032666 -0.000934
-0.124700 -0.031458 0.000114
-0.124080 -0.029647 -0.000892
-0.120740 -0.029515 0.000077
