ply
format ascii 1.0
element vertex 1664
property float x
property float y
property float z
end_header
-0.036182 0.003017 0.000644
-0.056176 -0.003253 0.000306
-0.027985 -0.001867 0.001259
-0.034655 0.001863 0.001281
-0.063196 0.001536 -0.000727
-0.066102 -0.001297 -0.000882
-0.058743 -0.000313 0.000162
-0.018471 -0.000222 0.001218
-0.016695 0.003187 0.000992
-0.036493 -0.000511 0.001292
-0.032334 0.001801 0.000630
-0.052770 -0.002170 0.000490
-0.056585 0.001178 -0.000367
-0.007153 0.001139 0.000529
-0.027937 -0.000953 0.000616
-0.011017 -0.001611 0.001190
-0.052907 0.003017 0.000475
-0.073705 -0.002505 -0.001294
-0.000232 -0.000906 0.001106
-0.065657 0.003354 -0.000864
-0.028778 -0.002002 0.001262
-0.022271 0.001252 0.001232
-0.010376 -0.001069 0.001187
-0.056624 -0.004407 -0.000360
-0.003083 0.000944 0.001155
-0.011387 0.002900 0.000559
-0.074123 0.000643 -0.001322
-0.071872 0.002095 -0.001201
-0.054337 -0.003670 -0.000237
-0.054430 -0.002817 0.000401
-0.033769 0.003539 0.001275
-0.060844 0.003876 -0.000603
-0.045127 -0.000904 0.000905
-0.014827 -0.002341 0.001120
-0.026198 0.002596 0.001246
-0.033098 -0.001964 0.001280
-0.054094 -0.000610 -0.000228
-0.004891 0.000034 0.000522
-0.057080 -0.002657 0.000256
-0.070110 0.001715 -0.000461
-0.045373 -0.001274 0.000248
-0.014415 0.000507 0.000559
-0.003652 0.001995 0.000514
-0.067657 0.003834 -0.000974
-0.060161 0.004409 -0.000410
-0.072020 0.001239 -0.000564
-0.013703 0.001542 0.000555
-0.022517 0.000441 0.000592
-0.033474 0.002202 0.001276
-0.018855 -0.002739 0.001011
-0.070089 -0.003130 -0.001096
-0.044292 -0.004592 0.000470
-0.015368 -0.000703 0.000565
-0.045716 0.001366 0.000226
-0.023142 -0.000321 0.000596
-0.041484 0.000707 0.000457
-0.075990 -0.003524 -0.000774
-0.035542 -0.004249 0.001293
-0.014228 -0.000883 0.000560
-0.008789 -0.000271 0.001179
-0.061712 0.001139 -0.000002
0.004512 -0.000405 0.001126
-0.012035 0.001661 0.001190
-0.075077 -0.000716 -0.001372
-0.067309 0.003652 -0.000311
-0.061298 0.001754 -0.000624
-0.007258 0.002676 0.000621
-0.075462 0.003573 -0.001399
-0.060502 0.000969 -0.000580
-0.070689 0.004009 -0.001140
-0.034015 0.003955 0.001276
-0.015908 -0.001739 0.001210
-0.007574 0.001231 0.001173
-0.001846 0.000768 0.000508
-0.075945 -0.000595 -0.001419
-0.067398 0.004119 -0.000317
-0.036281 0.001145 0.000647
-0.019552 0.000157 0.000581
-0.054465 -0.004558 0.000303
-0.022077 -0.002881 0.000595
-0.043470 -0.004326 0.000356
-0.017667 -0.001821 0.000576
-0.006424 -0.001518 0.000780
-0.001326 0.001783 0.001147
-0.049077 0.000018 0.000044
-0.060479 0.000368 -0.000578
-0.010927 0.000087 0.001188
-0.027336 -0.003358 0.001258
-0.033851 0.003793 0.000634
-0.067334 0.000069 -0.000307
-0.047053 0.000742 0.000154
-0.053210 -0.002916 -0.000177
-0.023399 0.003551 0.001129
-0.008672 -0.001400 0.001181
-0.032390 0.001761 0.001272
-0.076280 -0.002358 -0.001435
-0.051607 -0.002822 -0.000089
-0.043384 -0.002558 0.000359
-0.012866 0.000380 0.001195
-0.028207 0.001582 0.000614
-0.063846 0.000431 -0.000761
-0.062046 -0.000179 -0.000662
-0.071968 -0.004500 -0.000945
-0.050384 -0.004417 0.000624
-0.017806 -0.002637 0.000577
-0.070761 -0.004504 -0.000903
-0.007613 -0.001635 0.000677
-0.041665 0.001637 0.000446
-0.039094 -0.001165 0.001234
-0.072961 0.000485 -0.000614
-0.023404 -0.002794 0.001242
-0.037661 0.003073 0.001292
-0.000799 0.001500 0.000503
-0.052352 -0.000553 -0.000133
-0.071090 -0.000554 -0.000511
-0.043170 -0.003251 0.001015
-0.069563 -0.001688 -0.001070
-0.039365 -0.003256 0.000579
-0.046042 -0.003516 0.000215
-0.076994 -0.002440 -0.000846
-0.045673 -0.003186 0.000235
-0.076128 -0.003045 -0.000782
-0.068575 -0.004512 -0.000698
-0.044792 -0.002669 0.000282
-0.016352 0.003169 0.000941
-0.035378 -0.001984 0.001289
-0.047267 0.000895 0.000142
-0.057790 0.002480 0.000210
-0.069243 -0.004119 -0.001049
-0.057360 -0.002973 0.000241
-0.017907 0.001527 0.000572
-0.009899 -0.001857 0.001111
-0.007828 0.001506 0.000532
0.000383 0.000115 0.000500
-0.009131 -0.001781 0.001155
-0.053702 0.003169 -0.000212
-0.003136 -0.001193 0.000960
-0.008264 -0.000537 0.000536
-0.045088 -0.001593 0.000264
-0.009019 -0.000200 0.000539
-0.073385 -0.003897 -0.000631
-0.020562 -0.000185 0.000585
-0.005251 -0.000648 0.000524
-0.076756 0.000190 -0.000821
-0.002792 -0.001010 0.000514
-0.012500 -0.001938 0.001197
-0.007363 -0.001610 0.000863
-0.032380 -0.000099 0.001275
-0.075048 -0.001156 -0.001369
-0.041770 -0.002604 0.001090
-0.063539 0.000111 -0.000744
-0.027040 -0.000112 0.001253
-0.040112 0.000625 0.001176
-0.063871 0.004006 -0.000768
-0.049943 0.002390 -0.000006
-0.025722 -0.001422 0.000608
-0.056294 0.003735 0.000289
-0.031439 0.001398 0.000627
-0.054373 0.004004 -0.000250
-0.072658 -0.000186 -0.001241
-0.040850 -0.000677 0.001138
-0.016462 -0.000248 0.001210
-0.012613 0.000585 0.001194
-0.012666 -0.002131 0.000863
-0.027735 0.003758 0.001251
-0.053646 0.003883 0.000433
-0.022316 0.000964 0.001232
-0.026800 0.003110 0.000606
-0.037584 0.001725 0.001293
-0.007842 -0.001615 0.001177
-0.054546 -0.003232 -0.000249
-0.049545 -0.001998 0.000666
-0.031175 -0.000392 0.001270
-0.009373 0.002789 0.000946
-0.063493 -0.004529 -0.000554
-0.075607 -0.004066 -0.001396
-0.037914 -0.001383 0.001233
-0.002414 -0.001112 0.001155
-0.054074 0.004389 0.000131
-0.028272 0.000866 0.000615
-0.041972 0.004349 0.000446
-0.035328 0.001547 0.001284
-0.025491 -0.001355 0.001248
-0.072943 -0.003200 -0.000608
-0.071462 -0.004502 -0.000856
-0.037455 -0.000627 0.001296
-0.049782 -0.001276 0.000652
-0.035453 0.003887 0.000640
-0.029523 0.003883 0.000727
-0.007934 0.001820 0.001173
-0.035393 0.002256 0.000642
-0.036668 -0.003489 0.000654
-0.038942 0.002075 0.000594
-0.034116 0.002541 0.001278
-0.009616 -0.000145 0.000541
-0.025055 0.002408 0.001242
-0.046731 -0.000686 0.000817
-0.054854 -0.001232 0.000375
-0.022385 -0.001458 0.001236
-0.059212 0.000568 -0.000509
0.003276 -0.000566 0.000526
-0.025195 0.000118 0.000603
-0.060770 -0.003402 0.000056
-0.063301 0.001183 -0.000733
-0.075921 0.000661 -0.001420
-0.059502 -0.000862 -0.000523
-0.023577 0.001135 0.000596
-0.070798 0.003498 -0.001145
-0.035498 0.003525 0.001282
-0.039874 0.004343 0.000911
-0.058549 -0.001803 0.000175
-0.066999 -0.002720 -0.000928
-0.052221 -0.000247 -0.000127
-0.052843 -0.000807 0.000484
-0.003965 0.002354 0.000515
-0.051500 -0.001275 -0.000086
-0.046828 0.002875 0.000806
-0.065438 -0.003178 -0.000843
-0.066504 -0.001048 -0.000904
-0.042104 -0.004585 0.001075
-0.069303 0.000583 -0.001059
-0.076492 -0.000114 -0.001450
-0.051087 -0.004240 0.000585
-0.062411 0.000238 -0.000039
-0.047053 0.003415 0.000150
-0.065126 0.003828 -0.000192
-0.063132 -0.001061 -0.000076
-0.037091 0.003815 0.001288
-0.020897 -0.002212 0.001231
-0.068099 0.002369 -0.000352
-0.052806 0.004379 -0.000165
-0.059155 -0.000254 -0.000505
-0.036122 -0.003364 0.001294
-0.053797 -0.001853 0.000434
-0.075118 -0.004043 -0.001369
-0.053331 0.001874 0.000453
-0.047924 0.003376 0.000746
-0.050578 0.003816 0.000601
-0.016290 0.000820 0.001208
-0.002197 -0.001060 0.000512
-0.027890 0.002030 0.000612
-0.043156 -0.004595 0.000761
-0.005290 0.000999 0.000522
-0.021347 0.001252 0.000586
-0.002578 0.000825 0.001153
-0.009543 -0.001314 0.001184
-0.039095 0.001051 0.001231
-0.035224 -0.001106 0.001287
-0.067603 0.004113 -0.000972
-0.005139 0.002162 0.000520
-0.056152 0.003333 0.000298
-0.062485 0.000958 -0.000044
-0.057409 -0.003850 0.000240
-0.062623 -0.002389 -0.000690
-0.074579 -0.004093 -0.001339
-0.022737 -0.002504 0.000597
-0.042775 0.002200 0.000385
-0.054290 -0.000155 0.000404
-0.050746 0.001163 0.000595
-0.040399 -0.000959 0.000519
-0.039845 0.000811 0.001190
-0.043733 -0.004593 0.000962
0.000843 -0.000805 0.000536
-0.076522 0.002951 -0.001456
-0.029944 0.002634 0.000619
-0.038771 0.001687 0.000604
-0.036788 0.000706 0.001291
-0.021332 -0.002412 0.000591
-0.008547 0.000055 0.000536
-0.044103 0.000370 0.000315
-0.005702 0.001466 0.001165
-0.002564 -0.000466 0.001155
-0.007291 -0.001407 0.001175
-0.055761 0.004319 -0.000326
-0.074326 -0.003054 -0.001327
-0.065489 0.003348 -0.000211
-0.000820 0.000444 0.001146
-0.008771 0.002757 0.000906
-0.018309 -0.000993 0.001219
-0.038024 0.004281 0.000640
-0.036517 0.000416 0.000649
-0.066130 0.003613 -0.000891
-0.046012 -0.003386 0.000860
-0.050554 -0.001976 -0.000033
-0.059817 -0.004541 -0.000328
-0.010870 0.001849 0.000543
-0.037129 -0.002398 0.001297
-0.054140 0.000198 -0.000232
-0.040031 -0.003959 0.001187
-0.027865 -0.000505 0.001257
-0.024058 0.002073 0.001238
-0.027231 0.000360 0.001253
-0.054292 0.000735 0.000403
-0.057702 0.001267 0.000216
-0.025947 -0.000836 0.000608
-0.003669 -0.000647 0.000517
-0.068807 0.004438 -0.000568
-0.009852 0.002815 0.001110
-0.022500 -0.002469 0.001238
0.005000 0.000258 0.001123
-0.061707 -0.001071 0.000001
-0.019312 0.001766 0.001219
-0.033002 0.003569 0.000630
-0.070375 0.001896 -0.000476
-0.052659 -0.003970 -0.000145
-0.045850 0.003969 0.000214
-0.048196 -0.001924 0.000739
-0.052304 0.001829 -0.000134
-0.064048 -0.003603 -0.000122
-0.027780 -0.003611 0.000619
-0.057980 -0.004546 -0.000109
-0.071284 0.001751 -0.001169
-0.062104 -0.003568 -0.000017
-0.044754 0.000080 0.000280
0.003403 0.000571 0.000487
-0.068000 -0.001961 -0.000984
-0.022620 0.001151 0.001233
-0.065315 -0.003169 -0.000192
-0.028597 0.002436 0.000614
-0.009867 -0.000676 0.000543
-0.076901 0.001689 -0.000831
-0.044040 -0.001723 0.000965
-0.038761 0.000562 0.001250
-0.056104 -0.000172 -0.000338
-0.060734 -0.001913 0.000056
-0.019787 0.002407 0.001220
-0.051169 0.004080 0.000568
-0.043757 0.004096 0.000972
-0.066148 -0.001018 -0.000241
-0.062565 0.003272 -0.000696
-0.024760 -0.002416 0.000605
-0.059044 -0.001445 -0.000497
-0.049017 -0.001438 0.000050
-0.070184 0.002065 -0.000465
-0.034092 0.002915 0.001277
-0.032115 0.003233 0.000627
-0.060065 -0.003981 -0.000549
-0.052191 0.003587 0.000513
-0.037316 -0.002598 0.001298
-0.046884 -0.001577 0.000810
-0.038584 -0.004035 0.000622
-0.013906 -0.002044 0.001202
-0.032913 0.002395 0.000632
-0.072463 0.002886 -0.000591
-0.046971 0.003839 0.000797
-0.041636 -0.001975 0.000453
-0.067438 0.000325 -0.000313
-0.039702 0.002531 0.001195
-0.042900 0.004353 0.000780
-0.074403 0.000705 -0.001337
-0.024106 0.001019 0.000598
-0.072597 -0.004188 -0.000588
-0.031844 -0.001047 0.000632
-0.048279 0.004371 0.000525
-0.063199 0.002620 -0.000086
-0.057585 -0.002419 0.000228
-0.061894 -0.000487 -0.000654
-0.034713 -0.000925 0.000643
-0.007837 0.001780 0.000531
-0.035484 -0.001833 0.000647
-0.060990 -0.002791 0.000043
-0.071711 0.000921 -0.000547
-0.055345 0.002061 -0.000300
-0.050203 -0.004572 0.000466
-0.002812 -0.000168 0.001155
-0.023548 0.003234 0.000593
-0.053845 -0.002113 -0.000212
-0.063877 -0.001213 -0.000760
-0.076459 0.002564 -0.000808
-0.027894 -0.003173 0.001260
-0.036354 0.002169 0.000646
-0.038271 0.000881 0.000632
-0.035121 0.004187 0.000844
-0.021242 -0.001747 0.001232
-0.046112 -0.000562 0.000207
-0.028690 -0.003706 0.000932
-0.017196 0.001994 0.001210
-0.054581 -0.003259 0.000393
-0.069509 0.003351 -0.000431
-0.052111 -0.000951 0.000524
-0.035963 0.002016 0.001286
-0.040364 -0.002979 0.001168
-0.050568 -0.003446 -0.000032
0.002089 0.002007 0.000491
-0.018072 -0.002377 0.000578
-0.058334 0.003394 -0.000465
-0.013665 -0.000366 0.001199
-0.055899 -0.004553 0.000246
-0.035670 0.000382 0.001287
-0.038491 0.001594 0.001263
-0.056897 -0.001858 0.000265
-0.071093 -0.000865 -0.001154
-0.041378 -0.002428 0.001111
-0.072054 -0.001723 -0.001205
-0.039841 0.003020 0.000543
-0.023194 -0.000001 0.001237
-0.049101 0.003066 0.000682
-0.063611 -0.004528 -0.000175
-0.017197 0.003018 0.001209
-0.007479 -0.001087 0.000534
-0.040813 0.003919 0.000489
-0.064972 -0.004524 -0.000795
-0.061013 0.000980 -0.000608
-0.047969 0.000379 0.000748
-0.041059 -0.004602 0.000698
-0.053050 -0.000509 -0.000171
-0.054036 0.004389 -0.000203
-0.031120 -0.002935 0.001273
-0.039457 0.000034 0.001213
-0.036671 -0.002033 0.001294
-0.021923 0.001436 0.000588
-0.056030 0.003677 0.000304
-0.055073 -0.001799 -0.000280
-0.065254 -0.001662 -0.000191
0.001528 0.000699 0.000495
-0.052040 0.000773 0.000526
-0.060871 0.001723 0.000043
-0.013727 0.000487 0.001199
-0.030988 0.003603 0.000622
-0.069955 0.002369 -0.000453
-0.030624 -0.003266 0.000630
-0.050253 0.000283 0.000624
-0.010543 0.001355 0.001185
-0.019965 0.001848 0.000580
-0.038879 -0.000764 0.000601
-0.069335 -0.004429 -0.000409
-0.075189 -0.001631 -0.001377
-0.024738 0.002646 0.001240
-0.042728 0.001075 0.001033
-0.064819 0.003010 -0.000818
-0.032699 0.002893 0.001272
-0.032061 -0.000304 0.001274
-0.024185 0.003593 0.000932
-0.041264 -0.001279 0.000472
-0.061249 -0.000650 0.000026
-0.040360 -0.003191 0.000524
-0.027786 0.001684 0.001254
-0.036489 0.000524 0.001290
-0.003104 -0.000374 0.001157
-0.076243 0.002888 -0.001441
-0.076223 -0.001704 -0.000789
-0.011141 -0.001979 0.001137
-0.022415 -0.003058 0.001238
-0.071295 0.002867 -0.000527
-0.033248 0.001653 0.001276
-0.064731 -0.003507 -0.000804
-0.036719 0.001139 0.001290
-0.012017 0.001679 0.000548
-0.032638 0.000056 0.000634
-0.036414 -0.002272 0.001294
-0.071889 -0.000018 -0.001199
-0.033812 -0.002128 0.001283
-0.074992 -0.002298 -0.001365
-0.037597 0.004321 0.000669
-0.016830 -0.001320 0.000571
-0.027250 -0.001232 0.001255
-0.058503 -0.003395 -0.000464
-0.076289 -0.003455 -0.000793
-0.049643 -0.002581 0.000017
-0.043331 0.004274 0.000995
-0.061764 0.002449 -0.000007
-0.061343 0.000090 -0.000624
-0.058707 0.001552 -0.000483
-0.053481 0.004387 -0.000152
-0.002396 0.000471 0.001153
-0.023794 -0.001204 0.001241
-0.065241 -0.004079 -0.000187
-0.060259 0.000610 0.000078
-0.064630 0.002110 -0.000807
-0.056590 -0.002053 -0.000362
-0.072188 0.000229 -0.001216
-0.004347 0.000901 0.001160
-0.009588 0.001675 0.001180
-0.069443 0.000875 -0.001067
-0.012987 -0.001031 0.000556
-0.038210 0.004313 0.001274
0.000083 -0.000879 0.000636
-0.061981 -0.002836 -0.000655
-0.016904 -0.000090 0.001212
-0.068628 -0.000689 -0.000376
-0.049621 0.003273 0.000010
-0.054438 -0.002245 -0.000244
-0.038240 0.001205 0.001277
-0.070156 -0.004193 -0.001098
-0.067615 -0.003888 -0.000316
-0.062900 -0.001152 -0.000707
-0.066740 -0.001367 -0.000916
-0.003624 0.000295 0.000516
-0.021426 -0.000848 0.001231
-0.054627 -0.004558 0.000014
-0.062040 0.001827 -0.000021
0.000250 0.002119 0.001140
-0.066677 0.001597 -0.000917
-0.030937 0.001890 0.000624
-0.018882 0.001180 0.000577
-0.054383 -0.003070 0.000404
-0.075700 -0.003447 -0.000758
-0.067304 -0.003287 -0.000300
-0.043371 -0.001478 0.000358
-0.029321 0.003445 0.001258
-0.044962 -0.003621 0.000918
-0.050972 -0.000657 0.000586
-0.061369 -0.004030 0.000024
-0.048281 0.001123 0.000730
-0.003560 0.000768 0.000515
-0.038961 0.003325 0.000591
-0.041893 0.000826 0.000435
-0.058470 -0.000501 0.000177
-0.038615 0.004268 0.001252
-0.029023 0.003193 0.001257
-0.047572 -0.002048 0.000130
-0.023285 0.000427 0.001237
-0.068693 0.001893 -0.001028
0.001712 -0.000690 0.000496
-0.010810 0.000134 0.000545
-0.056028 0.000912 -0.000336
-0.066915 0.001365 -0.000930
0.000077 -0.000591 0.001144
-0.040858 0.003192 0.001131
-0.028917 0.003850 0.000737
-0.071751 -0.003658 -0.001186
-0.005332 0.002522 0.001162
-0.057543 0.002408 -0.000421
-0.064812 0.003836 -0.000175
-0.029205 -0.003162 0.001266
-0.052369 -0.001148 0.000510
-0.011524 -0.001157 0.001192
-0.059391 -0.001124 -0.000516
-0.044198 0.001416 0.000308
-0.069296 0.003021 -0.001062
-0.052827 -0.001599 -0.000158
-0.053907 -0.004102 -0.000213
-0.074498 0.000758 -0.000699
-0.072796 0.001827 -0.000607
-0.001978 0.001188 0.000508
-0.038278 -0.000088 0.001277
-0.033878 -0.000463 0.000639
-0.059397 -0.000633 0.000127
-0.007956 0.000249 0.000534
-0.043020 -0.001177 0.000376
-0.023011 -0.000829 0.001238
-0.027905 0.003518 0.001252
-0.011553 0.000340 0.000548
-0.000075 0.001709 0.000500
-0.053027 0.003321 0.000468
-0.069230 -0.000064 -0.001054
-0.010843 -0.001811 0.001190
-0.039798 -0.001183 0.001196
-0.024473 0.001223 0.000599
-0.029860 0.001030 0.000621
-0.018779 0.003299 0.001192
-0.039548 -0.004607 0.000837
-0.068069 -0.003834 -0.000985
-0.070713 0.003796 -0.000497
-0.031272 0.000439 0.000627
-0.061426 -0.004337 0.000022
-0.067111 -0.004517 -0.000891
-0.004224 0.000454 0.000518
-0.032318 -0.000349 0.001275
-0.021808 -0.000364 0.000590
0.002813 0.000960 0.000489
-0.060172 0.002198 -0.000564
-0.036926 -0.003432 0.000655
-0.048598 0.004371 0.000169
-0.030667 -0.000183 0.001268
-0.025627 0.003671 0.001133
-0.045454 0.003181 0.000237
-0.066669 -0.002104 -0.000911
-0.051607 -0.000961 -0.000092
-0.009644 0.001132 0.001181
-0.000270 -0.000509 0.001145
-0.017461 -0.002105 0.000575
-0.050736 -0.001975 0.000601
-0.048784 0.002473 0.000700
-0.017881 0.002558 0.001213
-0.008834 0.000221 0.001179
-0.050628 0.003231 -0.000045
-0.025428 0.002934 0.001242
-0.036373 -0.003352 0.001295
-0.030866 -0.001739 0.001271
-0.018998 0.002999 0.001216
-0.056427 0.000062 -0.000356
-0.004740 0.001941 0.000518
-0.068089 0.000490 -0.000349
-0.012483 -0.001623 0.000554
-0.068742 -0.001704 -0.001025
-0.062688 0.003567 -0.000703
-0.039536 0.000560 0.001207
-0.054372 -0.002420 0.000403
-0.046451 0.002021 0.000828
-0.020812 -0.002604 0.001231
-0.074630 -0.001469 -0.001346
-0.048841 -0.001634 0.000704
-0.065526 0.004048 -0.000214
-0.052649 -0.001305 -0.000148
-0.041370 -0.002831 0.001112
-0.028580 0.001866 0.001257
-0.001987 0.002389 0.000775
-0.048777 0.001992 0.000058
0.000496 0.000180 0.001141
-0.018045 0.001039 0.001215
-0.045387 0.004361 0.000486
-0.058277 0.000600 0.000186
-0.060428 0.003234 -0.000579
-0.026904 0.000372 0.000610
-0.065865 -0.001137 -0.000869
-0.068700 -0.001128 -0.001023
-0.010538 0.000603 0.001185
0.000439 0.000864 0.000499
-0.026672 0.002260 0.001248
-0.074246 0.001463 -0.000686
-0.040846 -0.000397 0.001137
-0.068212 -0.004513 -0.000709
-0.035757 -0.001858 0.000649
-0.058088 -0.000860 0.000198
-0.071886 -0.003692 -0.000550
-0.075547 -0.001172 -0.001397
-0.026979 0.002580 0.001249
-0.050468 -0.000187 -0.000031
-0.015373 -0.001210 0.000565
-0.036910 0.002884 0.000647
-0.038074 -0.001783 0.001291
-0.049927 0.001854 -0.000005
-0.010144 0.002040 0.001182
-0.064909 0.003336 -0.000824
-0.006522 0.001398 0.000526
-0.024226 -0.001492 0.000602
-0.038630 0.000176 0.001257
-0.062619 -0.000573 -0.000049
-0.064249 0.003281 -0.000144
-0.027988 0.001762 0.000613
-0.071622 -0.003875 -0.001179
-0.040278 -0.003945 0.001174
-0.061436 0.000562 0.000014
-0.037271 0.000627 0.001293
-0.067182 0.001537 -0.000301
-0.056894 -0.001413 0.000264
-0.030392 0.002104 0.001264
-0.040695 0.000177 0.000501
-0.039058 0.000721 0.000589
-0.038743 0.004004 0.000602
-0.045345 -0.001150 0.000893
-0.021505 0.002173 0.001228
-0.074017 -0.001916 -0.000668
-0.056311 -0.001789 -0.000347
-0.075991 -0.002528 -0.001419
-0.058573 -0.004051 0.000177
-0.017823 -0.002636 0.001189
-0.041204 -0.004206 0.001124
-0.047882 -0.002024 0.000113
0.001114 -0.000354 0.001140
-0.017439 0.002880 0.000569
-0.009291 0.000078 0.000539
-0.007736 0.001490 0.001173
0.003547 0.000740 0.001128
-0.076083 0.001267 -0.000786
-0.062764 0.000364 -0.000058
-0.011083 0.002069 0.001186
-0.003801 0.002301 0.001156
-0.076601 -0.001332 -0.000810
-0.041444 -0.001703 0.001107
-0.035771 0.004222 0.000669
-0.048914 0.004373 0.000464
-0.034778 -0.002485 0.000645
-0.004232 0.001502 0.000517
-0.021147 0.000310 0.000587
-0.076930 0.000408 -0.001474
-0.063478 0.000982 -0.000098
-0.051670 0.002670 -0.000101
-0.023122 -0.001059 0.001238
-0.071455 -0.004502 -0.000607
-0.073014 -0.003541 -0.000611
-0.018528 -0.000613 0.000577
-0.050859 -0.003546 -0.000047
-0.043986 -0.004395 0.000972
-0.038493 0.004338 0.000857
-0.049398 0.000091 0.000671
-0.050474 0.004199 -0.000038
-0.014668 0.003077 0.001190
-0.070699 -0.004233 -0.000484
-0.034391 0.000768 0.000640
-0.066231 0.003039 -0.000251
-0.048052 -0.003156 0.000105
-0.018852 -0.001430 0.000580
-0.025757 -0.002404 0.000609
-0.025495 -0.000189 0.001247
-0.038620 -0.004014 0.001264
-0.066489 0.000751 -0.000262
-0.036050 0.002093 0.000645
-0.070989 0.002836 -0.001154
-0.039922 -0.004566 0.001194
0.003880 -0.000001 0.000486
-0.012072 0.000120 0.000550
-0.007416 -0.000781 0.000533
-0.059177 0.001070 0.000136
-0.071991 -0.000730 -0.001203
-0.026980 0.003744 0.001219
-0.010387 0.002473 0.001182
-0.068687 -0.003041 -0.000376
-0.040569 0.002470 0.000504
-0.058495 -0.001749 -0.000466
-0.060433 -0.000697 0.000070
-0.029967 0.003477 0.001260
-0.013182 -0.000020 0.000555
-0.022467 0.002064 0.001232
-0.048285 0.002123 0.000728
-0.076739 0.000801 -0.001465
-0.049370 -0.001036 0.000674
-0.017087 0.002461 0.000568
-0.067746 -0.000763 -0.000328
-0.041541 0.004348 0.000597
-0.065291 0.000442 -0.000196
-0.000996 0.001389 0.001146
-0.054981 -0.002071 -0.000274
-0.030326 -0.002078 0.000627
-0.026779 -0.000912 0.000611
-0.071744 0.003121 -0.000552
-0.073923 -0.003550 -0.000661
-0.022844 0.001620 0.001234
-0.026482 0.003718 0.000775
0.003886 0.001194 0.000485
-0.031715 0.003921 0.001267
-0.006436 0.002631 0.001057
-0.042796 0.003527 0.001025
-0.040556 -0.000737 0.001154
-0.039968 0.003826 0.001179
-0.059625 -0.003403 0.000118
-0.022717 -0.002084 0.000596
-0.059264 0.004050 0.000127
-0.054454 -0.002163 0.000398
-0.023035 0.003531 0.000637
-0.012051 -0.000484 0.001193
-0.029575 0.003776 0.001258
-0.035745 -0.001364 0.000648
-0.068497 0.000989 -0.000372
-0.028309 -0.003510 0.000621
-0.062627 -0.001955 -0.000047
-0.067609 -0.004514 -0.000334
-0.067910 0.000379 -0.000983
-0.008535 0.000533 0.001177
-0.043636 -0.003527 0.000990
-0.040061 0.002628 0.001176
-0.013057 0.000777 0.001195
-0.036588 0.004266 0.000725
-0.044323 -0.001703 0.000306
-0.036978 0.001078 0.001292
-0.056461 -0.003503 0.000291
-0.074282 -0.003561 -0.000680
-0.032709 0.004056 0.000637
-0.060655 -0.003203 -0.000582
-0.014539 -0.000742 0.001203
-0.055035 -0.000669 -0.000279
-0.010713 0.002752 0.001183
-0.034311 0.002257 0.001279
-0.069064 -0.002676 -0.000397
-0.028297 -0.002461 0.000619
-0.031695 -0.003922 0.001277
-0.065392 -0.000549 -0.000200
-0.068231 -0.000827 -0.000355
-0.063129 -0.002264 -0.000074
-0.065891 -0.002689 -0.000224
-0.009537 0.002326 0.001179
-0.030018 -0.000813 0.001266
-0.049912 0.004376 0.000121
-0.070822 -0.004000 -0.001135
-0.050939 -0.003846 -0.000051
-0.038143 0.001357 0.000638
0.002052 0.000651 0.000493
-0.053397 -0.000811 -0.000190
-0.046114 -0.002143 0.000209
-0.033332 0.001259 0.001277
-0.059079 -0.002725 0.000147
-0.018061 -0.002426 0.001220
-0.074889 -0.002709 -0.000715
-0.071526 -0.001936 -0.001176
-0.053267 -0.004537 0.000467
-0.040857 -0.003223 0.001141
-0.067429 -0.004515 -0.000746
-0.025865 0.003145 0.000602
-0.025302 0.001287 0.001244
0.003681 0.001802 0.001126
-0.063423 -0.002262 -0.000734
-0.024114 -0.000871 0.001242
-0.067419 -0.002961 -0.000307
-0.045576 -0.002835 0.000883
-0.068461 -0.003041 -0.001008
-0.039259 -0.004608 0.000831
-0.047239 0.003174 0.000140
-0.063252 -0.004529 -0.000176
-0.064780 -0.001997 -0.000809
-0.056275 0.004315 -0.000354
-0.004531 -0.000275 0.001162
-0.046617 0.004365 0.000363
-0.051326 -0.001957 -0.000075
-0.073224 -0.000640 -0.000627
-0.046920 -0.003163 0.000167
-0.027683 0.000151 0.001255
-0.076451 -0.001136 -0.000802
-0.041471 -0.001000 0.000460
-0.034226 -0.003127 0.000644
-0.058908 -0.000784 0.000153
-0.055125 0.001243 -0.000287
-0.042242 -0.004599 0.000583
-0.030561 0.000969 0.000624
-0.045107 0.001587 0.000258
-0.055467 -0.002136 -0.000301
-0.071393 0.003453 -0.000533
-0.021834 -0.000772 0.001233
-0.029284 0.003870 0.000978
-0.004836 -0.001361 0.000818
-0.047132 -0.004389 0.000157
-0.045003 -0.000636 0.000911
-0.021189 0.001195 0.001228
-0.027208 0.000678 0.000611
-0.072927 -0.001296 -0.000610
-0.008357 0.001686 0.000533
-0.056568 0.004263 -0.000370
-0.058323 -0.001059 0.000186
-0.072602 0.003113 -0.000599
-0.044893 -0.000077 0.000916
-0.023805 -0.000259 0.000598
-0.071178 -0.000806 -0.000515
-0.066192 -0.000616 -0.000888
-0.007643 -0.000104 0.000533
-0.072034 -0.000057 -0.000563
-0.069568 -0.000458 -0.001072
-0.002203 -0.001102 0.000932
-0.027985 -0.003636 0.001047
-0.012396 0.000732 0.001193
-0.060544 -0.000769 -0.000579
-0.048012 0.000828 0.000101
-0.035305 0.001201 0.001285
-0.021492 -0.002999 0.000781
-0.052572 0.003498 -0.000151
-0.073728 -0.003647 -0.001294
-0.000727 0.001004 0.000503
-0.034949 -0.001765 0.001287
-0.028868 0.001655 0.001258
-0.061887 -0.003733 -0.000005
-0.012153 0.002880 0.000547
-0.011203 0.002889 0.000801
-0.034235 -0.001273 0.000642
-0.049078 -0.003770 0.000050
-0.038417 -0.002988 0.001274
-0.013116 0.002733 0.000551
-0.029346 -0.000001 0.001262
-0.048259 -0.004579 0.000157
0.002366 -0.000652 0.000974
-0.053333 -0.002617 0.000460
-0.043274 0.003568 0.000355
-0.061575 0.001934 -0.000640
-0.045816 -0.004586 0.000852
-0.038464 0.003363 0.000618
-0.009332 0.001299 0.001180
-0.032734 0.001661 0.000632
-0.034296 0.002619 0.000637
-0.056026 0.004396 -0.000294
-0.016610 0.001204 0.001209
-0.001791 0.001582 0.000507
-0.042488 0.003631 0.000398
-0.062264 -0.000873 -0.000673
-0.059914 0.000850 -0.000548
-0.013690 -0.001667 0.001201
0.002994 0.001448 0.000488
-0.007665 -0.001349 0.000535
-0.007582 0.000662 0.000532
-0.037454 0.004028 0.000648
-0.043260 -0.003556 0.000367
-0.068838 0.002334 -0.001036
-0.066575 0.001931 -0.000269
-0.030692 0.002952 0.001264
-0.035648 0.001984 0.000643
-0.010967 0.002482 0.001185
-0.034685 0.004163 0.000849
-0.057269 0.002701 0.000238
-0.030195 0.002669 0.000620
-0.072167 -0.004084 -0.000564
-0.013648 -0.001700 0.000559
-0.050508 0.002488 -0.000037
-0.065625 0.003071 -0.000862
-0.034314 0.003996 0.000635
-0.026952 -0.001231 0.000612
-0.070306 -0.004506 -0.000723
-0.052715 -0.001044 -0.000152
-0.011067 0.001656 0.001186
-0.060095 0.004409 -0.000160
-0.001995 0.001775 0.000508
-0.067782 0.003145 -0.000336
-0.060785 -0.004537 -0.000101
-0.038099 0.001067 0.000641
-0.072713 0.002850 -0.000604
-0.025386 -0.002195 0.001249
0.003213 0.001992 0.001128
-0.026862 0.000886 0.000609
-0.064247 -0.001371 -0.000137
-0.075887 -0.002698 -0.000769
-0.065658 -0.002338 -0.000212
-0.054453 -0.004145 -0.000242
-0.003331 -0.000475 0.001158
-0.055221 -0.001405 0.000355
-0.017216 0.002367 0.001210
-0.054346 -0.004149 0.000407
-0.005370 0.001697 0.001163
-0.015207 0.000218 0.001205
-0.014248 0.000438 0.001201
-0.045582 0.003937 0.000229
-0.057155 -0.002144 0.000251
-0.012329 0.000124 0.000551
0.004337 0.001161 0.000483
-0.050710 0.000274 0.000599
-0.057083 -0.000153 0.000252
-0.008027 0.001548 0.001174
-0.044490 -0.002079 0.000941
-0.042641 0.003151 0.000391
-0.032256 -0.004056 0.001023
-0.059073 -0.002428 0.000147
-0.051335 0.003791 -0.000084
-0.022419 0.001002 0.000591
-0.031854 0.000976 0.000629
-0.036199 0.001302 0.001288
-0.050705 -0.004079 -0.000038
-0.037801 0.002945 0.000651
-0.027370 0.003287 0.001250
-0.009531 0.002133 0.000538
0.001952 0.000219 0.001135
-0.059586 -0.003655 -0.000523
-0.038163 0.002979 0.001279
-0.003394 0.001939 0.001155
-0.033523 0.003848 0.000632
-0.010412 0.002846 0.000567
-0.044547 0.002225 0.000288
-0.032007 -0.002667 0.000635
-0.074290 0.000233 -0.000686
-0.020121 0.002652 0.001221
-0.049353 -0.001765 0.000032
-0.071753 -0.002743 -0.000544
-0.050536 -0.002865 -0.000031
-0.049543 0.000230 0.000019
-0.060415 0.004410 -0.000408
0.002802 0.000470 0.000490
-0.077224 0.000529 -0.000847
-0.055845 -0.003994 -0.000319
-0.019183 0.002187 0.001218
-0.055081 -0.000403 0.000361
-0.071079 0.002327 -0.000515
-0.025826 -0.000309 0.001248
-0.057273 0.001644 0.000239
-0.025990 -0.001339 0.001250
-0.076312 0.001738 -0.000799
-0.056882 0.001259 -0.000383
-0.072022 -0.001046 -0.001205
-0.007426 0.000561 0.001173
-0.009068 0.000513 0.001180
-0.075925 -0.002098 -0.000772
-0.071852 0.000441 -0.000554
-0.053078 -0.001723 -0.000171
-0.014149 -0.001745 0.000561
0.002276 -0.000441 0.000493
-0.047751 0.001960 0.000758
-0.049424 0.003137 0.000665
-0.049159 -0.004576 0.000159
-0.041511 0.002987 0.000452
-0.061986 0.000668 -0.000016
-0.004103 -0.000278 0.001161
-0.014043 -0.000027 0.001200
-0.066381 -0.004461 -0.000248
-0.075991 0.003522 -0.001428
-0.067932 -0.003966 -0.000334
-0.010199 -0.001794 0.000545
-0.042311 -0.001103 0.000415
-0.073313 -0.003362 -0.000628
-0.060755 -0.001005 0.000053
-0.059420 0.001538 0.000122
-0.014435 -0.002306 0.000605
-0.048495 -0.004201 0.000082
-0.056990 0.003897 -0.000393
-0.068183 -0.003822 -0.000348
-0.077261 0.001722 -0.001395
-0.064158 0.003326 -0.000783
-0.013415 -0.001587 0.001200
-0.030649 0.002048 0.001265
-0.044705 -0.004590 0.000565
-0.047027 -0.003390 0.000161
-0.065144 -0.004323 -0.000825
-0.036948 0.000460 0.000650
-0.018728 0.001625 0.000575
-0.015418 0.000146 0.000564
-0.014848 -0.000859 0.001205
-0.015139 -0.001668 0.000565
-0.027457 0.000924 0.000611
-0.044792 0.002155 0.000919
-0.059047 -0.003084 -0.000494
-0.032693 0.004055 0.001065
-0.061156 0.003615 0.000024
-0.034950 0.003464 0.000638
-0.055096 0.002522 0.000356
-0.046792 -0.004056 0.000175
-0.038613 -0.002031 0.001262
-0.050086 0.001363 -0.000013
-0.034013 -0.004227 0.001256
-0.026239 -0.003221 0.000612
-0.038121 0.002573 0.000638
-0.055723 -0.003119 0.000331
-0.047869 0.004002 0.000748
-0.009353 0.001899 0.000537
-0.026178 -0.002218 0.001252
-0.033194 -0.003974 0.000641
-0.068790 0.000324 -0.001031
-0.072246 -0.000676 -0.000574
-0.050273 -0.001437 0.000625
-0.027519 -0.000210 0.001255
-0.005512 0.002580 0.000861
-0.059961 -0.003599 -0.000543
-0.048875 -0.002885 0.000704
-0.046270 0.004364 0.000489
-0.030661 -0.003821 0.000631
-0.028234 -0.002067 0.001260
-0.069026 -0.001895 -0.001040
-0.044042 -0.002464 0.000323
-0.052167 -0.003786 0.000525
-0.058075 0.000600 -0.000447
-0.064689 -0.000645 -0.000162
-0.062920 -0.004530 -0.000485
-0.043165 0.004354 0.000769
0.001205 0.000526 0.000496
-0.069287 0.003634 -0.001063
-0.048980 -0.003285 0.000698
-0.062801 -0.004012 -0.000054
-0.067764 -0.004514 -0.000710
-0.018027 0.001964 0.001214
-0.073138 -0.003131 -0.001262
-0.042981 0.001835 0.001018
0.000453 0.000368 0.000500
-0.047759 -0.002919 0.000764
-0.041495 -0.001369 0.001104
-0.041781 -0.000366 0.000443
-0.016634 0.000858 0.001210
-0.034801 -0.004307 0.000948
-0.047013 0.002099 0.000154
-0.054495 -0.004431 -0.000244
-0.039297 0.002477 0.000574
-0.036809 0.002769 0.001289
-0.058590 -0.004544 0.000042
-0.047217 0.001083 0.000788
-0.008467 0.002688 0.000533
-0.072592 0.000320 -0.000594
-0.070109 0.001135 -0.000460
-0.028974 0.001721 0.000617
-0.030394 -0.000835 0.001267
-0.022039 -0.000560 0.000592
-0.065021 -0.002519 -0.000177
-0.076105 -0.003553 -0.001424
-0.057604 -0.001573 -0.000418
-0.021844 0.003295 0.000586
-0.040940 -0.002141 0.001135
-0.033401 0.002485 0.000633
-0.038527 -0.000944 0.000621
-0.053283 -0.000855 0.000460
-0.003945 0.001739 0.000516
-0.028730 0.001546 0.000616
-0.042833 -0.003798 0.000390
-0.029270 0.003696 0.001257
-0.062685 0.002820 -0.000058
-0.018439 0.000418 0.001218
-0.067593 0.001265 -0.000323
-0.066913 -0.000245 -0.000927
-0.067461 0.003425 -0.000319
-0.037767 0.004064 0.000649
-0.013254 0.000204 0.001197
-0.059820 -0.002878 0.000107
-0.075262 -0.003844 -0.000733
-0.053459 0.004388 0.000117
-0.022330 0.002417 0.000589
-0.063340 0.002660 -0.000737
-0.074949 -0.004348 -0.001359
-0.034351 -0.000050 0.001282
-0.065177 -0.001471 -0.000831
-0.054352 -0.002986 -0.000239
-0.062988 -0.003912 -0.000708
-0.052196 -0.004075 -0.000119
-0.070869 0.004120 -0.000506
-0.068809 0.001865 -0.000390
0.004111 0.002042 0.001124
-0.021370 -0.000580 0.001231
-0.031695 0.003426 0.000625
-0.035291 -0.001271 0.000646
-0.052560 0.004384 0.000074
-0.059447 -0.003020 -0.000516
-0.014221 0.002205 0.001198
-0.022830 0.000985 0.001234
-0.035922 0.002435 0.000644
-0.036053 -0.002775 0.001293
-0.040341 0.002626 0.001160
-0.045144 -0.001044 0.000260
-0.067590 0.003810 -0.000327
-0.032457 0.002797 0.001271
-0.037520 0.002264 0.001292
-0.071588 -0.001157 -0.000537
-0.061588 0.002831 -0.000642
-0.008945 0.001874 0.000536
-0.005056 0.000508 0.000522
-0.009862 -0.000937 0.001185
-0.069248 -0.003789 -0.000406
-0.055455 -0.001512 -0.000301
-0.022677 -0.001117 0.001237
0.000230 0.001360 0.000499
-0.044722 -0.003185 0.000287
-0.034230 0.000038 0.000640
-0.073155 0.000557 -0.001269
-0.061217 -0.000220 -0.000617
-0.026812 0.001598 0.001250
-0.029783 0.003828 0.000617
-0.062381 0.001200 -0.000683
-0.043673 0.001893 0.000336
-0.059213 0.001363 0.000134
-0.030819 0.001455 0.000624
-0.065204 0.002536 -0.000838
-0.022632 -0.001065 0.000595
-0.064483 -0.004298 -0.000789
-0.000169 0.000307 0.000502
-0.033080 0.003000 0.001273
-0.022994 0.002972 0.001233
-0.062249 0.002290 -0.000033
-0.048709 0.000727 0.000707
-0.026952 0.002889 0.000607
-0.048544 0.001424 0.000071
-0.026823 -0.000438 0.001252
-0.041139 -0.001068 0.001122
-0.068389 0.004436 -0.000873
-0.022510 -0.000709 0.000594
0.003627 -0.000528 0.000933
-0.056781 0.002145 0.000265
-0.057993 0.001452 -0.000444
-0.039124 -0.002482 0.000591
-0.063167 -0.002838 -0.000076
-0.072879 0.002579 -0.001257
-0.015866 -0.000117 0.001208
-0.042314 -0.002691 0.000417
-0.060187 0.002514 -0.000565
-0.058755 0.000535 -0.000484
-0.046983 0.001163 0.000157
-0.055367 -0.001761 -0.000296
-0.017272 -0.001317 0.001215
-0.039625 -0.003005 0.001208
-0.048466 -0.004578 0.000480
-0.010378 0.000143 0.001185
-0.001405 0.002020 0.000505
-0.066542 0.002832 -0.000912
-0.040850 -0.000132 0.001137
-0.029449 -0.000089 0.000621
-0.037465 0.000626 0.000652
-0.071495 -0.004496 -0.001171
-0.053515 0.002018 -0.000201
-0.067109 -0.000449 -0.000938
-0.041934 0.003212 0.000429
-0.032223 -0.001913 0.000634
0.004283 0.001217 0.001125
-0.071928 0.000282 -0.001202
-0.040113 0.002634 0.000529
-0.006577 0.000106 0.001170
-0.058746 0.004405 -0.000251
0.003604 0.001161 0.000486
-0.065771 0.000788 -0.000867
-0.031491 0.002393 0.001268
-0.025984 0.000420 0.000606
-0.057139 -0.002591 -0.000391
-0.034220 0.000399 0.000640
-0.007534 0.002438 0.001171
-0.066153 -0.004065 -0.000880
-0.035785 -0.002127 0.000649
-0.017681 0.003241 0.000617
-0.041477 0.003778 0.000453
-0.049952 0.003022 -0.000008
-0.049391 -0.003445 0.000032
-0.029259 -0.001704 0.001264
-0.042151 -0.003362 0.001071
-0.036236 -0.000883 0.000649
-0.016850 0.002349 0.000567
-0.065713 0.000712 -0.000220
-0.013344 -0.001078 0.000557
-0.050938 0.002413 -0.000061
-0.066288 0.000324 -0.000250
-0.018246 0.001815 0.001215
-0.057482 -0.003105 -0.000409
-0.058673 -0.003508 0.000170
-0.018363 -0.001832 0.000578
-0.045926 0.002523 0.000856
-0.035147 -0.000281 0.000644
-0.055202 0.003140 0.000350
-0.067429 0.001657 -0.000958
-0.058372 0.001756 0.000179
-0.071589 0.003043 -0.001187
-0.038564 -0.000110 0.000618
-0.048720 -0.001589 0.000066
-0.072709 0.001230 -0.000602
-0.023342 0.003278 0.001234
-0.012547 0.001560 0.001192
-0.075214 0.001603 -0.000739
0.000269 0.000374 0.001142
-0.036355 -0.002474 0.000652
-0.071805 0.001216 -0.001196
-0.063547 -0.000659 -0.000100
-0.032279 0.000173 0.001274
-0.043296 0.002737 0.000999
-0.032075 0.000170 0.000631
-0.047329 0.000476 0.000139
-0.067258 0.001388 -0.000949
-0.048762 0.001194 0.000060
-0.023002 -0.000341 0.001237
-0.074359 0.001816 -0.001336
-0.063601 -0.002037 -0.000100
-0.014765 -0.001302 0.000563
-0.023930 0.000210 0.000598
-0.005674 0.001853 0.000522
-0.028678 -0.002242 0.000621
-0.059321 -0.003694 -0.000508
-0.041772 -0.001048 0.000444
0.000420 0.001770 0.000498
-0.045253 -0.002848 0.000257
-0.013188 -0.002182 0.000902
-0.049412 0.004070 0.000020
-0.008258 -0.001647 0.000537
-0.021345 0.003244 0.000584
-0.025784 0.002816 0.000602
-0.075181 -0.004379 -0.001154
-0.066753 0.003897 -0.000925
-0.034350 -0.000620 0.001283
-0.065112 0.002164 -0.000189
-0.049613 0.001064 0.000657
-0.070490 0.000672 -0.001124
-0.065527 -0.000060 -0.000208
-0.051863 0.000694 -0.000108
-0.047710 0.003472 0.000114
-0.048604 -0.001822 0.000717
0.004997 -0.000002 0.001124
-0.053360 0.000885 -0.000190
-0.048389 -0.001677 0.000728
-0.072377 0.003267 -0.001231
-0.071180 -0.004426 -0.000510
-0.070230 -0.001336 -0.000463
-0.058697 -0.003053 -0.000475
-0.070201 -0.000445 -0.000463
-0.056614 -0.001290 0.000279
-0.036100 -0.001854 0.000650
-0.075924 -0.001685 -0.000773
-0.009817 0.002251 0.001180
-0.054464 0.002611 0.000391
-0.065548 0.001934 -0.000856
-0.046454 -0.003507 0.000836
-0.040506 -0.004604 0.001147
-0.005679 0.001553 0.000523
-0.052506 0.000140 0.000501
-0.067311 0.002511 -0.000953
-0.057950 0.001368 0.000202
-0.028551 -0.003302 0.000621
-0.066291 0.001733 -0.000253
-0.044611 0.000929 0.000930
-0.057570 0.002818 0.000221
-0.033237 -0.004153 0.000867
-0.009253 0.001584 0.000537
-0.064842 0.004284 -0.000821
-0.046639 0.002668 0.000173
-0.044341 -0.004405 0.000309
-0.049807 0.004376 0.000576
-0.066216 0.000667 -0.000891
0.001564 0.002196 0.001134
0.004726 0.002025 0.000615
-0.022606 -0.000795 0.001236
-0.009711 -0.001840 0.000881
-0.019737 0.002658 0.001220
-0.073478 0.001194 -0.000644
-0.039999 -0.004606 0.000931
-0.029211 0.001586 0.001260
-0.039773 -0.002788 0.001200
-0.003152 -0.000839 0.001157
-0.059146 -0.004543 -0.000407
-0.052199 -0.003336 0.000523
-0.076563 0.003033 -0.001060
-0.046972 -0.004583 0.000456
-0.056472 0.001555 -0.000361
0.004123 0.000348 0.000485
-0.049495 0.004374 0.000384
-0.053417 0.000567 -0.000193
0.004596 0.000185 0.001125
-0.045859 -0.000416 0.000220
-0.064723 0.002701 -0.000812
-0.057019 0.000254 0.000255
-0.053886 -0.000051 -0.000218
-0.043976 0.002326 0.000963
-0.075026 0.001089 -0.000728
-0.070751 -0.000992 -0.000492
-0.017615 0.000953 0.000572
-0.024791 0.002320 0.000599
-0.004955 0.000536 0.001163
-0.041640 -0.002436 0.000453
-0.055935 0.001859 0.000312
-0.050583 -0.001281 0.000608
-0.009365 0.000035 0.001181
-0.039184 -0.004132 0.000590
-0.041951 0.000120 0.001076
0.003016 -0.000542 0.000490
-0.043171 0.002809 0.000362
-0.033013 0.001504 0.000633
-0.013026 0.001466 0.000553
-0.077141 0.000132 -0.001486
-0.030977 -0.003932 0.000766
-0.038590 -0.004283 0.001266
-0.073189 -0.000616 -0.001269
0.003555 0.001241 0.001128
-0.065916 -0.002373 -0.000226
-0.077121 0.001406 -0.000843
-0.074130 -0.004283 -0.001315
-0.074287 0.003958 -0.000692
-0.066959 -0.000831 -0.000929
-0.053953 0.002816 0.000418
-0.070871 -0.002965 -0.000495
-0.042256 -0.000481 0.000417
-0.060693 0.003220 -0.000594
-0.030008 -0.000103 0.000623
-0.040923 -0.002627 0.001137
-0.022612 0.002358 0.001232
-0.004427 0.001314 0.000518
-0.074182 -0.000510 -0.000679
-0.020588 0.000683 0.000584
-0.028564 -0.001877 0.001261
0.001865 -0.000701 0.000981
-0.051047 0.001492 -0.000065
-0.026375 -0.000529 0.001251
-0.068241 0.004436 -0.000426
-0.015078 0.001520 0.000561
-0.038944 0.000432 0.000596
0.001334 0.000336 0.001138
-0.058589 0.000788 -0.000475
-0.075541 -0.004127 -0.001145
-0.054217 0.003820 0.000402
-0.025982 -0.003193 0.000611
-0.061739 -0.003281 -0.000641
-0.055362 0.001535 0.000343
-0.010434 0.002848 0.000887
-0.010959 -0.000364 0.000547
-0.076077 -0.001263 -0.001425
-0.043244 0.001948 0.001003
-0.056548 0.002414 0.000277
-0.055680 0.003120 -0.000320
-0.062940 0.004419 -0.000142
-0.059863 0.001156 0.000099
-0.060884 -0.000299 -0.000599
-0.027308 -0.002536 0.000615
-0.048402 -0.003163 0.000086
-0.002103 0.002082 0.000508
-0.042526 0.002302 0.001042
-0.025904 -0.003433 0.000797
-0.028359 -0.000548 0.000617
-0.033619 0.000529 0.000637
-0.031359 -0.001884 0.000631
-0.034498 -0.001388 0.000643
-0.037072 0.003280 0.001289
-0.074736 -0.000295 -0.001354
-0.050519 0.002816 -0.000038
-0.026439 0.000004 0.000609
-0.070965 0.003079 -0.000509
-0.075820 0.002549 -0.000773
-0.029231 -0.001352 0.000622
-0.051117 -0.002992 0.000581
-0.007219 0.000183 0.000531
-0.013827 -0.000341 0.000558
-0.029340 0.002116 0.001259
-0.065567 -0.001750 -0.000852
-0.056843 -0.002405 -0.000375
-0.000881 -0.000971 0.000865
-0.058242 -0.003748 0.000194
-0.054973 -0.002903 -0.000273
-0.059924 0.003320 0.000092
-0.015920 0.002778 0.001204
-0.072963 0.002780 -0.000618
-0.034197 -0.001260 0.001283
-0.061595 -0.001843 0.000009
-0.057041 0.003054 -0.000394
-0.055248 -0.004219 -0.000286
-0.046558 -0.001985 0.000185
-0.073789 -0.000746 -0.001301
-0.061633 0.003555 -0.000645
-0.076074 0.003597 -0.001194
-0.052718 0.002054 0.000487
-0.005400 0.002275 0.001163
-0.003775 -0.000359 0.001159
-0.026322 -0.002816 0.001253
-0.052480 -0.000943 -0.000140
-0.037081 -0.002722 0.001297
-0.073614 0.000837 -0.001294
-0.066367 -0.002691 -0.000894
-0.049831 0.000205 0.000003
-0.003148 -0.000859 0.000516
-0.012507 0.000357 0.001194
-0.062545 -0.004457 -0.000039
-0.008235 0.002704 0.001173
-0.012066 0.000070 0.001192
-0.047878 0.003759 0.000104
-0.044203 -0.000463 0.000955
-0.070547 -0.003782 -0.000476
-0.056586 0.002098 -0.000368
-0.069004 0.001870 -0.001045
-0.042560 -0.001854 0.000402
-0.043912 0.001084 0.000968
-0.020415 -0.002547 0.000588
-0.051056 0.002846 -0.000068
-0.041269 0.000117 0.001114
-0.029500 -0.003784 0.001203
-0.049028 -0.001941 0.000694
-0.060203 -0.000597 0.000083
-0.014082 0.000738 0.000558
-0.001914 -0.001071 0.000511
-0.002042 0.002366 0.001149
-0.067921 0.004435 -0.000894
-0.012860 0.000907 0.000553
-0.068459 -0.003246 -0.000363
-0.018239 0.000178 0.001217
-0.048944 0.003814 0.000690
-0.058377 -0.003947 -0.000457
-0.071475 0.001435 -0.001179
-0.009778 -0.001610 0.000543
-0.050347 0.003110 -0.000029
-0.017582 0.001627 0.000571
-0.033202 -0.001768 0.000638
-0.049557 -0.001969 0.000021
-0.024468 0.000595 0.001242
-0.069075 -0.000422 -0.000401
-0.068731 -0.003934 -0.000377
-0.042868 0.003986 0.000377
-0.023833 -0.000843 0.001241
-0.029335 -0.003769 0.001001
-0.060036 0.003851 -0.000559
-0.015335 -0.002392 0.001058
-0.030475 -0.002464 0.000628
-0.051654 -0.004567 0.000211
-0.042917 0.003488 0.000375
-0.054351 -0.001768 0.000403
-0.028731 -0.001094 0.001261
-0.061739 0.000602 -0.000003
-0.029890 -0.002998 0.001268
-0.044163 -0.003994 0.000962
-0.051632 -0.001667 -0.000092
-0.066095 0.004388 -0.000890
-0.062176 -0.002068 -0.000023
-0.033759 -0.002738 0.001283
-0.036087 0.001493 0.000646
-0.068728 -0.000363 -0.000382
-0.066596 -0.000139 -0.000267
-0.046190 0.002752 0.000198
-0.057782 -0.000090 0.000214
-0.006824 0.000807 0.000528
-0.054201 0.003479 0.000404
-0.041653 0.003519 0.001088
-0.058966 0.001393 -0.000497
-0.053708 0.000697 0.000435
-0.058461 -0.002104 0.000180
-0.049200 -0.000554 0.000039
-0.035491 -0.002987 0.001291
-0.034705 -0.001841 0.001286
-0.062139 -0.002375 -0.000664
0.001416 0.000884 0.001137
-0.070746 -0.003447 -0.000488
-0.034535 -0.003130 0.001287
-0.023800 0.001182 0.001238
-0.046724 0.004019 0.000810
-0.036589 -0.002770 0.001295
-0.052479 -0.002016 -0.000138
-0.052643 -0.001522 0.000496
-0.058092 -0.001253 -0.000445
-0.056568 -0.004148 -0.000358
-0.028940 0.002687 0.000615
-0.068699 -0.003415 -0.000376
-0.067610 0.001953 -0.000325
-0.027711 -0.003610 0.000994
0.002019 0.002172 0.000824
-0.036090 0.000832 0.000646
-0.066663 -0.002496 -0.000910
-0.050835 0.000157 -0.000052
-0.037045 -0.004525 0.001291
-0.025788 -0.000525 0.000607
-0.043623 -0.002805 0.000346
-0.056399 0.004397 0.000236
-0.031275 0.002020 0.000625
-0.031709 0.002348 0.000627
-0.042203 0.000412 0.001062
-0.023107 -0.003159 0.000647
-0.076282 -0.003434 -0.001288
-0.038149 -0.000633 0.000641
-0.075515 -0.003268 -0.001392
-0.050859 -0.002190 0.000594
-0.001870 0.001473 0.001149
-0.057421 -0.003507 0.000239
-0.070482 -0.004031 -0.000473
-0.036987 -0.002493 0.000654
-0.064043 0.002776 -0.000132
-0.037278 0.001642 0.001292
-0.054969 0.001157 0.000365
-0.054872 -0.004288 0.000379
-0.033985 0.004125 0.000986
-0.057059 -0.001547 -0.000388
-0.049674 -0.004142 0.000018
-0.074801 0.004458 -0.000974
-0.033750 -0.004206 0.000648
-0.075137 0.003552 -0.000738
-0.037185 -0.000467 0.000653
-0.054889 0.000739 0.000370
-0.023750 -0.000198 0.001240
-0.046158 -0.002948 0.000852
-0.021461 0.000352 0.000588
-0.055721 0.000746 -0.000319
-0.048397 0.001852 0.000722
-0.000996 0.002324 0.001145
-0.043892 -0.000715 0.000972
-0.013670 0.001132 0.001197
-0.072503 -0.004494 -0.001226
-0.067153 -0.004516 -0.000624
-0.067326 0.003790 -0.000956
-0.028401 0.000456 0.001258
-0.033495 -0.004180 0.000867
-0.072760 -0.002050 -0.000600
-0.071766 0.003747 -0.001198
-0.073599 -0.002256 -0.000645
-0.070757 -0.000638 -0.000493
-0.018574 0.002814 0.001215
-0.068200 0.001772 -0.000357
-0.048034 -0.004295 0.000751
-0.024303 -0.001631 0.001244
-0.071254 0.003181 -0.000525
-0.039999 0.000537 0.000538
-0.011327 -0.001817 0.000550
-0.016719 0.003108 0.000565
-0.006107 0.002613 0.000772
-0.046698 0.000730 0.000173
0.001906 0.001158 0.001134
-0.072573 -0.002879 -0.000588
-0.057277 -0.004549 0.000008
-0.069663 -0.002041 -0.001075
-0.034984 -0.000538 0.001286
-0.049272 -0.002058 0.000037
-0.014430 -0.001407 0.000562
-0.046112 0.003045 0.000201
-0.003999 -0.001279 0.000769
-0.033125 0.001968 0.000633
-0.049825 -0.004230 0.000654
-0.076941 -0.001351 -0.000829
-0.037381 0.002551 0.001291
-0.036244 0.000341 0.000648
-0.012384 0.002953 0.001159
-0.025723 -0.002054 0.001250
-0.050618 -0.004571 -0.000006
-0.067935 -0.000050 -0.000340
-0.058266 -0.001303 0.000189
-0.061606 -0.001528 0.000008
-0.061552 -0.002232 -0.000632
-0.012582 -0.002124 0.000571
-0.017412 0.000874 0.001213
-0.023125 0.001070 0.001236
-0.010406 0.000797 0.000543
0.000238 0.001496 0.001141
-0.074798 -0.002479 -0.000710
-0.020839 -0.001888 0.000588
-0.060465 0.002252 -0.000580
-0.041328 0.004347 0.000803
-0.018412 -0.002695 0.000852
-0.011632 -0.002028 0.001044
-0.050817 0.003222 0.000588
-0.038389 0.000536 0.001270
-0.067649 0.000045 -0.000968
-0.071682 0.003635 -0.000549
-0.062147 0.000887 -0.000026
-0.062939 -0.004515 -0.000061
-0.075526 0.004082 -0.001291
-0.041250 0.003643 0.000466
-0.035544 0.000063 0.000645
-0.068076 0.001114 -0.000993
-0.044944 -0.004589 0.000676
-0.042412 0.000612 0.001050
-0.062596 -0.001678 -0.000690
-0.036754 -0.003720 0.000655
-0.064521 0.000626 -0.000798
-0.040789 0.002304 0.001137
-0.006028 0.000314 0.001168
-0.062990 0.002410 -0.000718
-0.076872 -0.000024 -0.001471
-0.067049 0.003856 -0.000941
-0.073202 0.001393 -0.001273
-0.008027 0.002373 0.000531
-0.011820 0.000647 0.001190
-0.016225 0.003162 0.000698
-0.013888 -0.000970 0.001201
-0.060438 -0.004143 -0.000569
-0.033864 -0.002512 0.001284
-0.076605 0.000518 -0.000813
-0.041377 0.001049 0.000463
-0.030656 0.003259 0.000621
-0.003661 0.000375 0.001158
0.004859 0.000593 0.001123
-0.066858 0.004431 -0.000781
-0.030153 -0.001621 0.001267
-0.073650 -0.002590 -0.000647
-0.027733 0.003401 0.000609
-0.026482 0.001505 0.001249
-0.042475 0.001459 0.000402
-0.000636 -0.000943 0.000506
-0.036751 -0.002467 0.001295
-0.053552 0.002905 0.000440
-0.037010 -0.002201 0.000654
-0.058462 -0.002351 -0.000464
-0.028147 0.003808 0.001155
-0.060211 -0.001039 -0.000561
-0.039872 0.003601 0.000541
-0.042067 -0.000858 0.000428
-0.048956 -0.004418 0.000058
-0.069047 0.001621 -0.000403
-0.020437 -0.000090 0.001226
-0.039533 0.002154 0.001205
-0.042746 -0.003072 0.000394
-0.050390 0.001871 0.000614
-0.009382 0.000381 0.001181
-0.032474 0.003146 0.001271
-0.058846 0.002721 -0.000492
-0.065217 0.000861 -0.000193
-0.044673 -0.003276 0.000933
-0.073594 -0.003687 -0.000643
-0.047259 0.000805 0.000786
-0.053791 0.001077 -0.000214
-0.031298 0.003980 0.000634
-0.052707 -0.002489 -0.000150
-0.059573 0.002134 -0.000531
-0.008736 0.002460 0.001176
-0.028074 0.000752 0.001256
-0.029592 -0.000301 0.001263
-0.018610 0.002059 0.000574
-0.051367 -0.003609 0.000569
-0.012320 -0.002035 0.000554
-0.049781 -0.000770 0.000007
-0.033020 0.000953 0.001276
-0.056639 -0.000999 0.000277
-0.072627 -0.001212 -0.000594
-0.062979 -0.004178 -0.000707
-0.035692 0.000697 0.001287
-0.061898 0.001557 -0.000657
-0.038573 0.002203 0.001257
-0.031540 0.001835 0.001269
-0.032851 0.000215 0.001276
-0.065725 0.002704 -0.000867
-0.038955 -0.001412 0.001242
-0.046434 0.004365 0.000766
-0.044459 0.003906 0.000290
-0.049362 0.001693 0.000026
-0.033841 0.000386 0.000638
-0.053565 0.003732 -0.000206
-0.016142 -0.000468 0.001209
-0.019599 0.001407 0.001221
-0.073010 0.002143 -0.001263
-0.061063 -0.003223 -0.000604
-0.032113 -0.003484 0.001278
-0.021313 -0.002959 0.000592
-0.068150 0.001861 -0.000998
-0.033849 0.002142 0.000636
-0.039016 -0.003164 0.001241
-0.072004 0.001376 -0.001207
-0.003192 0.001788 0.001154
-0.011038 -0.001149 0.001190
