ply
format ascii 1.0
element vertex 1680
property float x
property float y
property float z
end_header
-0.069263 0.004921 0.001379
-0.068053 0.005140 0.001039
-0.068329 0.005178 0.000551
-0.070409 0.004609 0.001748
-0.067283 0.003172 -0.004361
-0.071341 0.003850 -0.003090
-0.070945 0.003981 -0.002997
-0.070957 0.002902 0.003821
-0.067365 0.004478 0.002790
-0.069998 0.004663 0.001756
-0.068523 0.004854 0.001761
-0.069259 0.005138 -0.000303
-0.067428 0.005282 0.000436
-0.069540 0.003113 0.003896
-0.069184 0.004913 -0.001649
-0.071597 0.003509 -0.003485
-0.070232 0.004966 -0.000683
-0.070927 0.003345 -0.003741
-0.067318 0.005048 0.001610
-0.068640 0.005223 -0.000022
-0.067385 0.002843 -0.004603
-0.068866 0.004132 0.002987
-0.071307 0.004086 -0.002787
-0.066811 0.004660 -0.002827
-0.067682 0.003389 0.003951
-0.068803 0.005052 0.001142
-0.067387 0.004001 -0.003601
-0.071164 0.003075 -0.003914
-0.068548 0.004926 -0.001795
-0.070409 0.004956 0.000350
-0.071322 0.004184 0.002396
-0.071247 0.004787 0.000817
-0.067034 0.005181 0.001363
-0.069705 0.003458 -0.003836
-0.067788 0.004604 0.002556
-0.068016 0.005257 -0.000389
-0.070396 0.004580 -0.002067
-0.069802 0.004496 -0.002461
-0.068180 0.004554 0.002554
-0.066740 0.003430 0.004042
-0.068529 0.004184 -0.003191
-0.068978 0.003606 0.003613
-0.067660 0.004395 -0.003045
-0.069461 0.004992 0.000989
-0.068727 0.003954 -0.003461
-0.068035 0.003279 -0.004193
-0.071309 0.004415 -0.002175
-0.067775 0.005287 0.000146
-0.069521 0.005102 0.000099
-0.069925 0.004792 -0.001706
-0.068805 0.003877 0.003329
-0.067376 0.005197 -0.001323
-0.062301 0.005739 -0.000929
-0.065308 0.004960 -0.002505
-0.061950 0.005751 0.001001
-0.062494 0.004402 0.003708
-0.063716 0.003855 0.004115
-0.062842 0.005158 0.002519
-0.065390 0.004381 0.003250
-0.063865 0.004719 -0.003194
-0.066295 0.002934 -0.004656
-0.066605 0.004973 0.001978
-0.065937 0.005491 -0.000024
-0.062530 0.005722 0.000782
-0.064767 0.005479 -0.001085
-0.063721 0.005561 0.001109
-0.062720 0.005135 -0.002717
-0.065374 0.005443 0.000761
-0.061819 0.004451 -0.003852
-0.063464 0.004031 -0.004133
-0.064262 0.005656 -0.000107
-0.063212 0.003579 -0.004509
-0.065945 0.005013 -0.002222
-0.063577 0.005447 -0.001751
-0.066363 0.004285 -0.003384
-0.066384 0.005351 0.000694
-0.065838 0.004067 -0.003748
-0.062935 0.005351 0.002030
-0.062961 0.003351 -0.004713
-0.064977 0.003331 0.004350
-0.065936 0.005219 -0.001724
-0.065490 0.005233 0.001644
-0.064010 0.005392 0.001649
-0.063061 0.004988 -0.002964
-0.064301 0.004147 0.003736
-0.062287 0.004199 -0.004111
-0.061969 0.005348 0.002291
-0.066195 0.005321 0.001060
-0.064565 0.003647 0.004163
-0.066356 0.005312 -0.001198
-0.062839 0.005730 -0.000593
-0.063977 0.005447 -0.001652
-0.066302 0.005406 -0.000515
-0.064035 0.005600 -0.000712
-0.065919 0.004318 0.003242
-0.061846 0.005853 0.000308
-0.066549 0.003906 -0.003853
-0.062514 0.002644 -0.005207
-0.065950 0.003243 0.004290
-0.062600 0.005799 0.000142
-0.063257 0.003881 0.004155
-0.064794 0.005341 0.001565
-0.064591 0.004939 0.002586
-0.063303 0.004409 0.003564
-0.062236 0.002928 0.005018
-0.062020 0.002939 -0.005131
-0.065341 0.004843 0.002621
-0.066290 0.004823 0.002420
-0.064012 0.005279 -0.002052
-0.065508 0.005376 0.001166
-0.066338 0.004863 -0.002488
-0.064745 0.005200 0.001917
-0.064328 0.003560 -0.004397
-0.061653 0.003076 0.004982
-0.064097 0.005091 0.002350
-0.063564 0.003584 0.004342
-0.062058 0.004675 0.003428
-0.062969 0.005623 -0.001316
-0.066228 0.003488 -0.004237
-0.062442 0.004923 -0.003142
-0.062805 0.003753 -0.004422
-0.063353 0.005630 0.000860
-0.062889 0.003216 0.004712
-0.064685 0.003066 -0.004737
-0.061869 0.005560 -0.001895
-0.066157 0.004995 0.002039
-0.062331 0.005839 -0.000134
-0.065017 0.004012 0.003790
-0.062050 0.004961 0.003057
-0.063444 0.005189 -0.002409
-0.064767 0.005511 0.000701
-0.061921 0.002704 0.005147
-0.062768 0.004621 -0.003488
-0.061877 0.004687 -0.003536
-0.064470 0.005559 -0.000699
-0.064319 0.005563 0.000644
-0.064169 0.004893 0.002788
-0.063385 0.005119 0.002469
-0.064339 0.004465 -0.003455
-0.064846 0.005601 -0.000096
-0.064340 0.005489 0.001187
-0.065924 0.005420 0.000514
-0.062512 0.003525 -0.004630
-0.065250 0.003537 -0.004311
-0.064341 0.005218 0.001980
-0.064109 0.002833 -0.004974
-0.066542 0.003138 0.004293
-0.065676 0.004612 -0.003061
-0.065853 0.003680 -0.004132
-0.065762 0.003531 0.004094
-0.063918 0.004096 0.003867
-0.064953 0.004666 0.002952
-0.063623 0.004690 0.003144
-0.065594 0.002764 -0.004860
-0.064966 0.002902 0.004680
-0.065724 0.004972 0.002211
-0.064713 0.003600 -0.004323
-0.064911 0.004875 -0.002810
-0.062404 0.004446 -0.003770
-0.065547 0.005480 -0.000504
-0.061764 0.003517 -0.004721
-0.066485 0.004549 -0.003022
-0.063909 0.003134 -0.004773
-0.064547 0.004390 0.003379
-0.062213 0.003361 0.004691
-0.062027 0.005070 -0.003013
-0.062514 0.003953 0.004198
-0.063630 0.003220 0.004612
-0.062960 0.005536 0.001575
-0.065952 0.002866 0.004578
-0.063544 0.005419 0.001704
-0.066130 0.004537 0.002922
-0.065327 0.004474 -0.003294
-0.064203 0.005522 -0.001175
-0.064871 0.005191 -0.002052
-0.066335 0.002827 0.004557
-0.063059 0.004440 -0.003680
-0.066107 0.003679 0.003935
-0.063060 0.004963 0.002884
-0.064041 0.004295 -0.003722
-0.061843 0.005835 -0.000530
-0.062198 0.005519 0.001818
-0.064961 0.002727 -0.004937
-0.065574 0.005486 0.000286
-0.061817 0.003601 0.004559
-0.065886 0.004823 0.002527
-0.066511 0.004033 0.003512
-0.062615 0.005383 -0.002140
-0.062736 0.004607 0.003402
-0.061697 0.004838 0.003276
-0.066169 0.004709 -0.002859
-0.063514 0.005695 0.000247
-0.065110 0.003092 -0.004669
-0.064295 0.004623 0.003118
-0.062960 0.002819 -0.005091
-0.062834 0.004198 0.003917
-0.066589 0.004986 -0.002128
-0.065080 0.005518 0.000407
-0.063133 0.005512 -0.001702
-0.063716 0.005626 0.000621
-0.063746 0.004956 0.002767
-0.064397 0.005305 -0.001893
-0.064570 0.002869 0.004757
-0.065925 0.003114 -0.004560
-0.063293 0.004721 -0.003276
-0.061931 0.005301 -0.002509
-0.062851 0.002659 0.005059
-0.065400 0.005409 -0.001162
-0.065484 0.003214 0.004373
-0.062498 0.004807 0.003182
-0.061947 0.005730 -0.001258
-0.062379 0.005666 0.001312
-0.065038 0.004972 0.002389
-0.065302 0.005059 0.002111
-0.066464 0.005215 -0.001605
-0.063104 0.003950 -0.004236
-0.062489 0.005608 -0.001628
-0.065277 0.003866 -0.004054
-0.066646 0.005249 0.001268
-0.066401 0.005132 0.001646
-0.065554 0.002892 0.004610
-0.064299 0.005112 -0.002385
-0.063813 0.004398 0.003492
-0.066067 0.002679 -0.004850
-0.066540 0.003220 -0.004409
-0.063427 0.005275 0.002085
-0.065687 0.004873 -0.002624
-0.063410 0.005558 0.001361
-0.063546 0.002666 0.004977
-0.063971 0.003936 -0.004149
-0.064326 0.004726 -0.003115
-0.065563 0.005312 -0.001590
-0.063457 0.004347 -0.003740
-0.064062 0.005550 0.000931
-0.065967 0.005408 -0.000743
-0.065907 0.005200 0.001613
-0.063760 0.005693 -0.000197
-0.062961 0.005291 -0.002278
-0.063307 0.003124 -0.004849
-0.062287 0.005215 0.002525
-0.066037 0.004482 -0.003176
-0.065679 0.003860 0.003853
-0.062348 0.003661 0.004444
-0.065237 0.005544 -0.000248
-0.063822 0.003507 -0.004496
-0.062342 0.005304 -0.002399
-0.062208 0.004203 0.004016
-0.062988 0.005713 0.000510
-0.063383 0.005581 -0.001339
-0.061673 0.005430 -0.002259
-0.064982 0.003663 0.004096
-0.064318 0.003190 -0.004684
-0.066475 0.004369 0.003082
-0.063433 0.005676 -0.000568
-0.065126 0.005507 -0.000612
-0.065451 0.004140 0.003551
-0.063636 0.002770 -0.005046
-0.062534 0.005365 0.002100
-0.062487 0.005051 0.002867
-0.063245 0.005648 -0.000924
-0.064545 0.004098 -0.003903
-0.063418 0.004169 0.003856
-0.063648 0.004542 -0.003458
-0.061651 0.005738 0.001321
-0.063088 0.005753 0.000127
-0.062440 0.005776 -0.000540
-0.062124 0.003674 -0.004560
-0.062473 0.003137 -0.004934
-0.062927 0.005626 0.001202
-0.064794 0.005455 0.001103
-0.063047 0.003572 0.004420
-0.065804 0.005369 -0.001170
-0.063807 0.005547 -0.001287
-0.062131 0.005782 0.000624
-0.064355 0.004941 -0.002786
-0.066475 0.005414 0.000156
-0.063696 0.005607 -0.000908
-0.061983 0.003984 0.004244
-0.064834 0.003890 -0.004086
-0.061818 0.005499 0.001964
-0.066160 0.003961 0.003665
-0.065015 0.004329 0.003380
-0.065519 0.004619 0.002917
-0.065120 0.005205 0.001809
-0.064450 0.005602 0.000256
-0.066243 0.005094 -0.001954
-0.061949 0.004001 -0.004328
-0.065311 0.004785 -0.002889
-0.064706 0.004362 -0.003533
-0.062683 0.004148 -0.004118
-0.064095 0.003628 0.004239
-0.064005 0.003066 0.004680
-0.063361 0.002979 0.004832
-0.064507 0.003276 0.004454
-0.065005 0.004134 -0.003787
-0.064529 0.005462 -0.001398
-0.063223 0.004732 0.003157
-0.065571 0.003276 -0.004474
-0.062736 0.005686 -0.001015
-0.064928 0.005408 -0.001513
-0.064811 0.005047 -0.002416
-0.063180 0.005738 -0.000276
-0.065339 0.005191 -0.001938
-0.062021 0.005670 0.001501
-0.061839 0.004298 0.003954
-0.065722 0.004356 -0.003388
-0.063869 0.005251 0.002024
-0.064004 0.005632 0.000352
-0.063424 0.005014 -0.002837
-0.063884 0.004982 -0.002804
-0.066163 0.003917 -0.003897
-0.065403 0.004233 -0.003598
-0.064789 0.004663 -0.003128
-0.062376 0.003895 -0.004361
-0.062117 0.003274 -0.004868
-0.063946 0.002708 0.004913
-0.064610 0.003945 0.003929
-0.062274 0.004695 -0.003465
-0.058064 0.005555 -0.002766
-0.059348 0.003067 0.005291
-0.057538 0.006235 0.000309
-0.059132 0.005444 0.002802
-0.056728 0.003168 0.005474
-0.059386 0.002942 -0.005383
-0.059027 0.005896 -0.001774
-0.058523 0.006087 0.000898
-0.060050 0.003698 -0.004777
-0.059753 0.006069 -0.000286
-0.059507 0.005455 -0.002731
-0.058426 0.003978 0.004691
-0.056946 0.005613 -0.002819
-0.060849 0.005791 0.001511
-0.057757 0.004718 0.004031
-0.057363 0.006214 -0.000572
-0.059424 0.005757 -0.002019
-0.059025 0.006074 0.000725
-0.057166 0.005747 0.002443
-0.060731 0.004201 0.004243
-0.057157 0.003252 0.005367
-0.059922 0.002683 -0.005439
-0.056693 0.003584 0.005158
-0.060361 0.002768 0.005298
-0.057060 0.005231 0.003450
-0.058266 0.006043 -0.001401
-0.059936 0.004855 0.003551
-0.060520 0.003341 0.004929
-0.061436 0.005864 0.000523
-0.058387 0.005775 0.002147
-0.057552 0.005770 0.002318
-0.057207 0.005309 -0.003340
-0.059425 0.004402 0.004226
-0.059158 0.005409 -0.002927
-0.059911 0.003099 0.005193
-0.057662 0.005495 -0.002983
-0.061584 0.005822 -0.000819
-0.060458 0.003878 -0.004592
-0.056728 0.006235 -0.000742
-0.059664 0.003229 -0.005182
-0.057093 0.005584 0.002851
-0.057544 0.004085 -0.004710
-0.061248 0.005775 0.001342
-0.058121 0.002648 0.005572
-0.060404 0.004362 0.004114
-0.059404 0.005024 0.003421
-0.059920 0.005491 -0.002542
-0.059390 0.004866 -0.003676
-0.057075 0.005753 -0.002457
-0.056796 0.002714 -0.005659
-0.057471 0.005698 -0.002524
-0.061116 0.004686 0.003572
-0.058862 0.005312 0.003124
-0.059243 0.004625 0.003967
-0.061327 0.002798 0.005176
-0.057744 0.006033 -0.001663
-0.057312 0.004801 -0.003994
-0.058925 0.003676 -0.004916
-0.061104 0.005291 -0.002735
-0.061578 0.004062 0.004238
-0.057703 0.003639 -0.005041
-0.060087 0.005923 -0.001150
-0.058023 0.006162 -0.000619
-0.060955 0.005574 -0.002088
-0.056928 0.005903 0.002114
-0.059129 0.004198 -0.004496
-0.060849 0.005977 0.000111
-0.058543 0.006174 -0.000253
-0.056845 0.004886 0.003925
-0.059380 0.005207 -0.003232
-0.060332 0.005946 -0.000801
-0.060322 0.005500 -0.002421
-0.057000 0.004327 -0.004566
-0.060553 0.004806 0.003511
-0.058938 0.004872 -0.003729
-0.060073 0.005703 0.001932
-0.057696 0.006122 -0.001100
-0.057549 0.002655 0.005617
-0.058367 0.005753 -0.002233
-0.059888 0.006077 0.000083
-0.058899 0.004233 0.004450
-0.057808 0.005862 0.002047
-0.060253 0.005844 -0.001603
-0.058423 0.006024 0.001427
-0.060270 0.006049 -0.000053
-0.057766 0.005174 0.003438
-0.057611 0.003022 0.005461
-0.059350 0.003884 -0.004713
-0.058525 0.004954 -0.003666
-0.058651 0.003227 0.005243
-0.058810 0.005371 -0.003084
-0.061531 0.005312 0.002489
-0.060674 0.005882 -0.001035
-0.057253 0.003791 -0.004959
-0.057469 0.006169 0.000842
-0.057147 0.006250 0.000407
-0.058581 0.003663 0.004917
-0.058325 0.005947 -0.001771
-0.061235 0.005799 -0.001258
-0.056815 0.006186 0.001060
-0.056930 0.003075 -0.005500
-0.057518 0.006113 0.001232
-0.060071 0.004538 0.003940
-0.058979 0.004845 0.003717
-0.060433 0.004804 -0.003600
-0.059518 0.005796 0.001854
-0.060765 0.002725 0.005270
-0.059859 0.005510 0.002451
-0.056840 0.004741 -0.004122
-0.061301 0.005903 -0.000409
-0.059781 0.004042 0.004490
-0.058030 0.004866 0.003806
-0.060360 0.005804 0.001615
-0.058832 0.006106 -0.000621
-0.058769 0.004433 -0.004322
-0.057138 0.002834 0.005578
-0.056869 0.005939 -0.002041
-0.057425 0.006102 -0.001397
-0.057750 0.004752 -0.004012
-0.057579 0.005594 0.002734
-0.057888 0.002779 -0.005560
-0.061189 0.004082 -0.004352
-0.058162 0.005631 0.002537
-0.056818 0.006077 0.001717
-0.058949 0.005602 -0.002501
-0.059292 0.003573 0.004912
-0.058000 0.006243 -0.000013
-0.060369 0.004215 -0.004343
-0.061236 0.003741 0.004528
-0.061384 0.004449 -0.003919
-0.060444 0.005131 0.003107
-0.058415 0.004976 0.003616
-0.057336 0.003973 0.004800
-0.057353 0.004715 0.004086
-0.061586 0.004505 0.003728
-0.057955 0.004431 0.004381
-0.061507 0.005615 0.001769
-0.057843 0.006028 0.001640
-0.060912 0.005245 0.002813
-0.059558 0.005977 0.001079
-0.059837 0.003476 0.004915
-0.058959 0.005688 0.002246
-0.060788 0.004134 -0.004358
-0.057930 0.005796 -0.002206
-0.058521 0.003592 -0.005013
-0.061645 0.003203 -0.004977
-0.058144 0.003217 -0.005331
-0.060961 0.003843 -0.004562
-0.056973 0.006172 -0.001101
-0.059561 0.005938 -0.001432
-0.059294 0.003586 -0.004949
-0.057680 0.003178 -0.005398
-0.060562 0.005397 0.002540
-0.061313 0.004284 0.004062
-0.058142 0.004875 -0.003810
-0.058762 0.006167 0.000167
-0.058274 0.003469 0.005094
-0.060928 0.003123 0.005041
-0.058393 0.005218 0.003305
-0.058941 0.006038 -0.001086
-0.057108 0.006276 -0.000226
-0.059145 0.005914 0.001668
-0.059189 0.004502 -0.004182
-0.061315 0.005675 -0.001753
-0.057742 0.003517 0.005109
-0.058400 0.005403 -0.003077
-0.057138 0.006041 -0.001749
-0.060617 0.004544 -0.003911
-0.059946 0.005910 0.001288
-0.059998 0.006004 0.000546
-0.057332 0.003513 0.005151
-0.060135 0.004492 -0.004053
-0.058330 0.005481 0.002865
-0.058624 0.003205 -0.005303
-0.059359 0.006060 -0.000648
-0.059550 0.005321 0.002988
-0.057156 0.006110 0.001447
-0.057379 0.004432 -0.004455
-0.060502 0.005979 -0.000422
-0.060125 0.005289 0.002915
-0.058334 0.002960 0.005426
-0.058382 0.004508 0.004229
-0.059162 0.006123 0.000274
-0.058238 0.004463 -0.004339
-0.061346 0.003445 0.004741
-0.060540 0.005631 0.001984
-0.059672 0.002802 0.005363
-0.061577 0.004115 -0.004283
-0.061265 0.005520 0.002059
-0.058002 0.003178 0.005344
-0.056795 0.003819 -0.004973
-0.060896 0.005752 -0.001670
-0.057378 0.002686 -0.005632
-0.058951 0.005111 -0.003417
-0.060939 0.005416 0.002395
-0.057562 0.005046 -0.003647
-0.057272 0.005985 0.001854
-0.057578 0.004362 0.004479
-0.059822 0.005997 -0.000791
-0.060872 0.005921 0.000519
-0.060138 0.004172 0.004342
-0.059486 0.005621 0.002282
-0.058265 0.004019 -0.004704
-0.059045 0.003871 0.004713
-0.061304 0.004806 -0.003466
-0.061245 0.003116 -0.005089
-0.060848 0.004498 0.003860
-0.058741 0.003981 -0.004696
-0.060978 0.002884 -0.005254
-0.058551 0.005529 -0.002746
-0.061370 0.002694 -0.005296
-0.060417 0.005892 0.001080
-0.057301 0.005864 -0.002150
-0.058858 0.004626 0.004018
-0.060680 0.005176 -0.003076
-0.056818 0.006126 -0.001528
-0.060806 0.005407 -0.002526
-0.061541 0.005156 0.002864
-0.059808 0.005757 -0.001923
-0.060348 0.005299 -0.002901
-0.060741 0.003654 0.004660
-0.060293 0.003134 -0.005183
-0.059925 0.005120 0.003209
-0.056841 0.005456 0.003186
-0.057462 0.006272 -0.000072
-0.056746 0.004433 0.004504
-0.056892 0.003946 0.004862
-0.061649 0.005902 -0.000159
-0.057198 0.003451 -0.005225
-0.059086 0.006002 0.001228
-0.061118 0.005872 -0.000785
-0.056766 0.005470 -0.003176
-0.056860 0.006309 0.000113
-0.061550 0.005022 -0.003147
-0.058617 0.004680 -0.004015
-0.060542 0.003562 -0.004826
-0.060101 0.006007 -0.000505
-0.058297 0.002837 -0.005509
-0.058049 0.005127 -0.003490
-0.059551 0.004549 -0.004065
-0.060031 0.004742 -0.003742
-0.057773 0.004439 -0.004419
-0.061499 0.005231 -0.002784
-0.057793 0.004040 0.004704
-0.060352 0.005989 0.000393
-0.061302 0.004925 0.003230
-0.059463 0.003896 0.004643
-0.060286 0.003836 0.004581
-0.059962 0.005127 -0.003249
-0.058665 0.005592 0.002535
-0.061005 0.004463 -0.003959
-0.060467 0.005626 -0.002079
-0.061089 0.003470 -0.004834
-0.061564 0.005802 0.000904
-0.060894 0.004944 0.003274
-0.059386 0.006003 -0.001060
-0.059633 0.004591 0.003945
-0.058753 0.005787 -0.002085
-0.057092 0.004255 0.004607
-0.057022 0.004987 -0.003781
-0.061015 0.005843 0.000998
-0.058479 0.006105 -0.000814
-0.058003 0.006114 0.000973
-0.057457 0.005411 0.003169
-0.058756 0.005861 0.001870
-0.060902 0.004825 -0.003501
-0.059076 0.006151 -0.000149
-0.058797 0.006001 -0.001452
-0.057389 0.005025 0.003678
-0.058887 0.002849 -0.005465
-0.059339 0.005614 -0.002385
-0.057962 0.005364 -0.003189
-0.057830 0.006182 0.000549
-0.060739 0.003220 -0.005067
-0.060292 0.005530 0.002289
-0.061100 0.004066 0.004297
-0.058155 0.003762 0.004882
-0.057870 0.005419 0.003100
-0.059669 0.003687 -0.004829
-0.059568 0.006079 0.000302
-0.058228 0.005953 0.001748
-0.059972 0.003399 -0.005015
-0.059815 0.004331 -0.004312
-0.058343 0.006164 0.000412
-0.059979 0.004005 -0.004548
-0.061271 0.005427 -0.002364
-0.059117 0.003241 -0.005234
-0.059544 0.005924 0.001491
-0.058849 0.002930 0.005395
-0.056787 0.005209 -0.003514
-0.061404 0.003658 -0.004654
-0.061168 0.005090 -0.003116
-0.060331 0.005042 -0.003304
-0.058097 0.003573 -0.005060
-0.058479 0.004731 0.003927
-0.059045 0.003304 0.005147
-0.059604 0.006025 0.000687
-0.061384 0.005919 0.000148
-0.051880 0.004800 -0.004564
-0.054759 0.006359 0.000858
-0.055715 0.002885 0.005677
-0.052217 0.005741 0.003382
-0.053397 0.004943 -0.004218
-0.053274 0.003189 0.005757
-0.052438 0.005796 -0.003152
-0.056502 0.005317 0.003407
-0.054273 0.004929 0.004185
-0.052067 0.006531 -0.000925
-0.055399 0.004794 -0.004204
-0.053630 0.005664 0.003310
-0.053383 0.004958 0.004257
-0.052714 0.006324 -0.001824
-0.055913 0.002890 -0.005644
-0.054863 0.006387 -0.000558
-0.056637 0.004207 -0.004687
-0.054155 0.003931 0.005138
-0.056549 0.004692 0.004214
-0.055128 0.002748 0.005782
-0.054532 0.005957 -0.002402
-0.051949 0.005160 0.004169
-0.055620 0.006197 0.001616
-0.052315 0.004124 -0.005089
-0.053463 0.004298 -0.004866
-0.052161 0.005911 0.002997
-0.054733 0.005595 0.003264
-0.053666 0.005099 -0.003986
-0.055431 0.005477 -0.003307
-0.053600 0.003311 -0.005614
-0.054694 0.003284 -0.005550
-0.051936 0.006464 -0.001503
-0.053115 0.004646 0.004691
-0.051830 0.006623 -0.000338
-0.054333 0.005676 -0.003116
-0.052041 0.006487 0.001345
-0.056044 0.004798 0.004138
-0.053118 0.006555 0.000264
-0.052935 0.004215 0.005038
-0.051737 0.003855 0.005429
-0.056322 0.004332 0.004622
-0.053127 0.005949 0.002723
-0.055659 0.005912 -0.002315
-0.054045 0.005195 0.003868
-0.056271 0.003036 0.005568
-0.051790 0.006237 0.002285
-0.054944 0.006097 0.002025
-0.055826 0.004102 -0.004831
-0.055668 0.006177 -0.001671
-0.052812 0.005746 -0.003209
-0.055541 0.005784 0.002663
-0.052370 0.006464 -0.001275
-0.054036 0.003339 -0.005559
-0.055115 0.005874 -0.002503
-0.052604 0.006528 -0.000663
-0.055016 0.004759 -0.004289
-0.056085 0.006138 -0.001695
-0.056491 0.006304 -0.000339
-0.052810 0.005097 0.004145
-0.052542 0.004935 -0.004318
-0.053400 0.002736 0.005933
-0.055384 0.003663 -0.005204
-0.056002 0.006308 -0.000564
-0.054217 0.006435 0.000579
-0.055055 0.006129 -0.001894
-0.052806 0.005191 -0.003955
-0.054424 0.004442 -0.004678
-0.055120 0.003403 0.005448
-0.054942 0.003095 0.005655
-0.055953 0.003546 0.005259
-0.056323 0.005789 -0.002499
-0.053770 0.004073 -0.005014
-0.055833 0.006375 0.000171
-0.053761 0.004541 0.004709
-0.054576 0.006301 -0.001373
-0.052643 0.003556 -0.005501
-0.053326 0.003644 -0.005379
-0.054660 0.005744 -0.002897
-0.052187 0.004398 0.004970
-0.055441 0.006262 0.001221
-0.051737 0.005468 -0.003706
-0.054962 0.002855 -0.005722
-0.056339 0.006166 0.001463
-0.052672 0.006500 0.000911
-0.053399 0.004128 0.005060
-0.055543 0.003205 0.005560
-0.055526 0.006336 -0.000597
-0.054854 0.003838 0.005141
-0.052551 0.005513 -0.003562
-0.056014 0.004152 0.004790
-0.053408 0.006200 0.002066
-0.054826 0.004852 0.004217
-0.056345 0.005229 -0.003535
-0.052358 0.002723 -0.005948
-0.054765 0.006454 -0.000090
-0.055039 0.006253 -0.001491
-0.056624 0.004995 -0.003812
-0.055590 0.005241 -0.003598
-0.052361 0.004475 -0.004815
-0.053851 0.006352 0.001401
-0.051914 0.004806 0.004634
-0.052939 0.004003 -0.005133
-0.054505 0.005477 -0.003404
-0.053350 0.005787 0.003071
-0.054968 0.004341 -0.004714
-0.053146 0.006414 0.001305
-0.053012 0.004897 -0.004318
-0.055087 0.005075 0.003896
-0.052348 0.006027 0.002682
-0.053238 0.006303 -0.001785
-0.056582 0.003389 -0.005321
-0.053689 0.003723 0.005342
-0.053032 0.003446 -0.005555
-0.052236 0.003369 0.005752
-0.055860 0.003850 0.005036
-0.054774 0.006332 -0.001024
-0.055500 0.006276 -0.001073
-0.053751 0.006003 0.002477
-0.054368 0.006084 0.002163
-0.053734 0.003324 0.005643
-0.056532 0.004558 -0.004393
-0.053929 0.006187 0.001999
-0.051847 0.003568 -0.005554
-0.055609 0.004256 0.004749
-0.053467 0.006438 -0.000897
-0.054505 0.003728 -0.005222
-0.052034 0.005997 -0.002734
-0.055469 0.003538 0.005312
-0.056596 0.002807 0.005635
-0.055402 0.002919 -0.005666
-0.055937 0.005468 -0.003265
-0.055065 0.006399 0.000391
-0.051839 0.006551 0.000974
-0.053229 0.005293 0.003840
-0.055660 0.004804 0.004177
-0.055539 0.006344 0.000554
-0.056411 0.005977 0.002034
-0.056606 0.005627 0.002840
-0.051802 0.003975 -0.005244
-0.054392 0.004861 -0.004220
-0.053363 0.005844 -0.002875
-0.056231 0.006203 -0.001253
-0.054106 0.005287 -0.003693
-0.052622 0.005338 0.003856
-0.055718 0.005911 0.002324
-0.056500 0.006086 -0.001748
-0.052783 0.006433 -0.001296
-0.056095 0.004446 -0.004545
-0.055940 0.005730 0.002718
-0.053756 0.003664 -0.005331
-0.053882 0.004171 0.004980
-0.054131 0.003361 0.005576
-0.055288 0.005061 -0.003866
-0.054021 0.004937 -0.004160
-0.051820 0.005196 -0.004052
-0.055212 0.004832 0.004195
-0.052609 0.006614 0.000086
-0.055367 0.004429 -0.004615
-0.053770 0.006421 0.000925
-0.053662 0.005405 -0.003586
-0.054658 0.003578 0.005360
-0.052521 0.006175 0.002296
-0.053674 0.005653 -0.003261
-0.053148 0.005548 -0.003452
-0.056371 0.004911 0.003951
-0.056306 0.003055 -0.005550
-0.052117 0.006393 0.001846
-0.054897 0.005499 -0.003334
-0.055927 0.005229 0.003593
-0.052602 0.005958 -0.002730
-0.055181 0.005309 -0.003552
-0.055368 0.005393 0.003448
-0.052818 0.005674 0.003395
-0.053491 0.006354 0.001572
-0.053690 0.005852 0.002851
-0.051900 0.006666 0.000076
-0.054200 0.006266 -0.001709
-0.055185 0.004211 0.004825
-0.054011 0.006457 -0.000467
-0.052311 0.003234 -0.005738
-0.054741 0.004541 0.004614
-0.055827 0.006236 0.001219
-0.053212 0.004612 -0.004643
-0.054684 0.006213 -0.001753
-0.054171 0.003911 -0.005107
-0.053037 0.006499 -0.000661
-0.052582 0.006455 0.001302
-0.052965 0.002951 0.005880
-0.054137 0.006292 0.001693
-0.054774 0.004198 0.004874
-0.056014 0.005981 -0.002085
-0.054524 0.006276 0.001605
-0.054797 0.006305 0.001239
-0.055366 0.003919 0.005030
-0.052251 0.006373 -0.001785
-0.054514 0.003126 0.005678
-0.054091 0.002996 -0.005720
-0.052927 0.006149 0.002280
-0.056205 0.004729 -0.004204
-0.054265 0.006345 0.001229
-0.051817 0.004307 0.005075
-0.053554 0.006505 -0.000338
-0.055517 0.005774 -0.002675
-0.055912 0.006285 0.000800
-0.053665 0.006365 -0.001355
-0.053304 0.005536 0.003514
-0.052441 0.004628 0.004770
-0.052801 0.004409 -0.004831
-0.055132 0.005817 0.002661
-0.052164 0.005628 -0.003452
-0.055828 0.005659 -0.002900
-0.054810 0.005360 0.003560
-0.052463 0.006225 -0.002108
-0.052295 0.004876 0.004496
-0.054030 0.002667 0.005908
-0.053204 0.006022 -0.002474
-0.055414 0.003344 -0.005447
-0.055323 0.005954 0.002295
-0.052891 0.006556 -0.000293
-0.053744 0.006212 -0.001919
-0.056285 0.003372 0.005360
-0.054579 0.005193 -0.003766
-0.055884 0.003609 -0.005206
-0.052231 0.006579 0.000550
-0.052771 0.005908 0.002887
-0.051942 0.004435 -0.004879
-0.055964 0.004469 0.004552
-0.055054 0.006233 0.001655
-0.053828 0.004634 -0.004577
-0.053883 0.006012 -0.002377
-0.052674 0.004705 -0.004605
-0.052698 0.003020 -0.005802
-0.056355 0.005624 -0.002894
-0.051726 0.006388 -0.001840
-0.052172 0.003005 0.005925
-0.056268 0.003580 -0.005198
-0.055272 0.004589 0.004505
-0.053213 0.006391 -0.001393
-0.053178 0.003502 0.005560
-0.053004 0.006201 -0.002072
-0.053719 0.005885 -0.002716
-0.055845 0.006226 -0.001274
-0.052743 0.004871 0.004448
-0.052052 0.006231 -0.002164
-0.055462 0.005625 0.003060
-0.054828 0.003967 -0.005013
-0.055542 0.005076 0.003839
-0.054355 0.005575 0.003336
-0.052712 0.006549 0.000524
-0.056237 0.003927 -0.004934
-0.052836 0.003374 0.005691
-0.056245 0.005840 0.002395
-0.052635 0.006399 0.001689
-0.052163 0.003727 -0.005406
-0.056314 0.006271 0.000692
-0.054183 0.005897 -0.002605
-0.054283 0.004442 0.004734
-0.051851 0.005606 0.003602
-0.054087 0.005774 0.002963
-0.052291 0.006513 0.001019
-0.055197 0.006335 0.000800
-0.054110 0.005926 0.002591
-0.055443 0.006404 0.000159
-0.052178 0.005354 0.003889
-0.054861 0.004992 -0.004000
-0.051777 0.005866 0.003179
-0.055942 0.006020 0.002020
-0.053846 0.004841 0.004352
-0.054986 0.003683 -0.005219
-0.054421 0.004694 0.004472
-0.055962 0.005553 0.003140
-0.052117 0.005331 -0.003845
-0.053574 0.002932 -0.005781
-0.055106 0.005726 -0.002862
-0.053683 0.005403 0.003641
-0.054044 0.005536 -0.003376
-0.053550 0.006534 0.000187
-0.052175 0.005021 -0.004244
-0.053160 0.006473 0.000854
-0.051787 0.002741 0.006067
-0.054034 0.006359 -0.001203
-0.053954 0.006513 -0.000072
-0.056152 0.002652 0.005736
-0.052054 0.005839 -0.003115
-0.056229 0.006363 -0.000022
-0.053514 0.006481 0.000605
-0.056339 0.005538 0.003105
-0.055201 0.006397 -0.000307
-0.054827 0.005739 0.002906
-0.054436 0.006435 -0.000417
-0.056461 0.003859 0.004971
-0.051696 0.006129 -0.002473
-0.055322 0.003982 -0.004963
-0.052502 0.003923 0.005302
-0.054484 0.002893 -0.005737
-0.053859 0.006480 0.000432
-0.054701 0.005970 0.002374
-0.054384 0.006487 0.000102
-0.056201 0.004969 -0.003890
-0.053881 0.006417 -0.000838
-0.051708 0.006486 0.001529
-0.052075 0.004003 0.005282
-0.053201 0.005180 -0.003928
-0.055741 0.004658 -0.004345
-0.055823 0.004957 -0.003945
-0.053126 0.003831 0.005313
-0.053084 0.003091 -0.005747
-0.054443 0.005810 0.002809
-0.053993 0.005766 -0.002957
-0.055379 0.006115 0.001899
-0.054514 0.005198 0.003806
-0.056640 0.006276 0.000475
-0.056612 0.005772 0.002489
-0.054327 0.006387 -0.000837
-0.051858 0.002862 -0.005923
-0.056332 0.006260 -0.000764
-0.052412 0.006594 -0.000260
-0.052918 0.006297 0.001924
-0.052317 0.006091 -0.002457
-0.055795 0.006369 -0.000208
-0.054672 0.004676 -0.004433
-0.052518 0.003579 0.005565
-0.054133 0.004214 -0.004878
-0.051963 0.006072 0.002649
-0.054285 0.006113 -0.002065
-0.053358 0.003998 -0.005104
-0.053663 0.005156 0.003965
-0.053359 0.006051 0.002432
-0.049535 0.004429 -0.005072
-0.048054 0.005714 -0.003715
-0.049320 0.004134 -0.005316
-0.048800 0.005445 -0.004023
-0.049202 0.003104 0.006129
-0.048798 0.005244 0.004421
-0.050217 0.005643 0.003754
-0.047577 0.004520 -0.005097
-0.051027 0.005967 0.003078
-0.047476 0.006832 0.000799
-0.048352 0.006379 0.002522
-0.050346 0.006183 0.002685
-0.050064 0.004816 0.004848
-0.050096 0.005652 -0.003637
-0.048522 0.003679 -0.005703
-0.050510 0.005786 -0.003419
-0.048146 0.002707 -0.006200
-0.047247 0.006232 0.003005
-0.047982 0.006688 -0.001583
-0.050061 0.006439 0.002123
-0.051220 0.003024 0.005997
-0.049718 0.006476 -0.001972
-0.047350 0.002961 -0.006123
-0.047943 0.006787 0.000990
-0.049481 0.005296 0.004295
-0.048374 0.005319 -0.004213
-0.051443 0.006507 -0.001433
-0.050883 0.005830 0.003429
-0.050914 0.006618 -0.000860
-0.049727 0.006620 0.001574
-0.048640 0.002689 -0.006190
-0.051292 0.006504 0.001620
-0.049278 0.006248 0.002729
-0.046830 0.006747 0.001655
-0.047932 0.003052 -0.006064
-0.048975 0.004992 0.004736
-0.050902 0.005809 -0.003348
-0.047364 0.006077 -0.003207
-0.047709 0.006290 0.002810
-0.048139 0.003662 -0.005733
-0.047114 0.004008 -0.005511
-0.051072 0.006328 0.002200
-0.049696 0.006820 0.000052
-0.049191 0.006722 0.001071
-0.048364 0.006720 -0.001227
-0.050799 0.003573 -0.005632
-0.050611 0.006461 0.001968
-0.050832 0.004402 -0.004991
-0.051363 0.005670 -0.003480
-0.049705 0.004125 0.005418
-0.047824 0.006044 0.003389
-0.051269 0.006650 -0.000432
-0.050439 0.003818 -0.005471
-0.049127 0.006847 -0.000006
-0.050606 0.003708 0.005649
-0.049936 0.006200 0.002724
-0.050558 0.006675 -0.000609
-0.050476 0.005415 -0.003907
-0.049674 0.004473 0.005154
-0.047934 0.003949 0.005674
-0.048677 0.003083 0.006167
-0.050682 0.006409 -0.001967
-0.047290 0.005775 0.003848
-0.050216 0.006748 0.000361
-0.047144 0.006703 0.001875
-0.047101 0.005044 -0.004647
-0.049595 0.002675 0.006278
-0.048340 0.004733 0.005049
-0.049092 0.006723 -0.000977
-0.051514 0.006611 0.000696
-0.048516 0.004091 0.005529
-0.050333 0.006612 0.001320
-0.049334 0.003067 -0.006004
-0.050548 0.004615 0.004962
-0.049577 0.006127 0.002968
-0.049027 0.006663 -0.001461
-0.050583 0.006741 0.000209
-0.047435 0.005782 -0.003663
-0.051035 0.004861 -0.004573
-0.049908 0.002922 0.006150
-0.046921 0.003336 -0.005982
-0.047540 0.006595 0.002099
-0.046746 0.005224 0.004606
-0.049996 0.006644 -0.001141
-0.046733 0.006780 -0.001271
-0.048796 0.003300 -0.005930
-0.050480 0.004998 -0.004452
-0.047224 0.003402 0.006113
-0.046705 0.004053 0.005669
-0.051158 0.006677 0.000386
-0.051387 0.004877 0.004606
-0.051581 0.006657 0.000315
-0.048108 0.004962 -0.004695
-0.047856 0.004521 0.005240
-0.047709 0.003508 -0.005871
-0.048050 0.006777 -0.000883
-0.047937 0.004844 0.004989
-0.050869 0.006560 -0.001336
-0.049756 0.006734 0.000708
-0.047509 0.003040 0.006247
-0.050820 0.006543 0.001581
-0.047159 0.006939 0.000089
-0.049137 0.006633 0.001765
-0.049368 0.005955 -0.003296
-0.050130 0.006024 -0.002997
-0.048005 0.005740 0.003838
-0.049620 0.005038 -0.004490
-0.049908 0.003619 0.005785
-0.051467 0.006587 -0.000809
-0.050391 0.002719 0.006192
-0.049189 0.003896 0.005637
-0.049597 0.006631 -0.001456
-0.047044 0.004925 0.004971
-0.047528 0.004943 -0.004755
-0.048498 0.004910 -0.004740
-0.046698 0.004635 -0.005046
-0.050503 0.004011 0.005428
-0.051314 0.005104 -0.004226
-0.047576 0.005358 0.004367
-0.049757 0.003609 -0.005685
-0.050732 0.004075 -0.005251
-0.049206 0.003554 -0.005770
-0.050905 0.002782 0.006123
-0.048608 0.005558 0.004028
-0.048019 0.006872 0.000331
-0.047393 0.006321 -0.002612
-0.049482 0.006691 -0.001053
-0.049334 0.006146 -0.002838
-0.048847 0.005099 -0.004473
-0.051596 0.006038 0.002797
-0.051543 0.003535 0.005692
-0.048953 0.004468 -0.005077
-0.049800 0.006665 0.001199
-0.046799 0.006929 0.000289
-0.048874 0.006782 0.000727
-0.048228 0.004444 0.005276
-0.049681 0.006334 0.002451
-0.047364 0.006875 -0.000341
-0.048074 0.005480 -0.004020
-0.047569 0.006877 0.000431
-0.050162 0.005982 0.003204
-0.048293 0.006851 -0.000239
-0.051031 0.006477 -0.001745
-0.050265 0.003148 -0.005909
-0.047886 0.003531 0.005996
-0.049004 0.006391 -0.002282
-0.048355 0.006097 -0.003061
-0.048134 0.006256 0.002843
-0.048496 0.006790 0.000794
-0.049712 0.005883 0.003505
-0.047492 0.004145 -0.005389
-0.048832 0.004003 -0.005441
-0.049993 0.004430 -0.005035
-0.051089 0.003806 0.005529
-0.046924 0.006217 -0.002910
-0.049184 0.005798 0.003673
-0.050655 0.006205 -0.002468
-0.047213 0.006085 0.003363
-0.051348 0.005335 0.004016
-0.051354 0.006339 -0.002022
-0.049785 0.005820 -0.003450
-0.047894 0.006384 -0.002410
-0.051650 0.006398 0.001922
-0.050129 0.003489 -0.005749
-0.049819 0.006237 -0.002533
-0.051319 0.004607 0.004894
-0.048701 0.006641 -0.001706
-0.049980 0.005323 0.004198
-0.048671 0.006198 -0.002782
-0.049159 0.003462 0.005970
-0.047040 0.006819 0.001043
-0.047149 0.005234 0.004563
-0.048541 0.006343 -0.002443
-0.046882 0.005667 0.004021
-0.050696 0.006664 0.000733
-0.048490 0.003641 0.005875
-0.049516 0.004876 0.004837
-0.050384 0.003142 0.006019
-0.048227 0.004996 0.004788
-0.050211 0.005235 -0.004169
-0.048232 0.005329 0.004355
-0.050512 0.006625 -0.001022
-0.051579 0.003209 -0.005797
-0.049906 0.003277 0.006003
-0.048840 0.006040 -0.003150
-0.050370 0.005288 0.004196
-0.047247 0.004510 0.005286
-0.046930 0.006892 -0.000347
-0.047594 0.006706 0.001715
-0.047484 0.004741 0.005096
-0.046740 0.003427 0.006129
-0.051020 0.006131 0.002685
-0.049413 0.006294 -0.002466
-0.048506 0.005688 -0.003722
-0.050861 0.005210 -0.004134
-0.047539 0.006631 -0.001845
-0.050889 0.004417 0.005080
-0.048025 0.006675 0.001809
-0.050274 0.006747 -0.000208
-0.048853 0.006171 0.002963
-0.046774 0.006081 -0.003257
-0.050586 0.005952 0.003195
-0.051056 0.003223 -0.005826
-0.046660 0.003038 0.006294
-0.049352 0.002665 -0.006171
-0.051280 0.006574 0.001102
-0.051154 0.004178 -0.005139
-0.046690 0.004035 -0.005509
-0.050962 0.002674 -0.006060
-0.051399 0.004422 -0.004931
-0.049882 0.002803 -0.006078
-0.048926 0.006331 0.002571
-0.049909 0.004867 -0.004682
-0.047882 0.006551 -0.002005
-0.047554 0.005374 -0.004190
-0.046973 0.004296 0.005467
-0.048275 0.006606 -0.001833
-0.051388 0.003554 -0.005600
-0.050106 0.003942 0.005519
-0.049991 0.006722 -0.000551
-0.050958 0.005565 -0.003660
-0.049240 0.004939 -0.004659
-0.049425 0.006525 0.002038
-0.051332 0.006700 -0.000010
-0.046717 0.006250 0.003025
-0.048869 0.006698 0.001365
-0.048450 0.004501 -0.005074
-0.047956 0.004015 -0.005469
-0.047785 0.006840 -0.000479
-0.047179 0.006757 -0.001306
-0.047004 0.005394 -0.004196
-0.046953 0.003689 -0.005764
-0.049182 0.006526 -0.001937
-0.048952 0.006501 0.002160
-0.049559 0.003454 0.005945
-0.047813 0.006431 0.002459
-0.048612 0.006486 -0.002091
-0.049213 0.006785 -0.000465
-0.048027 0.005193 -0.004398
-0.046984 0.006467 0.002472
-0.050678 0.005430 0.003974
-0.048097 0.002962 0.006248
-0.050033 0.003957 -0.005396
-0.048390 0.006612 0.001957
-0.048339 0.003349 -0.005926
-0.047532 0.005106 0.004698
-0.046688 0.003740 0.005909
-0.051014 0.006033 -0.002822
-0.047349 0.003781 0.005838
-0.050420 0.006548 -0.001655
-0.047327 0.003445 -0.005922
-0.047808 0.002700 0.006371
-0.050337 0.004147 -0.005226
-0.049278 0.005507 -0.003913
-0.048547 0.006855 0.000290
-0.049789 0.005478 -0.003897
-0.050702 0.005027 0.004496
-0.049383 0.005989 0.003334
-0.046803 0.006637 -0.001905
-0.047922 0.004707 -0.004938
-0.050450 0.004467 -0.004971
-0.047868 0.006889 -0.000074
-0.049404 0.005546 0.003979
-0.051350 0.002817 -0.005976
-0.049762 0.005643 0.003809
-0.051604 0.005967 -0.002881
-0.050524 0.006319 0.002326
-0.050608 0.006015 -0.002937
-0.050794 0.006601 0.001155
-0.047198 0.006809 -0.000904
-0.047241 0.002637 0.006428
-0.049041 0.005437 0.004153
-0.048696 0.006830 -0.000274
-0.050168 0.006571 0.001712
-0.051052 0.005188 0.004242
-0.046932 0.005651 -0.003863
-0.051589 0.003179 0.005902
-0.051288 0.004227 0.005187
-0.047918 0.005980 -0.003374
-0.048311 0.006748 0.001168
-0.050908 0.006701 -0.000221
-0.049050 0.004233 0.005388
-0.049028 0.004673 0.005052
-0.046915 0.006490 -0.002250
-0.050166 0.004311 0.005231
-0.048933 0.002936 -0.006076
-0.047586 0.006760 0.001308
-0.051004 0.004807 0.004744
-0.046897 0.004301 -0.005295
-0.049881 0.005075 0.004533
-0.050131 0.006688 0.000856
-0.048301 0.006088 0.003229
-0.046826 0.004677 0.005184
-0.051176 0.003876 -0.005369
-0.051285 0.005762 0.003468
-0.047577 0.005597 0.004058
-0.050105 0.006358 -0.002190
-0.047480 0.003813 -0.005646
-0.049601 0.006747 -0.000564
-0.051292 0.005393 -0.003851
-0.049455 0.005707 -0.003632
-0.048380 0.005865 0.003648
-0.048106 0.006238 -0.002742
-0.048779 0.005892 0.003581
-0.047460 0.004244 0.005477
-0.048934 0.005782 -0.003574
-0.050017 0.006590 -0.001549
-0.047645 0.006755 -0.001182
-0.048331 0.004215 -0.005299
-0.048886 0.004797 -0.004827
-0.047058 0.005871 -0.003569
-0.046833 0.006039 0.003518
-0.051427 0.006187 0.002471
-0.049352 0.006802 0.000413
-0.047008 0.006879 0.000604
-0.050731 0.002998 -0.005941
-0.048763 0.006638 0.001850
-0.047426 0.006411 0.002555
-0.046863 0.002898 -0.006167
-0.047213 0.004773 -0.004917
-0.051276 0.006125 -0.002553
-0.048644 0.004502 0.005207
-0.050964 0.005595 0.003725
-0.047433 0.006482 -0.002217
-0.047068 0.003036 0.006272
-0.049698 0.003187 -0.005931
-0.048769 0.006776 -0.000669
-0.051033 0.003387 0.005854
-0.049179 0.005228 -0.004284
-0.048252 0.006448 -0.002218
-0.047644 0.006193 -0.002896
-0.051441 0.004837 -0.004561
-0.047203 0.006761 0.001422
-0.048972 0.006827 0.000360
-0.049724 0.006059 -0.002981
-0.047955 0.004381 -0.005188
-0.051118 0.006630 0.000762
-0.046715 0.006802 0.001272
-0.046830 0.006617 0.002129
-0.051630 0.005815 -0.003247
-0.046706 0.004974 -0.004762
-0.050260 0.005038 0.004535
-0.050997 0.006282 -0.002221
-0.049712 0.004149 -0.005273
-0.048532 0.003039 -0.006048
-0.041922 0.005943 -0.003777
-0.046299 0.006808 0.001366
-0.042637 0.007070 -0.000315
-0.042450 0.002937 -0.006309
-0.043050 0.006012 -0.003621
-0.045375 0.005495 -0.004159
-0.045017 0.004810 0.005193
-0.041871 0.006390 0.003253
-0.045271 0.004513 -0.005201
-0.041955 0.005363 0.004793
-0.042981 0.006917 -0.001389
-0.043726 0.006904 0.001468
-0.043735 0.005740 0.004168
-0.043819 0.005273 0.004768
-0.044229 0.003571 -0.005972
-0.044040 0.006944 0.001069
-0.046208 0.003363 -0.005996
-0.044065 0.003157 -0.006159
-0.046410 0.005073 0.004828
-0.044304 0.004835 -0.004996
-0.044275 0.006554 0.002577
-0.043641 0.006610 0.002516
-0.044096 0.002632 0.006599
-0.042222 0.004220 0.005815
-0.044334 0.005553 0.004363
-0.042801 0.006439 0.003028
-0.045769 0.002826 -0.006235
-0.042475 0.003256 0.006430
-0.044580 0.006905 -0.000979
-0.045697 0.003659 -0.005841
-0.046246 0.003510 0.006112
-0.042295 0.007056 0.000793
-0.044084 0.007029 0.000414
-0.044835 0.005259 -0.004501
-0.045984 0.006164 -0.003133
-0.042880 0.006992 -0.000840
-0.046459 0.006271 -0.002826
-0.043862 0.004428 -0.005328
-0.045744 0.006489 -0.002370
-0.045198 0.006579 0.002411
-0.042490 0.007105 0.000358
-0.041709 0.007029 0.001180
-0.042312 0.003705 0.006204
-0.043001 0.006373 -0.002922
-0.046637 0.005211 -0.004457
-0.044571 0.006191 -0.003209
-0.043685 0.004863 -0.005000
-0.042659 0.005105 -0.004830
-0.041922 0.007115 0.000469
-0.044593 0.006669 0.002265
-0.042561 0.003947 0.006004
-0.042322 0.004899 -0.005032
-0.044854 0.005776 -0.003822
-0.043393 0.003880 0.006004
-0.045920 0.006875 0.000988
-0.043024 0.004427 -0.005365
-0.046507 0.003046 -0.006118
-0.044062 0.003796 0.006027
-0.044096 0.006825 0.001938
-0.043525 0.005818 -0.003847
-0.042892 0.007082 0.000404
-0.045426 0.006743 -0.001783
-0.044334 0.006978 -0.000488
-0.044467 0.006849 0.001644
-0.043035 0.004939 -0.004970
-0.045866 0.003238 0.006254
-0.042706 0.005295 0.004823
-0.044593 0.002930 -0.006235
-0.041980 0.002802 -0.006382
-0.042575 0.003724 -0.005926
-0.043893 0.006268 0.003310
-0.046155 0.006961 0.000258
-0.045128 0.006895 -0.000879
-0.044254 0.003972 -0.005662
-0.041910 0.006924 -0.001667
-0.042612 0.004271 -0.005503
-0.044305 0.006613 -0.002210
-0.045807 0.006911 -0.000553
-0.046104 0.006853 -0.000904
-0.043266 0.006502 0.002820
-0.043029 0.005130 0.005013
-0.045976 0.006599 -0.002078
-0.042280 0.004425 -0.005399
-0.045397 0.006171 -0.003173
-0.042897 0.003506 0.006304
-0.041847 0.003333 0.006432
-0.042526 0.006911 0.001802
-0.045256 0.005439 0.004441
-0.042040 0.006775 -0.002042
-0.042929 0.006233 -0.003269
-0.045320 0.006951 0.000604
-0.043417 0.006471 -0.002644
-0.045545 0.003258 -0.006064
-0.044482 0.006859 -0.001360
-0.046290 0.004532 -0.005143
-0.045496 0.006295 0.003057
-0.043969 0.006205 -0.003234
-0.041824 0.005704 -0.004096
-0.042267 0.002965 0.006561
-0.045589 0.004659 0.005274
-0.041857 0.006984 -0.001218
-0.042090 0.005313 -0.004591
-0.045091 0.003560 -0.005944
-0.044956 0.006172 -0.003215
-0.046415 0.004649 0.005231
-0.042070 0.006211 0.003660
-0.044199 0.006928 -0.000916
-0.044685 0.003466 -0.006008
-0.044964 0.006360 -0.002758
-0.044461 0.003972 0.005868
-0.043970 0.005973 0.003845
-0.045615 0.006618 0.002268
-0.046010 0.003864 0.005856
-0.043003 0.006824 0.002078
-0.042608 0.004872 0.005294
-0.044141 0.004180 0.005729
-0.042351 0.006213 -0.003375
-0.043109 0.005782 -0.003919
-0.041878 0.004365 0.005726
-0.045011 0.006894 0.001127
-0.045076 0.003107 -0.006144
-0.046562 0.006872 0.000798
-0.044618 0.005086 0.004947
-0.043405 0.007074 -0.000041
-0.041819 0.004302 -0.005514
-0.045055 0.003294 0.006275
-0.045872 0.004411 -0.005255
-0.043055 0.006640 -0.002270
-0.045394 0.006583 -0.002173
-0.042160 0.005691 0.004351
-0.042315 0.006383 0.003216
-0.044045 0.006364 -0.002839
-0.044890 0.006804 0.001850
-0.046233 0.005201 -0.004493
-0.046100 0.006795 -0.001357
-0.041935 0.003183 -0.006224
-0.042906 0.004382 0.005650
-0.046283 0.004853 -0.004896
-0.046440 0.002636 0.006471
-0.041730 0.006527 -0.002674
-0.042029 0.007073 -0.000480
-0.046391 0.006632 0.002144
-0.042286 0.007113 -0.000089
-0.045236 0.007018 0.000102
-0.044768 0.004791 -0.005010
-0.045369 0.005829 -0.003723
-0.044365 0.003565 0.006185
-0.043774 0.002923 0.006497
-0.043585 0.002683 -0.006374
-0.045724 0.006963 0.000385
-0.041715 0.004999 -0.004982
-0.044712 0.005995 0.003761
-0.043442 0.006751 0.002202
-0.043353 0.002968 0.006501
-0.042708 0.006993 0.001132
-0.043190 0.005219 -0.004651
-0.045852 0.004725 -0.005014
-0.042671 0.006299 0.003379
-0.043392 0.006120 0.003700
-0.042967 0.003847 -0.005815
-0.045515 0.006899 0.000936
-0.044564 0.004269 -0.005420
-0.042760 0.006624 0.002586
-0.041992 0.002720 0.006677
-0.042768 0.002739 -0.006380
-0.042060 0.003717 -0.005954
-0.044670 0.007018 0.000314
-0.043288 0.004647 -0.005185
-0.045112 0.004339 0.005547
-0.041824 0.006043 0.003921
-0.044915 0.006798 -0.001701
-0.044800 0.002994 0.006412
-0.044904 0.006850 -0.001296
-0.041975 0.003952 0.006036
-0.041703 0.006894 0.002063
-0.042481 0.006750 -0.002060
-0.044897 0.006565 -0.002268
-0.046312 0.005788 0.003907
-0.043662 0.007002 0.000762
-0.044952 0.005542 -0.004123
-0.044466 0.006362 -0.002803
-0.046104 0.005386 0.004446
-0.045986 0.004021 -0.005550
-0.045636 0.005344 0.004534
-0.045881 0.005132 0.004792
-0.046181 0.006214 0.003173
-0.046426 0.003820 -0.005686
-0.043542 0.003762 -0.005855
-0.045402 0.005955 0.003759
-0.046209 0.006422 0.002669
-0.045921 0.005760 0.003974
-0.042018 0.004894 0.005313
-0.042952 0.003961 0.005969
-0.042594 0.006897 -0.001659
-0.045053 0.003803 0.005960
-0.046594 0.006440 0.002582
-0.042419 0.006967 -0.001172
-0.043183 0.007022 0.000762
-0.043510 0.006322 -0.002994
-0.042899 0.005976 0.003925
-0.044298 0.003131 0.006382
-0.043846 0.005253 -0.004567
-0.043981 0.005950 -0.003647
-0.043203 0.003571 -0.006017
-0.045924 0.004462 0.005405
-0.046039 0.006942 -0.000238
-0.045378 0.002784 0.006467
-0.046097 0.005778 -0.003746
-0.045169 0.006946 -0.000482
-0.044528 0.005548 -0.004141
-0.041843 0.006259 -0.003315
-0.044858 0.005289 0.004667
-0.046232 0.003109 0.006287
-0.043434 0.007010 -0.000528
-0.042297 0.005189 0.004994
-0.042112 0.006619 0.002672
-0.043459 0.006951 -0.000974
-0.043352 0.005765 0.004165
-0.042777 0.006513 -0.002605
-0.042649 0.004670 -0.005195
-0.043875 0.004695 0.005351
-0.044415 0.005300 -0.004473
-0.044576 0.006905 0.001188
-0.044489 0.006369 0.002996
-0.042369 0.005938 -0.003759
-0.043906 0.005642 -0.004055
-0.043147 0.004807 0.005310
-0.042471 0.006525 0.002857
-0.044530 0.006177 0.003452
-0.045960 0.005395 -0.004256
-0.046555 0.003507 -0.005921
-0.041906 0.007151 0.000081
-0.046451 0.005657 -0.003884
-0.043567 0.006612 -0.002286
-0.044628 0.006679 -0.002019
-0.045757 0.002667 0.006495
-0.042789 0.003050 0.006497
-0.041758 0.006744 0.002416
-0.042916 0.005632 0.004370
-0.043362 0.006347 0.003183
-0.043388 0.004314 -0.005436
-0.044876 0.004454 -0.005264
-0.042245 0.003991 -0.005735
-0.046381 0.006052 0.003540
-0.046035 0.004892 0.005069
-0.043863 0.006976 -0.000657
-0.043828 0.007063 0.000007
-0.043027 0.007079 -0.000122
-0.045303 0.004036 0.005768
-0.044048 0.006800 -0.001781
-0.042173 0.006779 0.002283
-0.042749 0.005436 -0.004392
-0.043467 0.006157 -0.003400
-0.042520 0.005528 0.004537
-0.043303 0.004251 0.005725
-0.045033 0.006329 0.003030
-0.045097 0.006839 0.001516
-0.045297 0.006432 0.002751
-0.046099 0.003011 -0.006147
-0.042488 0.006379 -0.002960
-0.045158 0.005742 0.004054
-0.045224 0.005233 -0.004512
-0.044602 0.004573 0.005400
-0.046503 0.005426 0.004362
-0.045588 0.004201 -0.005429
-0.046286 0.006001 -0.003444
-0.044226 0.004474 0.005499
-0.042051 0.004686 -0.005207
-0.042987 0.006927 0.001538
-0.042376 0.006583 -0.002475
-0.045177 0.004028 -0.005579
-0.046534 0.006466 -0.002347
-0.043645 0.003348 -0.006095
-0.042161 0.007000 0.001255
-0.045422 0.004842 -0.004942
-0.044463 0.007026 -0.000087
-0.043705 0.005017 0.005108
-0.042615 0.005742 -0.004000
-0.044727 0.003953 -0.005656
-0.043689 0.006845 0.001925
-0.044361 0.004528 -0.005229
-0.043101 0.006245 0.003456
-0.042417 0.007021 -0.000758
-0.043371 0.006887 0.001714
-0.043160 0.005356 0.004709
-0.043511 0.005466 0.004540
-0.042359 0.004531 0.005569
-0.042922 0.006820 -0.001845
-0.045470 0.004988 0.005010
-0.043248 0.003173 -0.006182
-0.043225 0.005517 -0.004258
-0.045562 0.006826 -0.001280
-0.044230 0.005310 0.004687
-0.045778 0.006305 -0.002810
-0.043197 0.002800 -0.006339
-0.042867 0.003151 -0.006205
-0.046103 0.006419 -0.002503
-0.046265 0.004217 0.005570
-0.042728 0.007043 0.000755
-0.045709 0.006011 -0.003465
-0.045454 0.006791 0.001761
-0.043972 0.006517 -0.002476
-0.043950 0.005486 0.004481
-0.043281 0.007071 0.000361
-0.042335 0.003282 -0.006169
-0.045919 0.006080 0.003527
-0.043653 0.004389 0.005599
-0.044350 0.005836 0.003994
-0.042034 0.006935 0.001781
-0.046049 0.006574 0.002323
-0.043682 0.003458 0.006281
-0.044209 0.005057 0.005017
-0.046587 0.006926 -0.000187
-0.046485 0.006843 -0.000866
-0.043475 0.006957 0.001153
-0.045947 0.005031 -0.004733
-0.044281 0.005785 -0.003845
-0.046436 0.005424 -0.004189
-0.045708 0.004168 0.005642
-0.043275 0.003556 0.006259
-0.043970 0.006695 0.002276
-0.043783 0.004058 0.005844
-0.043960 0.006483 0.002786
-0.044444 0.006017 -0.003532
-0.042195 0.005933 0.004035
-0.045634 0.005203 -0.004527
-0.045913 0.006757 -0.001700
-0.044727 0.005641 0.004219
-0.043295 0.006746 -0.001988
-0.046333 0.004165 -0.005424
-0.042580 0.006765 0.002267
-0.042484 0.006115 0.003776
-0.043143 0.006658 0.002460
-0.042086 0.006436 -0.002861
-0.042361 0.005499 -0.004333
-0.046016 0.006785 0.001625
-0.043374 0.006902 -0.001379
-0.044909 0.007000 -0.000149
-0.043981 0.006873 -0.001412
-0.041756 0.003913 -0.005816
-0.045735 0.003602 0.006073
-0.042570 0.005798 0.004181
-0.045706 0.005699 -0.003874
-0.045572 0.005671 0.004116
-0.044873 0.006492 0.002656
-0.043776 0.004123 -0.005567
-0.045265 0.006163 0.003404
-0.044605 0.006964 0.000740
-0.044580 0.004267 0.005636
-0.044539 0.005061 -0.004777
-0.045786 0.006424 0.002712
-0.045613 0.006833 0.001398
-0.043614 0.006841 -0.001727
-0.041688 0.005197 0.005028
-0.045291 0.005204 0.004744
-0.046359 0.006721 -0.001742
-0.045463 0.003185 0.006298
-0.045448 0.006401 -0.002610
-0.041786 0.005462 -0.004415
-0.044739 0.006959 -0.000509
-0.046351 0.006895 -0.000503
-0.045473 0.006963 -0.000252
-0.043591 0.005438 -0.004339
-0.045109 0.002747 -0.006292
-0.038455 0.007140 0.001186
-0.036929 0.006371 -0.003350
-0.037040 0.004984 -0.005112
-0.036703 0.004626 -0.005391
-0.040391 0.004304 0.005863
-0.038913 0.004982 -0.005099
-0.038501 0.006610 0.003047
-0.036978 0.006805 -0.002294
-0.038937 0.007067 -0.001385
-0.037829 0.004823 0.005565
-0.037100 0.005115 0.005361
-0.039956 0.003959 0.006154
-0.038175 0.006100 0.004067
-0.040421 0.005580 0.004629
-0.037186 0.005290 -0.004811
-0.038067 0.006322 -0.003439
-0.037032 0.005831 0.004453
-0.038131 0.005211 -0.004901
-0.038370 0.005247 0.005168
-0.039280 0.006182 0.003926
-0.037291 0.006115 0.004075
-0.036703 0.003921 0.006284
-0.041410 0.006335 -0.003173
-0.039720 0.007145 0.000951
-0.040106 0.005463 -0.004514
-0.041285 0.005160 0.005108
-0.041575 0.002985 0.006590
