ply
format ascii 1.0
element vertex 1709
property float x
property float y
property float z
end_header
0.038731 0.002553 -0.001238
0.039822 0.000830 -0.001385
0.039141 -0.000115 -0.001298
0.042493 0.001660 0.000722
0.039279 0.000308 0.001131
0.038430 0.000978 -0.001202
0.038588 0.001753 0.001225
0.042084 -0.000400 -0.001685
0.040613 0.001245 -0.001489
0.042983 -0.000683 0.000668
0.038841 0.000688 -0.001257
0.043226 0.000481 -0.001800
0.041061 -0.001489 0.000894
0.042655 -0.000041 -0.001744
0.042105 0.000620 -0.001686
0.038519 0.003420 0.001237
0.040671 0.000316 0.000949
0.039482 0.001442 -0.001339
0.042655 0.000499 -0.001743
0.040043 0.003210 -0.001410
0.039662 0.003375 -0.001359
0.041833 0.002302 0.000799
0.041561 -0.001280 0.000828
0.040623 0.003246 -0.001486
0.038618 -0.001253 0.001215
0.040503 0.002451 -0.001472
0.038470 0.000060 -0.001210
0.041143 -0.000233 -0.001561
0.041954 0.000198 -0.001667
0.041124 0.003381 -0.001551
0.040651 0.000807 0.000952
0.039109 0.000701 0.001155
0.040803 0.001725 -0.001513
0.040872 0.003438 0.000929
0.040019 -0.001299 0.001030
0.039351 0.000861 -0.001323
0.039522 0.002919 -0.001341
0.042244 -0.000988 -0.001706
0.038939 0.001102 0.001177
0.043274 0.002552 0.000646
0.040640 -0.001428 0.000949
0.039128 -0.001329 0.001148
0.039822 0.000285 -0.001387
0.039820 0.001063 0.001062
0.040851 0.002475 0.000928
0.041144 0.001289 -0.001558
0.038569 0.002138 0.001229
0.039461 -0.000571 -0.001341
0.043023 0.000637 0.000667
0.042355 0.001453 -0.001711
0.041854 -0.000769 -0.001657
0.042265 -0.000022 -0.001705
0.040393 0.002846 -0.001456
0.040801 -0.000589 0.000930
0.041632 0.001091 0.000824
0.038838 -0.000922 0.001187
0.046178 -0.001363 -0.002100
0.045208 0.002453 -0.001995
0.044055 0.003442 0.000569
0.046930 0.002940 -0.002154
0.045598 -0.000064 -0.002039
0.045385 -0.000894 0.000427
0.044707 -0.001185 -0.001952
0.048220 -0.001130 -0.002251
0.048158 0.000050 0.000204
0.048188 0.003146 0.000208
0.045187 -0.000164 -0.001998
0.046528 -0.001008 -0.002134
0.046268 -0.000702 -0.002108
0.044314 -0.000807 0.000535
0.047957 -0.000981 0.000215
0.045758 0.000840 -0.002053
0.044034 -0.000227 0.000565
0.046129 0.003082 -0.002086
0.045128 0.003037 -0.001986
0.043854 -0.001212 0.000580
0.044785 -0.001296 0.000486
0.045806 -0.000632 0.000386
0.047188 0.003034 0.000276
0.047848 0.000932 0.000227
0.043715 0.003225 0.000603
0.043667 0.003335 -0.001839
0.044066 -0.000860 -0.001887
0.047427 -0.000325 0.000253
0.045097 0.000541 -0.001988
0.045218 0.002035 -0.001996
0.046809 0.001070 -0.002149
0.047590 0.003331 -0.002199
0.044505 0.001961 0.000522
0.044555 -0.000064 0.000513
0.047990 0.000286 -0.002232
0.047479 0.000263 -0.002197
0.048020 0.000796 -0.002233
0.043373 -0.000926 0.000629
0.046596 -0.001290 0.000308
0.043964 -0.000625 0.000570
0.045035 -0.000398 0.000464
0.048208 0.001583 0.000203
0.044827 -0.000399 -0.001963
0.046326 -0.000579 0.000334
0.044535 0.003353 0.000522
0.047658 0.002704 0.000243
0.044185 0.001453 0.000552
0.045649 0.003019 -0.002037
0.045176 0.002571 0.000456
0.043875 0.002010 0.000584
0.045848 0.001677 -0.002060
0.045406 0.001531 0.000431
0.047327 -0.001380 0.000257
0.045208 0.001592 -0.001996
0.048201 0.003307 -0.002241
0.043666 0.002340 -0.001840
0.047750 0.002507 -0.002211
0.047298 0.002398 0.000267
0.046286 -0.000192 0.000338
0.045238 0.000903 -0.002001
0.046407 0.001081 0.000329
0.048148 -0.000474 0.000203
0.045576 -0.000121 0.000410
0.048098 0.002166 0.000212
0.043494 0.001704 0.000622
0.044657 0.002427 -0.001940
0.046619 0.000648 -0.002138
0.044618 0.003204 -0.001934
0.046326 0.000199 0.000335
0.044357 0.002843 -0.001909
0.043494 0.000177 0.000619
0.045256 0.001906 0.000446
0.047297 0.001789 0.000266
0.045115 0.001145 0.000458
0.044715 0.002518 0.000501
0.044197 0.002339 -0.001894
0.047608 0.003120 0.000247
0.044477 -0.000251 -0.001928
0.047660 0.002946 -0.002204
0.043987 0.001604 -0.001875
0.045668 -0.000670 -0.002047
0.046677 0.003405 0.000312
0.044615 0.001404 0.000509
0.045917 0.003066 0.000383
0.044647 -0.000740 -0.001946
0.044354 -0.001185 0.000530
0.046929 -0.001034 -0.002162
0.043395 -0.000993 -0.001820
0.044447 0.001478 -0.001921
0.047267 0.000789 0.000266
0.046429 0.001948 -0.002118
0.043776 -0.000520 -0.001857
0.045287 -0.000667 -0.002009
0.047720 0.001376 -0.002211
0.046889 -0.001439 -0.002160
0.045668 0.002628 -0.002040
0.047808 0.001847 0.000231
0.043516 -0.000153 -0.001831
0.047240 0.002210 -0.002177
0.047137 0.001425 0.000276
0.043745 0.002598 0.000599
0.047407 -0.000742 0.000253
0.046829 -0.000472 -0.002154
0.044036 0.000440 -0.001882
0.045897 0.002364 0.000383
0.044275 0.000946 0.000543
0.047339 -0.001276 -0.002191
0.048220 0.001348 -0.002246
0.044527 0.000697 -0.001930
0.044995 0.000728 0.000470
0.045116 0.003241 0.000463
0.043514 -0.000212 0.000616
0.046867 -0.000790 0.000291
0.045666 0.000405 0.000402
0.046469 0.002419 -0.002121
0.046129 0.003476 -0.002085
0.046178 0.000212 -0.002097
0.048110 -0.000494 -0.002242
0.046957 -0.000048 0.000285
0.046829 0.001485 -0.002150
0.043897 0.002683 -0.001863
0.045978 -0.000259 -0.002077
0.047938 0.000491 0.000219
0.046829 0.002097 -0.002149
0.045097 -0.001149 -0.001991
0.047538 0.001255 0.000249
0.047147 0.000380 0.000274
0.047439 0.001000 -0.002193
0.046707 -0.000374 0.000303
0.045556 0.000938 0.000415
0.044865 0.002108 0.000486
0.044007 0.003120 -0.001873
0.045506 0.002797 0.000423
0.047348 0.003411 0.000266
0.047727 -0.001330 0.000231
0.048130 0.002389 -0.002237
0.044866 0.002909 0.000487
0.046369 0.001506 -0.002113
0.043444 0.002118 0.000628
0.048298 0.000866 0.000196
0.044647 0.001071 -0.001941
0.043924 0.000693 0.000577
0.047647 0.000214 0.000239
0.047027 0.002090 0.000286
0.046297 0.002267 0.000343
0.045908 0.001287 -0.002067
0.045628 0.000464 -0.002041
0.047240 0.001698 -0.002178
0.043994 0.000188 0.000569
0.046727 0.001790 0.000305
0.046246 -0.001067 0.000341
0.043906 -0.000002 -0.001869
0.048260 0.001796 -0.002248
0.044217 0.001955 -0.001897
0.044817 0.001682 -0.001957
0.047489 -0.000890 -0.002200
0.047359 -0.000183 -0.002190
0.043526 0.000227 -0.001831
0.043776 0.001104 -0.001854
0.044225 0.002696 0.000552
0.045846 0.001905 0.000387
0.045536 0.003177 0.000421
0.046357 0.003004 0.000338
0.043386 0.001511 -0.001815
0.046016 0.000665 0.000368
0.047709 -0.000472 -0.002214
0.048098 0.002649 0.000213
0.045456 0.002264 0.000427
0.045539 0.003443 -0.002026
0.048338 -0.000807 0.000190
0.044647 0.002032 -0.001940
0.047039 0.000492 -0.002167
0.043656 0.001854 -0.001841
0.045645 -0.001341 0.000400
0.046217 0.001851 0.000350
0.044247 0.000971 -0.001902
0.044905 -0.000895 0.000476
0.046368 -0.000131 -0.002116
0.046116 0.001362 0.000359
0.046477 0.000686 0.000322
0.043374 0.003405 0.000637
0.045508 0.001337 -0.002027
0.043686 0.000683 -0.001847
0.045878 -0.000989 -0.002069
0.046707 0.000306 0.000303
0.045295 0.000186 0.000439
0.046409 0.001006 -0.002118
0.046817 0.002633 0.000301
0.043473 -0.001429 0.000617
0.044475 0.000551 0.000522
0.046779 0.000091 -0.002149
0.047660 0.000645 -0.002209
0.045487 -0.001107 -0.002030
0.047840 -0.000090 -0.002223
0.045758 -0.001485 -0.002058
0.043534 0.000672 0.000616
0.044487 0.000311 -0.001927
0.046957 0.001085 0.000288
0.044885 0.000246 0.000480
0.046920 0.002548 -0.002154
0.048250 -0.000077 -0.002251
0.043536 0.002907 -0.001826
0.046780 0.003310 -0.002142
0.043926 -0.001221 -0.001874
0.046128 0.000635 -0.002091
0.044185 0.002260 0.000554
0.047129 -0.000710 -0.002175
0.048090 0.002772 -0.002234
0.045618 0.002239 -0.002037
0.043694 0.001026 0.000600
0.045028 0.001236 -0.001980
0.047680 0.001803 -0.002208
0.046667 0.001370 0.000309
0.046009 0.002058 -0.002076
0.047817 -0.000150 0.000227
0.046099 0.002620 -0.002083
0.047757 -0.000554 0.000230
0.044384 -0.000414 0.000529
0.047829 -0.001227 -0.002224
0.043794 0.001410 0.000592
0.046499 0.002912 -0.002123
0.044818 0.002827 -0.001955
0.045956 0.000056 0.000372
0.045445 -0.000491 0.000422
0.049739 -0.000708 0.000093
0.051339 -0.000831 -0.000003
0.052991 0.001523 -0.000061
0.049741 0.001575 -0.002350
0.050220 0.003409 0.000068
0.051450 0.001095 -0.000003
0.051942 -0.000101 -0.002473
0.051722 -0.001201 -0.002467
0.050332 0.002551 -0.002388
0.050732 0.003003 -0.002415
0.050800 0.001746 0.000025
0.048511 0.002603 -0.002263
0.050992 -0.000099 -0.002437
0.050729 0.000381 0.000028
0.050352 0.001769 -0.002391
0.048691 0.002183 -0.002277
0.049461 0.001959 -0.002330
0.052842 0.000618 -0.002505
0.049601 -0.000577 -0.002345
0.050071 0.001124 -0.002373
0.050780 0.000795 0.000025
0.049891 -0.001424 -0.002367
0.052683 0.001796 -0.002497
0.049671 0.000308 -0.002348
0.051372 0.000872 -0.002450
0.051370 0.000482 -0.000002
0.050491 -0.000889 -0.002407
0.049931 0.001928 -0.002362
0.048898 0.001391 0.000155
0.050742 0.003422 -0.002415
0.050071 -0.000757 -0.002378
0.050249 0.002020 0.000064
0.052811 0.003128 -0.000051
0.053140 0.000029 -0.000069
0.049561 0.002432 -0.002336
0.050341 0.000511 -0.002394
0.048821 0.002931 -0.002284
0.050339 -0.000557 0.000052
0.049689 0.001489 0.000101
0.049178 -0.000527 0.000132
0.053231 0.002698 -0.000067
0.051122 0.000484 -0.002441
0.048689 0.002567 0.000172
0.050342 0.003013 -0.002388
0.049651 0.003069 -0.002341
0.049829 0.003055 0.000095
0.050679 -0.000122 0.000030
0.051190 0.002211 0.000008
0.051950 0.002695 -0.000019
0.050372 0.001384 -0.002394
0.053230 -0.000354 -0.000073
0.052552 0.000974 -0.002494
0.051683 0.003290 -0.002457
0.052230 0.000412 -0.000034
0.049191 0.001084 -0.002313
0.050161 -0.000350 -0.002383
0.050299 -0.000173 0.000056
0.050841 -0.000637 -0.002430
0.052462 -0.000979 -0.002494
0.048698 -0.000026 0.000166
0.052411 0.002348 -0.000037
0.050732 0.002045 -0.002417
0.050322 0.002155 -0.002389
0.049578 -0.000319 0.000105
0.051162 0.003303 -0.002437
0.052890 0.000348 -0.000059
0.050121 0.000038 -0.002379
0.051209 -0.001328 0.000000
0.048919 0.002267 0.000155
0.048728 -0.000797 0.000163
0.050690 0.001253 0.000032
0.052650 -0.000425 -0.000052
0.049761 -0.000195 -0.002355
0.051522 0.002066 -0.002453
0.051540 0.003310 -0.000003
0.051730 -0.000882 -0.000018
0.052010 0.001052 -0.000025
0.052263 0.002790 -0.002479
0.048640 -0.000064 -0.002278
0.049339 0.000852 0.000124
0.049118 -0.000019 0.000137
0.050779 -0.000548 0.000022
0.052311 0.002831 -0.000032
0.052941 0.002435 -0.000057
0.048679 0.003227 0.000174
0.050992 0.001382 -0.002434
0.053173 0.002094 -0.002515
0.050139 -0.001255 0.000064
0.049982 0.003437 -0.002363
0.050622 0.000944 -0.002412
0.051051 -0.001283 -0.002442
0.049549 0.000142 0.000108
0.049409 0.002105 0.000121
0.049919 0.001135 0.000084
0.053240 -0.001347 -0.000076
0.049308 -0.001471 0.000121
0.049738 -0.001393 0.000092
0.053153 0.001232 -0.002516
0.049651 0.001022 -0.002345
0.052523 0.001426 -0.002492
0.053341 0.002271 -0.000072
0.051892 0.001806 -0.002467
0.049789 0.002035 0.000095
0.050289 0.000247 0.000058
0.051682 -0.000758 -0.002464
0.049429 0.002599 0.000121
0.052431 0.003258 -0.000036
0.049030 0.000035 -0.002304
0.053023 0.002571 -0.002508
0.052870 0.000881 -0.000057
0.052102 0.001477 -0.002476
0.053172 -0.000266 -0.002520
0.048380 0.000669 -0.002258
0.049221 0.001603 -0.002314
0.052960 -0.000947 -0.000064
0.052382 -0.001414 -0.002493
0.048460 -0.000802 -0.002267
0.050770 0.002175 0.000028
0.051152 0.002378 -0.002438
0.052092 -0.001075 -0.002480
0.048828 0.000912 0.000159
0.048688 0.000402 0.000168
0.050169 0.001644 0.000068
0.049279 0.002987 0.000132
0.049411 0.000019 -0.002330
0.050749 -0.001189 0.000023
0.053202 -0.001148 -0.002522
0.052163 0.003201 -0.002475
0.051422 -0.000283 -0.002454
0.049340 -0.001415 -0.002329
0.052440 -0.000763 -0.000045
0.051980 -0.000472 -0.000027
0.050089 0.000768 0.000072
0.048570 0.001168 -0.002271
0.051129 -0.000233 0.000006
0.051251 -0.000858 -0.002449
0.051972 0.001096 -0.002472
0.051192 0.002804 -0.002439
0.049879 0.002488 0.000090
0.050900 0.003282 0.000021
0.051760 0.001629 -0.000014
0.051392 0.001616 -0.002449
0.050289 0.001266 0.000059
0.048610 0.000333 -0.002274
0.051440 0.002754 -0.000000
0.052540 0.000003 -0.000047
0.050950 0.002676 0.000018
0.051080 0.000169 0.000008
0.052642 -0.000368 -0.002500
0.052802 0.000083 -0.002505
0.052792 -0.001199 -0.002507
0.052312 0.000627 -0.002486
0.052250 0.001788 -0.000032
0.049961 0.002340 -0.002364
0.052690 -0.001359 -0.000055
0.049259 0.001227 0.000130
0.052570 0.000618 -0.000047
0.053063 0.002985 -0.002509
0.051880 0.000689 -0.000021
0.052310 -0.001353 -0.000041
0.052723 0.002189 -0.002498
0.051132 0.001910 -0.002439
0.049869 0.000372 0.000086
0.051689 -0.001290 -0.000017
0.052292 -0.000637 -0.002487
0.049438 -0.000985 0.000114
0.049018 -0.001102 0.000142
0.048980 -0.000355 -0.002302
0.052343 0.002266 -0.002483
0.049620 -0.001066 -0.002347
0.049080 -0.000729 -0.002310
0.048367 -0.001470 0.000186
0.048871 0.001802 -0.002290
0.051662 0.000352 -0.002462
0.049231 0.003269 -0.002312
0.049059 0.003412 0.000148
0.051882 0.000724 -0.002469
0.051270 0.001808 0.000004
0.052530 0.001214 -0.000044
0.052422 0.000138 -0.002490
0.049151 0.002350 -0.002308
0.048600 -0.001263 -0.002277
0.051820 0.002274 -0.000015
0.050601 -0.000042 -0.002412
0.051941 0.003214 -0.000018
0.051892 0.002360 -0.002466
0.048598 0.001711 0.000177
0.048468 0.001288 0.000184
0.050732 0.000550 -0.002421
0.051780 -0.000055 -0.000018
0.050310 0.002721 0.000061
0.049469 0.003434 0.000120
0.052563 0.003284 -0.002489
0.051532 0.002558 -0.002452
0.048518 0.002191 0.000183
0.051602 0.001263 -0.002457
0.048431 0.002998 -0.002257
0.051753 0.002877 -0.002460
0.049128 0.000471 0.000138
0.051332 0.000108 -0.002450
0.049391 0.000596 -0.002328
0.049301 0.002725 -0.002318
0.052671 0.002052 -0.000048
0.050762 0.002498 -0.002418
0.050580 0.003030 0.000043
0.048930 0.000722 -0.002296
0.052170 -0.000143 -0.000033
0.049289 0.001682 0.000129
0.052972 -0.000831 -0.002513
0.052190 0.001410 -0.000031
0.049030 -0.001120 -0.002307
0.051080 0.001347 0.000011
0.051570 -0.000397 -0.000011
0.053061 0.001977 -0.000062
0.050002 0.002750 -0.002365
0.052653 0.002839 -0.002494
0.050419 -0.000976 0.000046
0.057443 -0.000587 -0.002615
0.057034 0.003322 -0.002604
0.053551 0.000588 -0.000084
0.057544 0.000764 -0.002613
0.055081 0.001359 -0.000139
0.055474 0.002013 -0.002597
0.055284 0.003268 -0.002592
0.058143 -0.000911 -0.002620
0.054831 -0.001455 -0.000136
0.053413 0.001515 -0.002525
0.053900 -0.000634 -0.000099
0.053974 0.003364 -0.002542
0.057864 0.002906 -0.002610
0.055294 0.001556 -0.002596
0.055704 0.001394 -0.002599
0.054213 -0.000991 -0.002560
0.057572 0.001315 -0.000162
0.056832 0.002340 -0.000156
0.053401 0.003392 -0.000072
0.055894 0.002227 -0.002599
0.053352 -0.000706 -0.002527
0.058324 0.001774 -0.002616
0.055793 0.000190 -0.002602
0.054841 0.000419 -0.000132
0.057891 -0.000371 -0.000168
0.053582 -0.001088 -0.002537
0.053421 0.001545 -0.000077
0.055572 0.001689 -0.000149
0.054251 -0.000068 -0.000111
0.054451 0.001992 -0.000115
0.055871 -0.000922 -0.000156
0.055631 -0.000131 -0.000153
0.055961 0.000422 -0.000154
0.054934 0.002214 -0.002581
0.057164 0.001105 -0.002609
0.054742 0.003071 -0.000124
0.056922 0.002983 -0.000155
0.055443 -0.000591 -0.002602
0.054851 0.001764 -0.000130
0.054941 -0.000890 -0.000139
0.054631 0.002394 -0.000121
0.055613 0.000682 -0.002600
0.058232 0.001885 -0.000166
0.055353 0.000149 -0.002599
0.054221 0.003046 -0.000104
0.057834 0.001123 -0.002614
0.053671 0.000221 -0.000089
0.054611 0.000735 -0.000123
0.057081 -0.000392 -0.000163
0.055042 0.002166 -0.000137
0.056493 0.000082 -0.002607
0.055972 0.001827 -0.000151
0.055371 0.000284 -0.000150
0.054712 0.003486 -0.000122
0.057851 0.000392 -0.000166
0.054753 -0.000368 -0.002579
0.056762 0.001588 -0.000157
0.054463 0.002529 -0.002562
0.055892 0.003131 -0.000148
0.055191 -0.001183 -0.000149
0.056312 0.001451 -0.000154
0.053361 0.001131 -0.000076
0.054461 0.001340 -0.000117
0.057792 0.000868 -0.000165
0.056561 -0.001067 -0.000161
0.054993 0.000334 -0.002587
0.057672 0.002807 -0.000160
0.056961 -0.000766 -0.000163
0.057172 0.001249 -0.000160
0.057141 0.000649 -0.000161
0.055421 0.001085 -0.000149
0.054863 0.000904 -0.002581
0.057371 -0.000851 -0.000166
0.054053 0.001823 -0.002548
0.055632 0.002685 -0.000147
0.057431 0.000288 -0.000164
0.053883 -0.000135 -0.002546
0.055691 -0.001272 -0.000156
0.057884 0.000372 -0.002616
0.054341 -0.000851 -0.000116
0.057744 0.001521 -0.002612
0.056344 0.003200 -0.002600
0.054061 0.001859 -0.000100
0.054553 -0.000792 -0.002573
0.054431 -0.000423 -0.000119
0.054113 0.001062 -0.002552
0.055154 0.002724 -0.002588
0.058063 -0.000467 -0.002619
0.056963 -0.000819 -0.002612
0.057452 0.002232 -0.000160
0.055854 0.002664 -0.002598
0.053463 0.000773 -0.002529
0.054183 0.000455 -0.002556
0.057693 -0.000975 -0.002617
0.054833 -0.001202 -0.002584
0.054131 0.003432 -0.000100
0.056941 -0.001428 -0.000164
0.054593 0.000092 -0.002572
0.055203 -0.000909 -0.002597
0.053363 0.000121 -0.002526
0.056943 -0.001329 -0.002613
0.058232 0.000875 -0.000168
0.057684 0.002314 -0.002610
0.057304 0.002153 -0.002608
0.056203 -0.001043 -0.002607
0.053483 0.003128 -0.002524
0.058081 -0.001257 -0.000171
0.055574 0.002931 -0.002595
0.055402 0.003417 -0.000144
0.053623 0.000418 -0.002535
0.055001 0.000935 -0.000137
0.056593 -0.001044 -0.002610
0.055774 0.003412 -0.002596
0.053943 0.002680 -0.002542
0.053633 0.002191 -0.002532
0.058132 0.002974 -0.000163
0.057272 0.002798 -0.000157
0.055001 0.000074 -0.000139
0.056414 0.001920 -0.002603
0.056581 0.000832 -0.000157
0.056294 0.002772 -0.002600
0.057242 0.001861 -0.000159
0.058284 -0.000050 -0.002619
0.054033 0.002255 -0.002547
0.053761 0.002249 -0.000088
0.053770 -0.001368 -0.000096
0.054743 0.001548 -0.002575
0.058272 0.000397 -0.000169
0.054264 0.003100 -0.002554
0.056361 -0.001454 -0.000160
0.056011 -0.000206 -0.000155
0.056053 -0.000594 -0.002606
0.056751 -0.000177 -0.000160
0.058032 0.001533 -0.000165
0.053503 0.002648 -0.002526
0.057782 0.003192 -0.000160
0.056714 0.001158 -0.002606
0.056453 -0.000330 -0.002608
0.053761 0.003113 -0.000086
0.053650 -0.000958 -0.000091
0.057223 0.000079 -0.002612
0.055732 0.002224 -0.000149
0.054871 -0.000439 -0.000135
0.056182 0.002273 -0.000152
0.055394 0.001157 -0.002598
0.056201 0.000943 -0.000154
0.055533 -0.001193 -0.002603
0.054111 0.000660 -0.000105
0.057631 -0.001134 -0.000168
0.056904 0.002189 -0.002605
0.054071 0.001145 -0.000102
0.057773 -0.000035 -0.002616
0.056641 0.000254 -0.000159
0.058121 -0.000687 -0.000170
0.057124 0.001644 -0.002608
0.054111 0.002426 -0.000101
0.053761 0.002684 -0.000087
0.055854 0.001813 -0.002599
0.056244 0.001224 -0.002603
0.057164 0.000513 -0.002611
0.054023 -0.000653 -0.002552
0.055312 0.002454 -0.000145
0.053863 0.000766 -0.002543
0.056723 0.000421 -0.002608
0.057174 0.002937 -0.002606
0.056624 0.001533 -0.002605
0.057782 0.001910 -0.000163
0.054343 0.001441 -0.002560
0.057724 0.001929 -0.002611
0.057733 -0.001487 -0.002618
0.058344 0.000486 -0.002618
0.056724 0.003035 -0.002602
0.054483 0.000702 -0.002567
0.057123 -0.000364 -0.002612
0.054110 -0.001166 -0.000108
0.053932 -0.001372 -0.002551
0.055384 0.002421 -0.002595
0.058262 0.002271 -0.000165
0.057361 -0.001419 -0.000167
0.056361 -0.000365 -0.000158
0.056853 -0.000066 -0.002610
0.056104 0.000810 -0.002603
0.058082 0.003456 -0.000161
0.056402 0.003187 -0.000151
0.056112 0.002666 -0.000150
0.057214 0.002555 -0.002607
0.056554 0.000786 -0.002606
0.054463 0.002096 -0.002563
0.055803 -0.000265 -0.002603
0.054794 0.002931 -0.002574
0.053763 0.001307 -0.002539
0.055152 0.002999 -0.000139
0.056764 0.002582 -0.002604
0.055371 -0.000487 -0.000152
0.054594 0.003291 -0.002566
0.055341 0.000694 -0.000149
0.056502 0.002041 -0.000154
0.054323 -0.000220 -0.002563
0.056284 0.002329 -0.002601
0.058084 0.002272 -0.002613
0.053841 0.001497 -0.000093
0.053690 -0.000285 -0.000091
0.055861 0.001133 -0.000152
0.058134 0.003247 -0.002611
0.057322 0.003238 -0.000157
0.057303 -0.001032 -0.002615
0.056194 0.001607 -0.002602
0.055093 -0.000138 -0.002591
0.056533 -0.001447 -0.002610
0.057161 0.000014 -0.000163
0.053642 -0.000447 -0.002538
0.054631 -0.000028 -0.000126
0.058034 0.000734 -0.002616
0.057564 0.003145 -0.002608
0.057731 0.000008 -0.000166
0.056163 0.000310 -0.002605
0.055461 -0.000870 -0.000153
0.055803 -0.000905 -0.002605
0.060012 0.001738 -0.000167
0.060091 -0.001425 -0.000172
0.058794 0.001249 -0.002620
0.062235 -0.001365 -0.001714
0.058694 0.002002 -0.002618
0.061852 0.002839 -0.000120
0.059391 -0.000798 -0.000179
0.062804 0.002616 -0.002547
0.062163 0.001310 -0.002536
0.058954 0.003106 -0.002617
0.058662 0.002073 -0.000168
0.061333 -0.001428 -0.002591
0.061857 -0.001161 -0.000815
0.061433 0.000641 -0.000351
0.060582 0.002301 -0.000152
0.061554 0.001746 -0.002579
0.062054 0.003174 -0.002564
0.061162 0.002280 -0.000138
0.060031 -0.000022 -0.000170
0.063266 -0.001448 -0.000734
0.060154 0.001705 -0.002614
0.059232 0.000263 -0.000175
0.058831 -0.000170 -0.000174
0.063264 0.002540 -0.002536
0.058714 -0.000135 -0.002622
0.060793 -0.001134 -0.002604
0.061504 0.002810 -0.002578
0.061301 -0.000660 -0.000141
0.063033 0.001424 -0.001440
0.063032 -0.001449 -0.000213
0.061114 0.002197 -0.002589
0.061044 0.000838 -0.002594
0.061494 0.000717 -0.001536
0.060651 -0.000236 -0.000156
0.062263 0.001353 -0.001349
0.059594 0.001039 -0.002625
0.059302 0.001985 -0.000172
0.063333 0.002056 -0.002535
0.061013 -0.000166 -0.002596
0.061684 0.002111 -0.002575
0.059942 0.001097 -0.000170
0.059891 -0.001027 -0.000176
0.058404 0.001055 -0.002618
0.062702 0.002898 -0.000099
0.062252 0.002813 -0.000110
0.062611 0.001426 -0.002304
0.062337 0.001370 -0.001795
0.062114 0.001990 -0.002565
0.060524 0.000751 -0.002606
0.060034 0.000399 -0.002619
0.062280 -0.001381 -0.001149
0.062766 0.001425 -0.001757
0.062011 -0.001251 -0.002343
0.061933 -0.001214 -0.001474
0.061436 -0.000648 -0.001771
0.060884 0.000255 -0.002599
0.062602 -0.001447 -0.001379
0.060044 0.000935 -0.002618
0.058942 0.002919 -0.000168
0.062059 0.001258 -0.000967
0.061274 -0.000021 -0.000445
0.058841 -0.001149 -0.000176
0.063063 0.001426 -0.002445
0.060082 0.003145 -0.000163
0.061042 0.002764 -0.000140
0.060261 -0.000792 -0.000166
0.061328 -0.000373 -0.000900
0.062955 0.001422 -0.000461
0.062452 0.003385 -0.000104
0.063131 -0.001445 -0.002408
0.061403 -0.000659 -0.002588
0.060592 0.002967 -0.000151
0.059194 0.001044 -0.002623
0.061858 0.001136 -0.001938
0.059212 0.001030 -0.000174
0.058623 -0.001454 -0.002624
0.059281 -0.001200 -0.000179
0.061301 -0.000129 -0.001209
0.060172 0.000337 -0.000166
0.059452 0.001455 -0.000174
0.059504 0.002030 -0.002623
0.058942 0.001792 -0.000170
0.063088 0.001423 -0.000876
0.063332 0.001421 -0.000220
0.061232 0.001907 -0.000137
0.063147 0.001425 -0.001887
0.060251 -0.000353 -0.000166
0.059553 -0.001041 -0.002629
0.058653 -0.000515 -0.002622
0.060584 0.003389 -0.002600
0.058411 -0.000175 -0.000171
0.060581 -0.001324 -0.000160
0.060254 0.003072 -0.002608
0.061551 0.001037 -0.000131
0.060544 0.001427 -0.002605
0.063122 0.002989 -0.000088
0.059374 0.000512 -0.002625
0.060921 0.000366 -0.000148
0.062894 0.002220 -0.002545
0.061982 0.002385 -0.000118
0.059812 0.002513 -0.000171
0.062022 0.001720 -0.000118
0.062272 0.002110 -0.000111
0.058623 -0.000899 -0.002623
0.061431 -0.001161 -0.000138
0.060553 -0.000238 -0.002608
0.061479 0.000693 -0.002070
0.062698 0.001423 -0.000863
0.060532 0.001091 -0.000156
0.062512 0.001416 -0.000211
0.061435 -0.000665 -0.000576
0.061546 0.000813 -0.000693
0.061934 0.002486 -0.002568
0.059734 0.000644 -0.002626
0.062534 0.001884 -0.002555
0.058412 0.001298 -0.000168
0.061328 0.000281 -0.001975
0.063341 0.001839 -0.000085
0.059224 -0.000262 -0.002626
0.061082 0.001225 -0.000142
0.059134 0.001953 -0.002620
0.060752 0.001850 -0.000149
0.061349 0.000392 -0.001029
0.059782 0.000655 -0.000175
0.058552 0.002623 -0.000166
0.060991 -0.001230 -0.000149
0.062284 -0.001385 -0.000517
0.059494 0.002549 -0.002622
0.060894 0.002583 -0.002594
0.059662 0.000226 -0.000178
0.061351 -0.000406 -0.002301
0.059614 -0.000648 -0.002629
0.060554 0.002187 -0.002603
0.059283 -0.001341 -0.002628
0.058812 0.001335 -0.000171
0.061954 0.001641 -0.002569
0.061444 0.003189 -0.002579
0.061761 -0.001363 -0.000131
0.062733 -0.001453 -0.002557
0.061343 0.000403 -0.002587
0.061464 0.000794 -0.002583
0.061311 0.000273 -0.000155
0.061519 -0.000774 -0.002150
0.062890 -0.001448 -0.001114
0.058552 0.003072 -0.000165
0.061004 0.003136 -0.002590
0.061712 0.001001 -0.002385
0.058882 0.000833 -0.000172
0.060814 0.001159 -0.002599
0.061571 -0.000866 -0.001213
0.061894 0.001164 -0.001533
0.060273 -0.001165 -0.002617
0.060983 -0.000596 -0.002598
0.062180 0.001321 -0.002155
0.061324 0.000308 -0.001545
0.058974 0.002638 -0.002618
0.059914 0.002811 -0.002617
0.059362 0.000625 -0.000175
0.060204 0.002436 -0.002611
0.063228 -0.001446 -0.002007
0.063124 0.003002 -0.002538
0.059914 0.002177 -0.002619
0.060532 0.001517 -0.000155
0.061676 -0.000989 -0.001840
0.063193 -0.001447 -0.001494
0.059454 0.000095 -0.002626
0.062797 -0.001446 -0.001887
0.060644 0.002997 -0.002599
0.062654 0.003081 -0.002549
0.058994 0.000469 -0.002623
0.059334 0.002992 -0.002620
0.062902 0.002331 -0.000095
0.062360 -0.001396 -0.002269
0.058691 -0.000530 -0.000174
0.062094 0.001281 -0.000456
0.058514 0.003075 -0.002614
0.063281 0.002257 -0.000086
0.059153 -0.000892 -0.002626
0.059302 0.002635 -0.000171
0.063114 0.003425 -0.002537
0.059511 -0.000372 -0.000178
0.058391 -0.001017 -0.000173
0.059002 0.002397 -0.000170
0.061352 0.001525 -0.000135
0.059091 -0.000504 -0.000176
0.062741 0.001858 -0.000100
0.062062 0.003196 -0.000114
0.062264 0.002776 -0.002560
0.062537 -0.001448 -0.000827
0.060872 0.000885 -0.000148
0.061672 0.001937 -0.000126
0.061315 -0.000266 -0.001705
0.060462 0.003347 -0.000153
0.060901 -0.000807 -0.000151
0.058554 0.002446 -0.002616
0.061278 0.000002 -0.000846
0.058814 0.000849 -0.002621
0.061344 0.001173 -0.002586
0.058662 0.000430 -0.000171
0.061084 0.001463 -0.002591
0.059702 0.003173 -0.000172
0.060242 0.002074 -0.000161
0.061543 -0.001031 -0.002585
0.059494 0.001535 -0.002624
0.061871 0.001348 -0.000122
0.060864 0.001857 -0.002596
0.061299 -0.000092 -0.002075
0.061634 -0.000972 -0.000457
0.060532 0.000504 -0.000157
0.060083 -0.000772 -0.002621
0.062414 0.003460 -0.002555
0.063172 0.003433 -0.000086
0.061292 0.003232 -0.000133
0.061582 0.002562 -0.000127
0.060932 0.003409 -0.000141
0.059104 0.001526 -0.002621
0.059744 -0.000177 -0.002628
0.059891 -0.000604 -0.000175
0.061760 0.001048 -0.001117
0.062885 -0.001448 -0.000629
0.059742 0.002125 -0.000173
0.060523 -0.000782 -0.002610
0.062551 -0.001492 -0.000112
0.060224 0.000054 -0.002615
0.060212 0.002589 -0.000161
0.061001 -0.000013 -0.000147
0.058572 0.001690 -0.000168
0.059894 0.001383 -0.002621
0.062304 0.002324 -0.002560
0.061755 0.001051 -0.000474
0.059304 0.003413 -0.002619
0.065656 -0.001449 -0.000645
0.067580 0.002667 0.000129
0.064271 0.001426 -0.002328
0.065151 0.002238 -0.000007
0.066749 -0.001449 -0.001060
0.066686 0.001421 -0.000594
0.067650 0.002111 0.000132
0.064813 0.002164 -0.002476
0.063493 0.001538 -0.002532
0.065573 0.002762 -0.002433
0.067271 0.001420 -0.000046
0.063552 0.003476 -0.000077
0.063813 0.002296 -0.002522
0.063961 -0.001447 -0.001272
0.068022 0.002456 -0.002297
0.063733 0.001872 -0.002525
0.065441 0.002731 0.000011
0.065700 0.001423 -0.001055
0.066980 0.002575 0.000096
0.065933 0.002450 -0.002413
0.065840 0.002025 0.000031
0.065596 0.001422 -0.000596
0.063624 0.002921 -0.002526
0.064971 0.001421 -0.000052
0.066520 0.002911 0.000071
0.067909 0.001661 0.000146
0.065784 -0.001447 -0.001559
0.064343 0.002771 -0.002501
0.067108 0.001424 -0.001873
0.066108 -0.001449 -0.000913
0.064597 -0.001449 -0.000804
0.065930 0.001516 0.000035
0.067960 0.002621 0.000151
0.066230 0.001948 0.000053
0.067167 0.001422 -0.000679
0.067152 0.003083 -0.002344
0.063921 0.001830 -0.000071
0.067454 0.001423 -0.001455
0.064443 0.003268 -0.002494
0.064741 0.002815 -0.000028
0.068295 0.001423 -0.001641
0.067697 -0.001449 -0.000766
0.067309 -0.001449 -0.001054
0.066920 -0.001446 -0.002234
0.064781 0.002029 -0.000028
0.065543 0.001480 -0.002437
0.066425 0.001424 -0.001591
0.067822 0.003277 -0.002306
0.065881 0.002494 0.000035
0.065242 -0.001485 -0.002460
0.065623 0.002055 -0.002431
0.066502 0.002470 -0.002381
0.065848 -0.001446 -0.001960
0.064313 0.002352 -0.002504
0.066383 0.003157 -0.002386
0.067838 0.001422 -0.000837
0.066765 -0.001447 -0.001732
0.065560 0.001434 0.000014
0.064487 -0.001446 -0.001854
0.064973 0.003230 -0.002465
0.066113 -0.001450 -0.000387
0.067072 -0.001450 -0.000265
0.065993 0.003056 -0.002408
0.064891 -0.001450 -0.000163
0.065619 0.001425 -0.002026
0.066610 0.002465 0.000075
0.064648 0.001422 -0.000824
0.066720 0.001464 0.000079
0.063888 0.001423 -0.000804
0.066542 0.002058 -0.002380
0.066992 0.001425 -0.002353
0.064683 0.002577 -0.002482
0.064361 0.002088 -0.000051
0.065307 0.001424 -0.001786
0.067330 0.001863 0.000114
0.066342 0.001694 -0.002392
0.067270 0.003082 0.000113
0.066701 0.001423 -0.001108
0.067710 0.003059 0.000137
0.066772 0.002831 -0.002365
0.066615 -0.001449 -0.000587
0.065121 0.003004 -0.000006
0.066007 0.001424 -0.001785
0.064563 0.001807 -0.002491
0.068140 0.003320 0.000162
0.064654 0.001424 -0.001537
0.065284 -0.001449 -0.000483
0.066650 0.001955 0.000077
0.066358 -0.001447 -0.001993
0.066650 0.001425 -0.002144
0.063620 -0.001445 -0.002284
0.067042 0.001895 -0.002353
0.067910 -0.001446 -0.002274
0.064473 -0.001447 -0.001438
0.068202 0.002834 -0.002286
0.067409 -0.001451 0.000076
0.067932 -0.001448 -0.001319
0.068299 0.002117 0.000168
0.066850 0.003318 0.000090
0.067740 0.001425 -0.002193
0.066163 0.003490 -0.002398
0.068009 -0.001451 0.000118
0.066769 -0.001451 0.000055
0.067260 0.002247 0.000111
0.063671 0.001424 -0.001219
0.064641 0.003225 -0.000033
0.067064 0.001423 -0.001442
0.063734 -0.001447 -0.001600
0.065173 0.002862 -0.002454
0.065183 0.002077 -0.002455
0.064601 0.002455 -0.000037
0.067355 -0.001450 -0.000532
0.065901 0.003481 0.000038
0.063863 0.001473 -0.002523
0.066313 0.001421 -0.000264
0.063741 0.002212 -0.000075
0.064264 0.001424 -0.001548
0.063984 0.003175 -0.002517
0.066258 0.001422 -0.000807
0.067596 0.001421 -0.000544
0.064882 -0.001447 -0.001397
0.064588 0.001425 -0.001974
0.065256 -0.001447 -0.001800
0.067012 0.002422 -0.002353
0.067766 -0.001447 -0.001800
0.065034 0.001421 -0.000428
0.068191 0.001993 -0.002288
0.064922 0.001426 -0.002354
0.067815 0.001423 -0.001636
0.067120 0.001422 -0.001066
0.063441 -0.001450 -0.000153
0.063779 0.001425 -0.002013
0.065051 0.001423 -0.001200
0.068305 -0.001450 -0.000600
0.063927 -0.001448 -0.000756
0.064270 -0.001467 -0.000063
0.068103 0.001420 -0.000292
0.067403 -0.001448 -0.001504
0.067752 0.002010 -0.002313
0.066503 -0.001448 -0.001421
0.068317 -0.001447 -0.001841
0.065501 0.003264 0.000015
0.064201 0.002504 -0.000059
0.067452 0.001762 -0.002330
0.063934 0.002697 -0.002519
0.064336 0.001422 -0.000570
0.063982 0.003141 -0.000067
0.064321 0.003465 -0.000050
0.065872 -0.001468 -0.002424
0.068221 0.001422 -0.001145
0.066121 0.002984 0.000049
0.063762 0.001421 -0.000168
0.066331 0.003474 0.000062
0.065740 -0.001448 -0.001128
0.063531 -0.001447 -0.001269
0.067752 -0.001451 -0.000180
0.063845 0.001424 -0.001617
0.064299 -0.001448 -0.001073
0.063813 -0.001449 -0.000339
0.063494 0.003287 -0.002528
0.063465 0.001424 -0.001631
0.068180 0.001424 -0.002118
0.066165 -0.001447 -0.001633
0.064224 -0.001449 -0.000508
0.065724 0.001424 -0.001457
0.067582 0.002442 -0.002321
0.065922 0.001543 -0.002416
0.065423 0.003212 -0.002440
0.066240 0.001425 -0.002119
0.064879 -0.001446 -0.002132
0.064979 -0.001448 -0.001019
0.067752 0.002826 -0.002311
0.064049 -0.001446 -0.002173
0.067258 -0.001447 -0.001997
0.065361 -0.001448 -0.001189
0.065221 0.001704 -0.000004
0.063671 0.002838 -0.000075
0.063517 0.001423 -0.000709
0.066411 -0.001450 -0.000099
0.066152 0.001423 -0.001235
0.066052 0.002070 -0.002407
0.067672 0.001420 -0.000162
0.064361 0.001528 -0.000052
0.066301 -0.001446 -0.002384
0.064401 0.001423 -0.001140
0.068142 -0.001451 -0.000241
0.065318 0.001422 -0.000880
0.064702 -0.001477 -0.002490
0.064113 0.001957 -0.002516
0.067012 -0.001448 -0.001353
0.066792 0.003294 -0.002363
0.068099 -0.001449 -0.000956
0.066260 0.002611 0.000056
0.064105 -0.001447 -0.001685
0.064623 0.001421 -0.000315
0.073059 -0.001450 -0.000967
0.072398 0.001545 -0.001932
0.069103 0.001420 -0.000215
0.070290 0.001421 -0.001030
0.072266 0.001800 0.000508
0.070008 0.003265 0.000314
0.072878 0.001707 -0.001889
0.071077 0.002009 0.000405
0.072696 -0.001453 0.000471
0.071767 -0.001448 -0.001858
0.069420 -0.001454 -0.002197
0.072037 0.002850 0.000490
0.070683 -0.001449 -0.001483
0.072458 0.002544 -0.001925
0.068519 0.002978 0.000185
0.071327 0.001421 -0.000738
0.071517 0.002108 0.000443
0.069301 0.001780 -0.002201
0.071045 0.001423 -0.001599
0.073198 0.002524 -0.001850
0.069212 0.001422 -0.001294
0.070560 0.002832 -0.002090
0.070370 0.002365 -0.002107
0.070824 0.001420 -0.000408
0.069958 0.002598 0.000309
0.073075 0.001420 -0.000500
0.071018 -0.001452 0.000236
0.072585 -0.001451 -0.000494
0.069978 -0.001447 -0.001945
0.071301 -0.001452 -0.000109
0.070388 0.003243 0.000347
0.072296 0.002366 0.000511
0.069649 0.001421 -0.000929
0.070728 0.001421 -0.000806
0.072037 0.003249 0.000491
0.070298 0.001423 -0.001963
0.071691 -0.001452 -0.000099
0.069234 -0.001450 -0.000404
0.071100 0.002772 -0.002043
0.069119 0.003273 0.000237
0.072660 0.001421 -0.001026
0.068673 0.001423 -0.001389
0.070518 0.002733 0.000357
0.068860 0.001422 -0.001021
0.071909 0.001734 -0.001974
0.068408 0.001421 -0.000805
0.072223 -0.001451 -0.000269
0.070967 0.002496 0.000396
0.068641 0.001949 -0.002258
0.071772 0.001419 -0.000146
0.070670 0.001761 -0.002082
0.069299 0.002215 0.000251
0.070797 -0.001448 -0.001921
0.070750 0.003463 -0.002072
0.068746 -0.001447 -0.001796
0.070160 0.002736 -0.002125
0.071719 0.002438 -0.001989
0.072888 0.003132 -0.001886
0.069910 0.001582 -0.002148
0.069011 0.002214 -0.002226
0.072956 0.003154 0.000574
0.070015 0.001423 -0.001580
0.069791 0.001420 -0.000068
0.072449 0.002938 -0.001925
0.069389 0.002704 0.000259
0.068631 0.001424 -0.002233
0.071458 -0.001450 -0.000896
0.068868 0.001424 -0.001900
0.071910 -0.001450 -0.001104
0.071364 -0.001449 -0.001583
0.072161 0.001421 -0.001086
0.071697 -0.001453 0.000295
0.070320 0.003333 -0.002110
0.070970 0.002267 -0.002055
0.071025 -0.001451 -0.000581
0.070548 0.002020 0.000359
0.069720 0.002465 -0.002164
0.071597 0.002800 0.000451
0.073265 0.001776 0.000608
0.069595 0.001421 -0.000488
0.069908 0.001923 0.000303
0.070294 0.001420 -0.000318
0.071535 -0.001451 -0.000519
0.069160 -0.001449 -0.001057
0.069520 0.001424 -0.002167
0.072943 0.001422 -0.001374
0.068832 -0.001448 -0.001353
0.071284 0.001420 -0.000311
0.068554 0.001420 -0.000323
0.071629 0.002047 -0.001999
0.072398 0.001418 0.000273
0.069285 -0.001448 -0.001634
0.069860 0.001990 -0.002152
0.068879 0.001419 0.000140
0.072387 0.003082 0.000521
0.070781 -0.001451 -0.000103
0.070490 0.001419 0.000125
0.069277 0.001423 -0.001780
0.070555 -0.001450 -0.000532
0.072169 -0.001452 0.000121
0.073034 -0.001451 -0.000444
0.068859 0.002238 0.000212
0.071816 0.001420 -0.000565
0.068999 0.002682 0.000226
0.068642 0.003313 -0.002256
0.073088 -0.001453 0.000229
0.070340 -0.001449 -0.001108
0.069301 0.002587 -0.002200
0.072252 -0.001449 -0.001300
0.071998 0.001418 0.000281
0.071517 0.003387 0.000446
0.069702 -0.001451 -0.000175
0.068359 0.002498 0.000173
0.068906 0.001421 -0.000595
0.072076 -0.001451 -0.000657
0.069620 -0.001449 -0.001079
0.072707 -0.001448 -0.001829
0.069458 0.001788 0.000263
0.069539 0.003154 0.000273
0.070338 0.002363 0.000341
0.068658 -0.001449 -0.000932
0.072946 0.002709 0.000573
0.068350 0.001420 0.000082
0.073049 0.001421 -0.000950
0.071177 0.003019 0.000416
0.069561 0.003008 -0.002176
0.069151 0.003050 -0.002212
0.072808 0.002705 -0.001895
0.073086 -0.001449 -0.001788
0.072886 0.002143 0.000564
0.068875 -0.001450 -0.000526
0.072826 0.001646 0.000556
0.072246 -0.001448 -0.001751
0.070738 0.003057 0.000377
0.070302 -0.001451 -0.000215
0.071059 0.001646 -0.002049
0.071691 0.001421 -0.001181
0.068491 0.002464 -0.002270
0.068553 -0.001451 -0.000289
0.071021 0.001422 -0.001161
0.071499 0.003193 -0.002007
0.069439 0.001419 0.000136
0.072645 0.001420 -0.000513
0.071349 0.002337 -0.002022
0.070969 0.001419 0.000149
0.072566 0.002703 0.000536
0.071347 0.002468 0.000429
0.069668 0.002333 0.000283
0.069267 0.001421 -0.000740
0.069801 0.003378 -0.002154
0.068879 0.001798 0.000213
0.073128 0.003435 -0.001857
0.070568 -0.001452 0.000235
0.072626 0.001422 -0.001651
0.071989 0.002755 -0.001965
0.071475 0.001422 -0.001558
0.068911 0.002660 -0.002233
0.072640 -0.001450 -0.001048
0.072873 -0.001449 -0.001412
0.069461 0.002164 -0.002187
0.070003 -0.001448 -0.001448
0.071377 0.001467 0.000430
0.070117 0.001421 -0.000670
0.069643 0.001422 -0.001362
0.069536 -0.001450 -0.000649
0.071459 0.001631 -0.002014
0.072195 0.001422 -0.001603
0.072244 0.001420 -0.000396
0.072778 0.002196 -0.001898
0.072562 0.001419 -0.000120
0.073238 0.001454 -0.001848
0.069408 -0.001452 0.000221
0.068759 0.003432 0.000206
0.072942 0.001419 -0.000104
0.071847 0.002295 0.000472
0.071569 0.002806 -0.002002
0.072720 -0.001452 0.000004
0.070078 0.001419 0.000309
0.069977 -0.001450 -0.000729
0.068451 -0.001448 -0.001270
0.072338 0.002070 -0.001937
0.070990 -0.001449 -0.001155
0.070576 0.001423 -0.001695
0.071080 0.003258 -0.002044
0.071797 0.001704 0.000467
0.070290 0.001984 -0.002115
0.070612 0.001422 -0.001296
0.072449 0.003332 -0.001924
0.068629 -0.001447 -0.002159
0.078043 -0.001455 0.000775
0.073943 -0.001452 -0.000367
0.077631 0.001692 0.001138
0.073485 0.001439 0.000634
0.076635 0.003428 -0.001442
0.076684 0.002522 -0.001438
0.073925 -0.001449 -0.001598
0.073386 -0.001451 -0.000613
0.077563 0.001418 -0.000199
0.077401 0.003218 0.001107
0.075116 0.002608 -0.001624
0.075753 0.001433 0.000902
0.076167 0.001419 -0.000672
0.078316 -0.001452 -0.000596
0.078053 0.001416 0.000840
0.077192 0.002742 0.001074
0.075591 -0.001450 -0.001178
0.077432 0.001420 -0.001222
0.074701 -0.001450 -0.001202
0.076908 -0.001454 0.000200
0.074804 0.001419 -0.000327
0.076499 -0.001453 0.000104
0.077340 0.001417 0.000159
0.075705 0.002015 -0.001555
0.074367 0.002844 -0.001711
0.075445 0.001421 -0.001577
0.074037 0.001420 -0.000646
0.076939 0.001420 -0.000846
0.077214 0.002237 -0.001376
0.078143 0.003095 -0.001235
0.076043 0.002300 0.000937
0.076382 0.001461 0.000976
0.075595 0.002728 -0.001567
0.073384 0.001422 -0.001492
0.075783 0.002632 0.000908
0.076777 -0.001452 -0.000722
0.076275 0.002166 -0.001487
0.074435 -0.001449 -0.001617
0.073538 -0.001453 0.000253
0.075301 0.001420 -0.001079
0.075104 0.002961 0.000827
0.074225 0.003101 0.000725
0.077101 0.001431 0.001061
0.074766 -0.001454 0.000513
0.076123 -0.001452 -0.000263
0.076922 -0.001455 0.000948
0.076482 0.001418 -0.000137
0.076336 -0.001452 -0.000687
0.077702 -0.001451 -0.001266
0.073887 0.002840 -0.001768
0.075586 0.001417 0.000499
0.074146 0.001417 0.000497
0.073928 -0.001453 0.000259
0.076243 0.003108 0.000963
0.074388 -0.001453 0.000215
0.076790 0.001418 0.000105
0.073867 0.002307 -0.001771
0.073942 0.001419 -0.000074
0.073418 0.001420 -0.000832
0.077991 -0.001453 -0.000056
0.077851 0.003318 0.001174
0.075148 -0.001451 -0.000905
0.078232 0.002670 -0.001222
0.078194 0.001418 -0.000347
0.077519 -0.001451 -0.000932
0.076098 -0.001454 0.000301
0.076013 0.001742 0.000932
0.076554 0.002928 -0.001452
0.078130 0.001477 0.001212
0.076460 -0.001451 -0.001079
0.075619 0.001420 -0.000864
0.077787 0.001419 -0.000630
0.076080 -0.001451 -0.001079
0.073891 -0.001450 -0.001150
0.075484 0.003312 0.000873
0.073437 0.002123 -0.001823
0.073737 0.001680 -0.001788
0.073505 0.002850 0.000638
0.076573 -0.001452 -0.000341
0.077685 0.001416 0.000667
0.076644 0.001741 -0.001444
0.076193 0.002677 0.000956
0.075116 0.002183 -0.001624
0.073355 0.002333 0.000620
0.077014 0.001518 -0.001401
0.073468 0.002813 -0.001818
0.075625 -0.001452 -0.000572
0.075284 0.001419 -0.000287
0.073461 -0.001450 -0.001156
0.073745 0.001934 0.000665
0.075511 -0.001453 -0.000131
0.075124 0.002294 0.000828
0.077773 0.002813 -0.001291
0.077949 0.001417 0.000178
0.077651 0.002255 0.001143
0.078350 0.003328 0.001248
0.078162 0.002208 -0.001234
0.075682 -0.001455 0.000871
0.076085 0.002558 -0.001509
0.076115 0.003476 -0.001504
0.077429 -0.001454 0.000110
0.077733 0.002404 -0.001298
0.073535 -0.001449 -0.001700
0.075067 0.001420 -0.000716
0.076515 -0.001454 0.000602
0.075405 -0.001484 -0.001597
0.073429 0.001418 0.000242
0.074406 0.001806 -0.001709
0.077833 0.003398 -0.001280
0.075255 0.001417 0.000679
0.074157 0.001470 -0.001739
0.075563 0.002026 0.000881
0.075116 0.003018 -0.001623
0.074976 0.001812 -0.001642
0.078208 -0.001454 0.000298
0.077981 0.002787 0.001192
0.074207 0.003402 -0.001729
0.078278 0.001417 0.000386
0.076762 0.001707 0.001022
0.077922 0.001420 -0.001255
0.077041 -0.001451 -0.001160
0.075516 -0.001454 0.000419
0.075074 0.003433 0.000826
0.074603 0.001421 -0.001341
0.075023 0.001421 -0.001339
0.077166 0.001417 0.000610
0.076022 0.001418 -0.000059
0.076153 -0.001455 0.000788
0.075094 0.001777 0.000824
0.076452 0.002108 0.000986
0.076752 0.002575 0.001022
0.077166 0.001419 -0.000541
0.073558 0.003337 -0.001807
0.076662 0.003128 0.001013
0.074554 0.002416 0.000762
0.074186 -0.001451 -0.000696
0.077746 -0.001452 -0.000606
0.077394 0.002755 -0.001348
0.077773 0.001984 -0.001293
0.074709 0.001420 -0.000879
0.074644 0.001707 0.000771
0.073572 -0.001452 -0.000204
0.078010 0.002026 0.001196
0.074534 -0.001452 -0.000384
0.075030 0.001418 0.000122
0.074576 0.002395 -0.001688
0.073536 0.003468 0.000643
0.077301 0.002117 0.001090
0.077254 0.001855 -0.001371
0.076557 0.001419 -0.000670
0.074756 0.003152 -0.001664
0.075420 0.001418 0.000155
0.073815 0.003148 0.000676
0.075855 0.001488 -0.001538
0.076571 0.001420 -0.001079
0.076734 0.002111 -0.001433
0.074876 0.001417 0.000580
0.078030 -0.001451 -0.001029
0.077454 0.003146 -0.001338
0.076862 0.003486 0.001037
0.074599 0.001418 0.000174
0.074280 -0.001450 -0.001119
0.075054 -0.001452 -0.000447
0.074904 0.002625 0.000803
0.074684 0.003052 0.000778
0.074869 -0.001453 0.000114
0.076932 0.002180 0.001042
0.077571 0.002735 0.001131
0.077373 -0.001453 -0.000338
0.077535 -0.001454 0.000568
0.073844 -0.001483 0.000670
0.075685 0.003129 -0.001555
0.077147 -0.001452 -0.000783
0.074313 0.001419 -0.000253
0.076155 0.002999 -0.001500
0.074284 0.002022 0.000729
0.076253 0.001421 -0.001303
0.076279 0.001417 0.000242
0.076964 0.002898 -0.001405
0.075823 0.003120 0.000914
0.074125 0.002708 0.000712
0.075143 -0.001465 0.000824
0.076645 0.001417 0.000618
0.073483 0.001419 -0.000217
0.075924 -0.001450 -0.001483
0.078340 0.001835 0.001245
0.073901 0.001421 -0.001101
0.075664 0.001419 -0.000299
0.073845 0.001422 -0.001521
0.074015 0.002321 0.000697
0.076983 -0.001452 -0.000352
0.074290 0.001420 -0.000996
0.078199 -0.001493 0.001217
0.075383 0.002683 0.000860
0.073757 -0.001451 -0.000751
0.074538 -0.001451 -0.000840
0.076126 0.001417 0.000593
0.077095 -0.001454 0.000551
0.082780 0.001416 0.000191
0.079768 0.002622 0.001460
0.081486 -0.001455 0.000518
0.080517 0.001936 0.001571
0.081438 0.002138 -0.000743
0.081057 0.002627 0.001654
0.079867 0.001418 -0.000606
0.081022 -0.001456 0.000980
0.082566 0.001715 -0.000543
0.080309 -0.001457 0.001253
0.078807 -0.001452 -0.000756
0.083066 -0.001456 0.000531
0.080058 0.003095 0.001505
0.081777 0.001741 -0.000686
0.080455 -0.001453 -0.000542
0.082860 -0.001455 0.000106
0.081667 0.001414 0.001620
0.082107 0.001980 -0.000625
0.083005 0.001415 0.000640
0.081975 0.002458 0.001804
0.079820 0.001417 0.000091
0.078770 0.002825 0.001310
0.080689 0.003185 -0.000853
0.078437 0.001419 -0.000695
0.078693 0.001418 -0.000183
0.081660 -0.001457 0.001196
0.081878 0.003160 -0.000664
0.080134 0.001418 -0.000279
0.080523 -0.001456 0.000784
0.082065 0.003122 0.001823
0.079540 -0.001454 0.000087
0.083010 0.001414 0.001279
0.082070 -0.001457 0.001133
0.079371 0.003246 -0.001051
0.079860 0.001882 -0.000981
0.082098 0.001414 0.001463
0.082027 0.002576 -0.000639
0.081725 0.002125 0.001759
0.079760 -0.001456 0.001154
0.078565 0.001416 0.000657
0.079014 0.001416 0.000741
0.079589 -0.001452 -0.001001
0.078709 0.002012 0.001301
0.081228 -0.001457 0.001390
0.079466 0.001416 0.000545
0.079061 0.001454 -0.001101
0.079149 0.003104 0.001368
0.079907 0.001416 0.000501
0.081656 0.003049 0.001748
0.080230 0.002102 -0.000924
0.083185 0.002913 -0.000428
0.079409 0.002800 0.001407
0.082321 -0.001454 -0.000079
0.081336 0.001858 0.001694
0.081456 0.002416 0.001713
0.082094 -0.001456 0.000691
0.080257 0.001418 -0.000666
0.079520 0.001703 -0.001031
0.082526 0.001413 0.001656
0.081064 0.001418 -0.000366
0.078532 0.001993 -0.001179
0.081825 -0.001453 -0.000522
0.080307 0.001416 0.000405
0.081238 0.002556 -0.000772
0.079131 0.002239 -0.001088
0.082576 0.002144 -0.000540
0.081658 0.002767 -0.000706
0.080865 -0.001453 -0.000461
0.081060 0.001414 0.001290
0.080997 0.003051 0.001645
0.082335 0.002616 0.001871
0.082430 0.001414 0.001257
0.082534 -0.001458 0.001815
0.079906 -0.001455 0.000509
0.080796 -0.001457 0.001554
0.082424 0.001745 0.001885
0.079774 -0.001453 -0.000368
0.083260 -0.001457 0.001134
0.078929 0.001656 0.001333
0.081606 0.001416 0.000539
0.080517 0.003070 0.001574
0.079472 0.001415 0.000959
0.078450 -0.001451 -0.001053
0.082703 -0.001456 0.000867
0.079293 -0.001453 -0.000278
0.079057 0.001419 -0.000643
0.078993 -0.001455 0.000852
0.080827 0.002163 0.001617
0.082893 -0.001454 -0.000318
0.082095 0.001415 0.000709
0.079428 0.001419 -0.000791
0.079153 0.001418 -0.000199
0.079811 0.001415 0.001168
0.078502 0.001517 -0.001185
0.082489 -0.001457 0.001282
0.082536 0.002688 -0.000546
0.082187 0.003379 -0.000608
0.081969 0.001416 0.000254
0.082996 0.002070 -0.000464
0.079958 0.002148 0.001488
0.081273 0.001415 0.000860
0.079001 0.001884 -0.001109
0.078760 0.003291 0.001311
0.081384 -0.001453 -0.000376
0.079539 0.003169 0.001427
0.080868 -0.001455 0.000251
0.081197 0.003428 0.001676
0.081868 -0.001455 0.000314
0.080340 0.003004 -0.000906
0.080926 0.001416 0.000603
0.080809 0.002359 -0.000837
0.079439 0.002128 0.001410
0.079291 0.002653 -0.001064
0.081576 0.003461 0.001735
0.081328 0.003143 -0.000758
0.081943 0.001417 -0.000202
0.082614 0.002358 0.001921
0.079980 0.003175 -0.000960
0.078802 0.003263 -0.001135
0.082864 0.002844 0.001968
0.079758 0.001804 0.001458
0.080337 0.001414 0.001538
0.078550 0.001421 0.001275
0.082475 0.003101 0.001898
0.082704 0.001417 -0.000294
0.082924 0.003370 0.001979
0.080727 0.001528 0.001602
0.080182 0.001415 0.000994
0.078370 0.002274 0.001250
0.082467 -0.001455 0.000392
0.083303 0.003128 0.002047
0.083036 0.002469 -0.000455
0.078850 -0.001454 0.000083
0.080378 -0.001454 0.000229
0.080000 0.001513 -0.000960
0.079354 -0.001455 0.000667
0.082015 0.001641 0.001810
0.080940 0.001417 0.000093
0.078892 0.002657 -0.001124
0.083013 0.002165 0.001992
0.083256 0.001413 0.001682
0.081210 -0.001454 0.000015
0.082464 0.001415 0.000824
0.081590 -0.001454 0.000044
0.082924 0.001413 0.001884
0.081039 0.001848 -0.000803
0.082016 -0.001458 0.001646
0.080597 0.002695 0.001585
0.078919 0.001417 0.000262
0.080999 0.002901 -0.000807
0.083025 0.001581 -0.000460
0.078442 -0.001453 -0.000193
0.083243 0.001623 0.002034
0.079317 -0.001452 -0.000699
0.080160 0.002614 -0.000934
0.082616 0.003126 -0.000530
0.081028 0.001418 -0.000781
0.080501 0.001417 0.000044
0.079358 0.001443 0.001397
0.081136 0.001457 0.001664
0.078534 -0.001455 0.000669
0.080357 0.002367 0.001549
0.081450 0.001414 0.001250
0.082372 0.001417 -0.000089
0.082895 -0.001458 0.001666
0.081585 0.001418 -0.000433
0.079960 -0.001454 0.000043
0.079079 0.002471 0.001357
0.081341 0.001417 -0.000028
0.079750 0.002864 -0.000994
0.079790 0.002383 -0.000989
0.080072 -0.001456 0.000930
0.080639 0.001601 -0.000864
0.080563 0.001415 0.000915
0.079016 -0.001455 0.000468
0.083202 0.001417 -0.000100
0.078390 0.002686 0.001255
0.080665 0.001418 -0.000398
0.080619 0.002753 -0.000864
0.082408 0.001416 0.000328
0.081248 0.001416 0.000353
