ply
format ascii 1.0
element vertex 1722
property float x
property float y
property float z
end_header
0.077938 0.002025 -0.000424
0.079623 -0.001654 0.000801
0.077284 0.002118 0.000888
0.077774 -0.000085 0.000872
0.077974 -0.002427 0.000864
0.078654 0.000061 0.000838
0.077844 0.000947 0.000869
0.076544 -0.001770 0.000908
0.078764 -0.000337 0.000834
0.079064 0.001061 0.000823
0.076454 -0.001217 0.000911
0.081363 0.000027 0.000736
0.077454 -0.002296 0.000883
0.079467 0.000985 -0.000522
0.078538 0.001457 -0.000462
0.077559 -0.000122 -0.000400
0.077419 -0.001898 -0.000394
0.078158 0.001325 -0.000438
0.080913 0.000118 0.000753
0.077718 0.001379 -0.000410
0.078844 -0.002451 0.000831
0.077309 -0.001023 -0.000389
0.078798 0.002127 -0.000479
0.077994 -0.001402 0.000863
0.080523 0.001417 0.000768
0.076824 -0.002069 0.000900
0.078404 -0.001171 0.000848
0.077974 -0.000832 0.000864
0.079337 0.000271 -0.000513
0.078458 -0.001486 -0.000458
0.078128 0.000821 -0.000436
0.076889 0.000274 -0.000370
0.080357 -0.001849 -0.000579
0.079443 0.002026 0.000809
0.084823 0.000153 -0.000885
0.086400 0.000208 0.000518
0.081683 0.001028 0.000724
0.086132 -0.002239 -0.000996
0.083005 -0.002307 -0.000747
0.086340 0.001706 0.000521
0.083062 0.001560 0.000672
0.082992 -0.001817 0.000674
0.084182 0.002312 0.000625
0.083522 -0.000909 0.000654
0.081736 0.000658 -0.000666
0.081613 -0.000351 0.000726
0.085862 0.000085 -0.000972
0.085871 -0.000889 0.000543
0.082322 0.001714 0.000700
0.082915 -0.001423 -0.000741
0.085862 0.001815 -0.000972
0.082025 0.000990 -0.000684
0.085281 0.000206 0.000572
0.084181 -0.001847 0.000624
0.082385 -0.000523 -0.000707
0.082642 -0.002246 0.000687
0.085974 0.002312 -0.000824
0.081962 -0.002553 0.000713
0.082829 -0.002602 0.000430
0.083215 0.001780 -0.000760
0.082392 -0.001440 0.000697
0.084404 -0.002453 -0.000011
0.083115 0.000255 -0.000754
0.082035 -0.002125 -0.000685
0.082770 -0.002606 -0.000302
0.083322 -0.000330 0.000662
0.084821 0.000828 0.000594
0.084663 -0.000748 -0.000871
0.084701 -0.001318 0.000599
0.083812 0.000891 0.000642
0.083704 0.001630 -0.000791
0.085021 0.002070 0.000584
0.083632 0.001485 0.000650
0.084801 0.001707 0.000595
0.085363 0.000424 -0.000930
0.082385 -0.002460 -0.000707
0.083972 -0.002498 -0.000146
0.086062 -0.001836 -0.000989
0.082415 0.001338 -0.000709
0.083964 -0.001395 -0.000813
0.084923 -0.002266 -0.000894
0.084261 -0.001208 0.000620
0.085931 -0.002289 -0.000216
0.084891 -0.001817 0.000590
0.082425 0.002071 -0.000710
0.086072 -0.001327 -0.000990
0.081646 0.001360 -0.000660
0.086182 -0.000909 -0.000999
0.082232 -0.002085 0.000703
0.082945 -0.000342 -0.000743
0.085411 -0.000738 0.000565
0.083052 0.000806 0.000672
0.084963 0.002085 -0.000896
0.082278 -0.002650 0.000356
0.082675 -0.001958 -0.000726
0.083814 0.001216 -0.000799
0.082485 -0.000030 -0.000714
0.083252 -0.002415 0.000664
0.085811 -0.000269 0.000546
0.084524 0.002113 -0.000859
0.084344 0.000435 -0.000844
0.085377 -0.002347 -0.000547
0.083095 0.001345 -0.000752
0.081832 -0.002044 0.000718
0.086259 -0.002255 0.000429
0.085612 -0.000583 -0.000951
0.083944 -0.000029 -0.000810
0.085722 0.000609 -0.000960
0.083992 -0.000803 0.000634
0.083474 -0.000060 -0.000776
0.084538 -0.002437 -0.000509
0.085941 0.000122 0.000540
0.084414 0.000948 -0.000850
0.083814 -0.000785 -0.000800
0.083602 0.002320 0.000652
0.083055 0.002161 -0.000749
0.085303 -0.001749 -0.000925
0.085171 -0.001458 0.000577
0.084371 0.000255 0.000616
0.084444 -0.001795 -0.000853
0.084891 -0.002291 0.000590
0.084484 -0.000269 -0.000856
0.084424 -0.001377 -0.000851
0.085862 0.001062 -0.000972
0.084471 -0.000784 0.000610
0.086332 0.002193 -0.001011
0.083122 0.000315 0.000669
0.085343 0.001761 -0.000928
0.081986 0.001984 -0.000681
0.081656 -0.001120 -0.000661
0.081885 -0.001652 -0.000675
0.082322 -0.002646 -0.000160
0.084793 0.001629 -0.000882
0.085001 -0.000597 0.000585
0.083462 -0.001511 0.000656
0.086320 -0.001093 0.000521
0.085263 -0.000868 -0.000922
0.085631 -0.001489 0.000554
0.084983 -0.000240 -0.000898
0.085731 0.000614 0.000550
0.086330 0.001270 0.000521
0.083534 -0.002244 -0.000781
0.083560 -0.002537 -0.000321
0.081483 -0.002454 0.000731
0.082132 -0.000456 0.000707
0.085861 0.001495 0.000544
0.085473 0.001127 -0.000939
0.084611 -0.000401 0.000604
0.081466 -0.002096 -0.000649
0.083297 -0.002561 0.000248
0.084963 0.001201 -0.000896
0.081443 0.002194 0.000733
0.083534 -0.001290 -0.000780
0.083544 -0.000470 -0.000781
0.081682 -0.001161 0.000724
0.083452 0.000077 0.000657
0.086121 0.002296 -0.000261
0.082392 0.000819 0.000697
0.081892 -0.001614 0.000715
0.085211 0.000638 0.000575
0.083442 0.001129 0.000657
0.084204 -0.001021 -0.000833
0.084843 -0.001371 -0.000887
0.086222 0.000669 -0.001002
0.084901 0.000377 0.000590
0.082622 -0.001034 0.000688
0.085091 0.001331 0.000581
0.084271 0.001598 0.000620
0.085431 0.001578 0.000565
0.081426 0.000977 -0.000646
0.083872 0.000045 0.000639
0.082362 0.001271 0.000698
0.085301 -0.001970 0.000570
0.082862 0.001991 0.000679
0.083762 -0.000343 0.000645
0.084161 -0.000295 0.000625
0.081606 0.001831 -0.000657
0.083374 -0.001851 -0.000770
0.082065 0.000049 -0.000687
0.083082 -0.001106 0.000671
0.081862 0.002132 0.000717
0.084671 0.001281 0.000601
0.084463 -0.002211 -0.000855
0.081753 0.001701 0.000721
0.086000 -0.001956 0.000536
0.084931 -0.000099 0.000588
0.082545 0.000807 -0.000717
0.083252 0.002097 0.000665
0.082342 0.002275 0.000699
0.086292 0.000040 -0.001009
0.083772 -0.002059 0.000644
0.081766 -0.000496 -0.000668
0.083382 -0.001942 0.000659
0.085355 -0.002351 0.000103
0.083385 0.001020 -0.000770
0.086332 0.001703 -0.001011
0.082652 0.000174 0.000687
0.085702 -0.001552 -0.000959
0.083724 0.000790 -0.000793
0.085543 0.002312 -0.000945
0.085662 -0.002042 -0.000956
0.085828 -0.002301 0.000347
0.082325 0.000433 -0.000703
0.082915 0.000633 -0.000741
0.085692 -0.001079 -0.000958
0.084014 -0.002362 -0.000817
0.082492 -0.000190 0.000693
0.082015 -0.002650 -0.000684
0.085551 0.002164 0.000559
0.082375 -0.001645 -0.000707
0.085631 0.001013 0.000555
0.084929 -0.002395 -0.000381
0.083772 0.000429 0.000644
0.081732 0.000478 0.000722
0.084104 -0.000430 -0.000824
0.083085 -0.001026 -0.000752
0.082195 -0.001012 -0.000695
0.081406 -0.000696 -0.000645
0.084304 0.001738 -0.000840
0.084251 -0.002237 0.000621
0.085123 0.000751 -0.000910
0.086041 0.000938 0.000535
0.082872 -0.000377 0.000679
0.084853 -0.001836 -0.000888
0.083674 0.000364 -0.000789
0.082712 0.000572 0.000685
0.082592 -0.001819 0.000689
0.083852 0.001944 0.000641
0.086262 0.001200 -0.001005
0.083858 -0.002511 0.000340
0.081586 0.002300 -0.000656
0.082212 0.000231 0.000704
0.084766 -0.002414 0.000184
0.084224 0.001340 -0.000834
0.082545 -0.001247 -0.000717
0.086190 -0.000636 0.000528
0.081792 0.000083 0.000720
0.085051 -0.001068 0.000583
0.085443 -0.000222 -0.000937
0.082725 0.001633 -0.000728
0.086260 0.002282 0.000459
0.083874 -0.001871 -0.000805
0.085233 -0.001321 -0.000920
0.085866 0.002324 0.000162
0.083802 -0.001281 0.000643
0.082522 -0.000644 0.000692
0.084311 0.000852 0.000618
0.086032 -0.000533 -0.000986
0.082142 -0.001109 0.000706
0.086060 -0.001464 0.000534
0.084733 0.000559 -0.000877
0.085321 -0.000342 0.000569
0.082722 0.001102 0.000684
0.083894 0.002088 -0.000806
0.084471 0.002023 0.000611
0.085886 -0.002293 -0.000643
0.085481 -0.002331 0.000562
0.081682 -0.000748 0.000724
0.089678 0.001892 -0.000505
0.087610 0.002129 0.000451
0.088050 0.000993 -0.001157
0.088689 -0.001517 0.000372
0.087864 -0.002082 -0.000028
0.089239 0.001765 -0.001257
0.086800 -0.000785 0.000498
0.088819 0.000259 -0.001222
0.089559 0.000417 -0.001284
0.088151 0.002079 -0.000253
0.090068 0.001455 -0.001329
0.090638 0.001770 -0.000507
0.086492 -0.001487 -0.001026
0.088500 0.001245 -0.001194
0.088780 -0.001978 -0.000323
0.087101 -0.000643 -0.001077
0.087390 0.000391 0.000464
0.087859 0.000521 0.000435
0.090269 -0.001788 -0.001300
0.089866 -0.001842 0.000178
0.088850 -0.001968 -0.001182
0.089516 0.001914 0.000100
0.086810 0.001285 0.000498
0.086530 -0.001778 0.000511
0.089639 -0.001565 -0.001291
0.090427 -0.000609 0.000195
0.087799 -0.000337 0.000439
0.091172 0.001703 -0.000208
0.091277 0.000342 -0.001456
0.090427 0.000272 0.000196
0.089028 -0.001886 0.000342
0.087741 0.002123 -0.000231
0.088120 0.000152 -0.001163
0.087621 -0.001073 -0.001120
0.089239 -0.001517 -0.001257
0.090455 0.001795 0.000036
0.087061 0.000454 -0.001073
0.091275 -0.000637 0.000087
0.088239 -0.000658 0.000411
0.090127 -0.000913 0.000230
0.087060 -0.001373 0.000484
0.088530 0.001803 -0.001197
0.087501 0.001510 -0.001110
0.088319 -0.001293 0.000404
0.089429 -0.000644 -0.001273
0.088220 -0.001775 -0.001171
0.089009 0.001195 -0.001238
0.087800 0.001848 -0.001135
0.087918 -0.002076 -0.000482
0.086580 -0.000454 0.000509
0.086956 -0.002180 0.000120
0.086556 0.002250 0.000139
0.090357 -0.001657 0.000204
0.088976 0.001980 -0.000708
0.086701 -0.000305 -0.001043
0.086801 0.002101 -0.001051
0.088988 0.000417 0.000346
0.087260 -0.001023 0.000472
0.087510 0.001300 0.000456
0.091312 -0.001658 -0.000179
0.089279 -0.001913 -0.001215
0.088630 -0.000535 -0.001205
0.090248 -0.000652 -0.001348
0.086492 -0.001953 -0.001025
0.089088 0.001805 0.000338
0.087111 -0.000160 -0.001078
0.086661 -0.002211 -0.000241
0.087284 0.002172 -0.000014
0.088889 -0.000854 0.000354
0.089708 0.000817 0.000278
0.090408 0.000170 -0.001365
0.088100 0.001475 -0.001161
0.089069 0.000605 -0.001243
0.086530 0.000882 0.000512
0.087531 0.000015 -0.001113
0.091126 -0.001381 0.000108
0.087561 0.001095 -0.001115
0.088321 -0.002033 -0.000242
0.091307 0.001686 -0.000606
0.087230 -0.000193 0.000474
0.089537 -0.001882 -0.000621
0.090000 0.001850 -0.001223
0.090252 -0.001792 -0.000208
0.086602 0.000990 -0.001035
0.087453 -0.002126 -0.000943
0.091099 -0.001683 -0.001272
0.090338 0.000985 -0.001358
0.089988 -0.001053 -0.001322
0.087840 -0.000715 -0.001139
0.087150 -0.002158 -0.000314
0.087510 0.001719 0.000457
0.090874 -0.001712 -0.000812
0.087700 -0.001157 0.000445
0.087011 -0.001115 -0.001070
0.090347 0.001270 0.000205
0.090443 0.001794 -0.000962
0.090817 -0.000959 -0.001408
0.090297 0.000854 0.000211
0.089629 0.001625 -0.001290
0.087430 -0.000637 0.000461
0.090508 -0.001298 -0.001376
0.090880 -0.001712 -0.000360
0.088129 0.001853 0.000419
0.090676 -0.001346 0.000166
0.090257 -0.001791 -0.000637
0.089748 0.001340 0.000274
0.089260 -0.001917 -0.000308
0.088579 0.001811 0.000382
0.086456 0.002260 -0.000630
0.086582 -0.000907 -0.001033
0.088275 -0.002038 -0.000763
0.088366 0.002056 -0.000704
0.089987 -0.001470 0.000246
0.087311 0.002038 -0.001094
0.089408 -0.001505 0.000308
0.089977 0.000465 0.000248
0.089338 0.001314 0.000315
0.086566 -0.002222 0.000182
0.086930 0.000430 0.000492
0.086522 0.000416 -0.001028
0.089529 -0.001101 -0.001281
0.087601 0.000662 -0.001119
0.088112 0.002083 -0.001029
0.088680 -0.001388 -0.001210
0.089763 -0.001853 -0.000943
0.089528 0.000438 0.000298
0.088430 -0.000110 -0.001189
0.090777 0.001707 -0.001404
0.087450 -0.001501 0.000460
0.089069 -0.000875 -0.001243
0.089877 -0.000271 0.000259
0.087011 0.001575 -0.001069
0.089198 0.000835 0.000327
0.088609 0.000833 0.000379
0.088239 0.001408 0.000412
0.090957 -0.000370 -0.001423
0.086750 0.002080 0.000501
0.090976 0.000402 0.000129
0.089489 0.001061 -0.001278
0.087041 -0.001542 -0.001072
0.088390 0.000752 -0.001185
0.090676 0.000745 0.000167
0.091006 0.001380 0.000126
0.090727 0.000749 -0.001399
0.090943 0.001731 -0.000970
0.086610 -0.001383 0.000507
0.089718 -0.001103 0.000277
0.090835 -0.001719 0.000066
0.087969 -0.001607 0.000428
0.089603 0.001901 -0.000898
0.087160 -0.001936 0.000477
0.087519 -0.002120 0.000383
0.087949 0.000078 0.000429
0.091385 -0.001648 -0.000737
0.087129 0.002189 0.000397
0.089348 -0.000311 0.000314
0.091277 -0.000772 -0.001456
0.087621 -0.000385 -0.001120
0.088889 0.001957 -0.001228
0.090877 0.001130 -0.001414
0.088995 -0.001950 -0.000788
0.089338 -0.000909 0.000315
0.087515 0.002146 -0.000740
0.088611 0.002028 -0.000241
0.090062 0.001844 -0.000162
0.088160 -0.001196 -0.001166
0.086880 0.002215 -0.000338
0.088799 -0.000310 0.000363
0.088259 0.000604 0.000410
0.086810 -0.002140 0.000497
0.088060 -0.000338 -0.001158
0.090038 0.000614 -0.001326
0.090937 -0.001340 -0.001421
0.087230 0.000975 0.000474
0.090518 -0.000254 -0.001377
0.090660 -0.001739 -0.001165
0.089769 0.000023 -0.001302
0.088939 -0.000145 -0.001232
0.090976 -0.000222 0.000129
0.088735 -0.001984 0.000071
0.088148 -0.002052 0.000297
0.086980 0.001731 0.000489
0.088010 0.000589 -0.001153
0.089848 -0.000594 -0.001308
0.090756 -0.000923 0.000158
0.086911 -0.002011 -0.001062
0.087790 -0.001495 -0.001135
0.086475 -0.002229 -0.000709
0.087930 -0.002074 -0.001139
0.087454 -0.002127 -0.000031
0.089198 0.000077 0.000327
0.090017 0.001821 0.000243
0.091258 0.001691 -0.001343
0.089071 0.001968 -0.000297
0.090257 -0.000160 0.000215
0.090086 0.001840 -0.000705
0.091275 0.001046 0.000087
0.089419 -0.000243 -0.001272
0.090787 0.000292 -0.001405
0.088849 0.001437 0.000358
0.088139 0.001018 0.000418
0.091257 0.001210 -0.001455
0.086966 -0.002177 -0.000698
0.087441 -0.001694 -0.001106
0.089386 -0.001902 0.000182
0.087191 0.000935 -0.001084
0.087947 0.002101 -0.000621
0.088429 0.000208 0.000395
0.086790 -0.000057 0.000499
0.088835 0.001999 0.000091
0.089008 -0.001266 0.000343
0.086791 0.000094 -0.001050
0.090108 -0.000198 -0.001334
0.089801 -0.001849 -0.000269
0.089249 0.000117 -0.001258
0.091147 0.000822 -0.001443
0.090358 0.001728 -0.001360
0.087640 0.000850 0.000449
0.094150 0.000666 -0.000394
0.093524 -0.001298 -0.001693
0.095157 0.001157 -0.001472
0.092875 0.000801 -0.001624
0.096295 -0.000962 -0.001590
0.095761 0.000003 -0.001928
0.091994 0.001598 -0.000863
0.093272 0.000015 -0.000226
0.093711 0.000308 -0.000308
0.092525 -0.000384 -0.001588
0.092782 0.001499 -0.001041
0.092835 0.001418 -0.001620
0.093514 0.001119 -0.001692
0.092833 -0.000101 -0.000152
0.094463 0.000247 -0.001792
0.093075 -0.000363 -0.001646
0.095935 -0.000708 -0.000778
0.093594 0.000141 -0.001700
0.093518 0.001397 -0.001345
0.096011 -0.000798 -0.001954
0.092455 0.000663 -0.001580
0.091721 -0.001605 -0.001090
0.093915 0.001339 -0.000762
0.096304 -0.000382 -0.000869
0.093461 -0.001336 -0.000260
0.094516 0.001250 -0.001564
0.095589 0.001094 -0.001268
0.093880 -0.000171 -0.000341
0.092264 0.000381 -0.000056
0.094541 0.001247 -0.001113
0.094258 -0.001261 -0.001399
0.093072 0.001453 -0.000192
0.095796 0.000060 -0.000746
0.091735 0.001309 0.000022
0.091506 -0.001269 -0.001481
0.091766 0.000524 -0.001508
0.093412 -0.000858 -0.000250
0.092695 -0.001181 -0.001606
0.093699 -0.001342 -0.001305
0.093691 0.001170 -0.000304
0.093614 -0.000437 -0.001702
0.091415 -0.000145 0.000067
0.092923 0.000770 -0.000167
0.095852 -0.001029 -0.001062
0.096321 -0.000106 -0.001990
0.093990 -0.000994 -0.000363
0.092320 -0.001530 -0.000381
0.094646 -0.001205 -0.000671
0.091926 -0.001221 -0.001525
0.094912 0.000570 -0.001838
0.091825 0.000880 0.000010
0.092294 -0.000207 -0.000061
0.092823 -0.001466 -0.000922
0.093594 0.000544 -0.001700
0.092520 0.001533 -0.000365
0.092103 -0.001557 -0.000921
0.094314 -0.001254 -0.000890
0.093461 -0.000386 -0.000259
0.092683 -0.001092 -0.000127
0.093344 -0.000830 -0.001674
0.094063 -0.000808 -0.001750
0.094055 0.001318 -0.001596
0.091736 0.000976 -0.001505
0.095142 -0.001130 -0.001850
0.094349 -0.000304 -0.000434
0.094033 -0.000354 -0.001747
0.095722 0.001073 -0.001853
0.093495 0.001400 -0.000791
0.094969 -0.001156 -0.001332
0.092106 0.000255 -0.001543
0.095167 0.001148 -0.000605
0.092745 0.000029 -0.001611
0.091971 0.001602 -0.000304
0.091906 0.001609 -0.001509
0.092324 0.001319 -0.000066
0.093880 -0.000591 -0.000341
0.091839 -0.001591 -0.000425
0.092336 0.001554 -0.001544
0.093271 -0.001406 -0.001080
0.095118 0.000587 -0.000593
0.092805 -0.000706 -0.001617
0.096070 0.001024 -0.001239
0.092286 -0.000927 -0.001562
0.095925 0.000651 -0.000776
0.092523 0.000729 -0.000100
0.093546 -0.001366 -0.000724
0.094559 0.000722 -0.000474
0.091736 -0.000869 -0.001505
0.094509 0.001199 -0.000464
0.094828 -0.000295 -0.000530
0.095526 0.000534 -0.000686
0.091601 0.001648 -0.001138
0.095545 0.001101 -0.000821
0.093947 -0.001308 -0.000626
0.095666 -0.000364 -0.000717
0.096312 -0.000960 -0.001025
0.094513 -0.001104 -0.001797
0.092236 0.001116 -0.001557
0.091736 -0.000368 -0.001505
0.095217 -0.000610 -0.000617
0.091715 -0.001595 0.000024
0.092978 -0.001447 -0.000554
0.091525 -0.001120 0.000051
0.092395 0.001548 -0.000805
0.091496 -0.000047 -0.001480
0.093052 -0.001238 -0.000190
0.092853 -0.000706 -0.000156
0.092948 -0.001450 -0.001398
0.092334 -0.000670 -0.000068
0.094641 -0.001205 -0.001112
0.095197 0.000111 -0.000612
0.094709 0.000176 -0.000503
0.094193 0.000975 -0.001762
0.093174 0.000383 -0.001656
0.093302 0.001089 -0.000232
0.092124 -0.001127 -0.000034
0.095522 -0.000866 -0.001902
0.092763 0.000376 -0.000140
0.095342 0.000279 -0.001884
0.095457 -0.000992 -0.000671
0.095885 -0.001022 -0.001651
0.091745 -0.000563 0.000020
0.092114 -0.001557 -0.000033
0.095252 0.001102 -0.001874
0.095032 0.001176 -0.001027
0.091455 0.000657 0.000062
0.094952 -0.000434 -0.001842
0.094978 -0.000995 -0.000563
0.095442 -0.000466 -0.001894
0.095418 -0.001091 -0.001352
0.094063 0.000299 -0.001749
0.096061 0.000886 -0.001959
0.093731 0.000765 -0.000311
0.095851 -0.000403 -0.001938
0.096291 0.000539 -0.001987
0.092530 -0.001502 -0.001191
0.095154 -0.001130 -0.000896
0.091573 0.001653 -0.000158
0.094593 0.000843 -0.001804
0.094463 -0.000365 -0.001792
0.094160 0.000203 -0.000396
0.092156 -0.000528 -0.001549
0.094962 0.000167 -0.001843
0.094399 -0.000917 -0.000443
0.094141 0.001306 -0.001108
0.092898 0.001484 -0.000575
0.091874 -0.000143 0.000002
0.095711 0.000675 -0.001922
0.091825 0.000407 0.000009
0.092256 -0.001464 -0.001560
0.093115 0.001117 -0.001650
0.093994 -0.001299 -0.001693
0.093312 0.000678 -0.000233
0.093160 0.001449 -0.001185
0.096334 0.000929 -0.000875
0.092793 0.001147 -0.000145
0.097271 0.000632 -0.001111
0.097324 -0.000811 -0.001746
0.100770 -0.000160 -0.002551
0.097339 0.000048 -0.002119
0.097720 0.000515 -0.001236
0.098228 -0.000612 -0.002231
0.098328 0.000678 -0.002239
0.100650 0.000014 -0.002143
0.097648 -0.000765 -0.001386
0.097639 -0.000532 -0.002156
0.101230 -0.000169 -0.002390
0.096454 0.000538 -0.000905
0.098318 0.000638 -0.001404
0.096423 0.000970 -0.001781
0.098158 0.000257 -0.001361
0.099696 -0.000354 -0.002415
0.097050 -0.000838 -0.002083
0.098188 0.000297 -0.002226
0.098821 0.000598 -0.002017
0.099743 0.000210 -0.001838
0.097776 0.000772 -0.001538
0.099547 0.000475 -0.002271
0.097998 -0.000257 -0.002202
0.096950 -0.000159 -0.002069
0.097012 -0.000060 -0.001048
0.096510 -0.000836 -0.002014
0.100110 0.000377 -0.001961
0.097072 -0.000685 -0.001063
0.098947 0.000261 -0.002321
0.097849 -0.000245 -0.001275
0.099534 -0.000194 -0.001774
0.097759 0.000205 -0.002171
0.100210 0.000021 -0.002481
0.098946 -0.000333 -0.001592
0.096444 0.000105 -0.000903
0.096621 0.000943 -0.001164
0.098263 0.000690 -0.001832
0.096640 0.000171 -0.002031
0.096876 -0.000877 -0.001569
0.097908 0.000749 -0.002188
0.100030 -0.000369 -0.002145
0.098079 -0.000649 -0.001337
0.097964 -0.000713 -0.001731
0.097341 0.000200 -0.001130
0.100800 0.000253 -0.002555
0.098445 -0.000633 -0.001605
0.099393 0.000503 -0.001793
0.097411 -0.000272 -0.001149
0.099187 -0.000507 -0.002315
0.097040 0.000393 -0.002081
0.099836 0.000193 -0.002433
0.099245 0.000121 -0.001686
0.098697 -0.000163 -0.002289
0.098619 -0.000602 -0.002141
0.096826 0.000913 -0.001552
0.097213 0.000855 -0.001801
0.098707 0.000516 -0.001517
0.097479 0.000680 -0.002136
0.096680 0.000646 -0.002036
0.099022 -0.000536 -0.001925
0.098866 0.000160 -0.001568
0.096633 -0.000685 -0.000952
0.100450 -0.000298 -0.002336
0.099436 0.000084 -0.002383
0.100170 -0.000014 -0.001983
0.098248 -0.000199 -0.001385
0.101130 0.000213 -0.002310
0.096683 -0.000273 -0.000963
0.096912 0.000412 -0.001021
0.101820 0.000080 -0.002683
0.101430 0.000162 -0.002618
0.014328 0.003760 -0.000680
0.015271 0.003908 0.000614
0.012420 0.002981 0.000648
0.014414 0.003416 -0.001679
0.013059 0.003221 -0.001654
0.013881 0.003549 -0.001356
0.015635 0.003733 0.000609
0.012654 0.002942 -0.001657
0.014491 0.003300 0.000623
0.013796 0.003508 -0.000233
0.015842 0.002479 -0.001696
0.014336 0.002538 -0.001678
0.015930 0.003822 -0.001697
0.014444 0.002684 0.000623
0.013498 0.002333 0.000635
0.016399 0.004981 -0.000291
0.015378 0.003024 0.000612
0.015484 0.004384 -0.001108
0.012528 0.003043 -0.001220
0.013769 0.002342 -0.001671
0.014657 0.003919 -0.000965
0.015796 0.003069 0.000607
0.012130 0.002539 0.000651
0.013872 0.002818 -0.001672
0.014349 0.003772 -0.001182
0.013475 0.003382 -0.000653
0.015580 0.004443 -0.001693
0.016034 0.004742 -0.001042
0.015241 0.004236 0.000300
0.014863 0.003100 0.000618
0.015784 0.004579 -0.001333
0.016391 0.003720 -0.001703
0.011902 0.002853 -0.000912
0.015196 0.003227 -0.001688
0.016041 0.004576 -0.001698
0.013880 0.002910 0.000630
0.011506 0.002753 -0.000091
0.015608 0.003140 -0.001693
0.016253 0.004889 -0.001363
0.016359 0.004151 -0.001702
0.012874 0.003146 0.000515
0.013213 0.002622 -0.001664
0.011651 0.002788 0.000329
0.014730 0.003957 -0.001682
0.014998 0.004103 -0.000423
0.014639 0.003904 0.000107
0.014304 0.002981 -0.001677
0.015743 0.002615 0.000608
0.013283 0.003036 0.000638
0.014470 0.003825 -0.000254
0.016327 0.002746 0.000601
0.012914 0.003164 -0.000877
0.016063 0.004331 0.000604
0.013985 0.003400 0.000629
0.012781 0.003120 -0.000410
0.013077 0.002468 0.000640
0.015258 0.004258 -0.001457
0.014414 0.003783 0.000624
0.015377 0.002773 -0.001690
0.013481 0.003387 -0.001145
0.015578 0.004432 -0.000129
0.011957 0.002869 -0.001519
0.013508 0.003390 0.000467
0.016099 0.003556 0.000603
0.014909 0.002782 -0.001685
0.015334 0.002420 0.000613
0.016097 0.002963 -0.001699
0.015434 0.002359 -0.001691
0.012188 0.002430 -0.001652
0.014092 0.003640 0.000318
0.012093 0.002898 0.000042
0.013108 0.003239 -0.001222
0.015534 0.004365 0.000610
0.013847 0.003530 -0.000810
0.016214 0.003144 0.000602
0.013547 0.003415 -0.001564
0.012291 0.002966 -0.000897
0.015417 0.004342 -0.000572
0.016092 0.004775 -0.000445
0.012032 0.002883 -0.000366
0.016035 0.004730 0.000479
0.013415 0.003355 -0.000086
0.015004 0.004110 -0.000987
0.011579 0.002738 -0.001644
0.012515 0.003034 -0.000014
0.014711 0.002388 0.000620
0.012651 0.002567 0.000645
0.015264 0.003937 -0.001689
0.015599 0.003574 -0.001693
0.016312 0.002418 -0.001702
0.015015 0.002700 0.000616
0.016102 0.004778 0.000068
0.013095 0.003227 0.000147
0.014863 0.003757 0.000618
0.016074 0.003425 -0.001699
0.014838 0.003478 -0.001684
0.013426 0.002997 -0.001667
0.012820 0.002525 -0.001659
0.015312 0.003432 0.000613
0.011572 0.002773 -0.001204
0.015722 0.004525 0.000234
0.012054 0.002886 0.000449
0.015766 0.004562 -0.000713
0.013939 0.002506 0.000630
0.018125 0.003656 -0.001723
0.016620 0.005160 -0.001217
0.021331 0.003876 -0.000817
0.021280 0.003496 -0.001762
0.016938 0.005404 -0.001165
0.019444 0.004850 0.000563
0.019032 0.005687 -0.001734
0.020509 0.002593 0.000550
0.019494 0.004441 0.000562
0.018622 0.006024 -0.001729
0.019517 0.002909 -0.001740
0.016884 0.002948 0.000594
0.017777 0.006128 -0.001304
0.018410 0.006515 0.000576
0.018259 0.004938 0.000577
0.017786 0.005557 -0.001719
0.019894 0.002431 -0.001745
0.020177 0.004943 -0.000341
0.018231 0.005226 -0.001725
0.017972 0.006316 -0.000997
0.020274 0.002755 -0.001750
0.017285 0.003256 -0.001713
0.018462 0.005629 -0.001727
0.019542 0.002913 0.000562
0.017476 0.005842 0.000448
0.019550 0.004002 -0.001741
0.018530 0.006839 0.000074
0.018507 0.004540 -0.001728
0.018280 0.005733 0.000577
0.020401 0.004728 0.000040
0.017240 0.005641 -0.000277
0.019099 0.006105 -0.001368
0.018782 0.004041 0.000571
0.019798 0.005344 0.000556
0.016840 0.003372 -0.001708
0.019620 0.005515 -0.001535
0.020722 0.003060 -0.001755
0.018286 0.003093 -0.001726
0.019839 0.005291 -0.000050
0.018856 0.006426 -0.000295
0.017077 0.004347 0.000592
0.020700 0.004440 0.000455
0.018522 0.006788 -0.001728
0.019755 0.005370 -0.001117
0.016542 0.003843 0.000598
0.018805 0.003725 -0.001732
0.021034 0.003494 0.000544
0.019933 0.003526 -0.001746
0.020373 0.003978 -0.001751
0.018834 0.006176 0.000571
0.020194 0.004935 0.000346
0.017215 0.002740 -0.001713
0.019312 0.005871 -0.000295
0.018994 0.004881 0.000569
0.020284 0.004830 -0.001072
0.018206 0.006549 -0.000705
0.020756 0.004380 -0.000323
0.016483 0.004893 -0.001703
0.019959 0.004632 -0.001746
0.020214 0.003354 0.000554
0.016558 0.005109 -0.000824
0.016855 0.005344 -0.001597
0.016711 0.005222 -0.000360
0.017152 0.002404 0.000591
0.018919 0.005460 0.000570
0.019839 0.004221 0.000558
0.021070 0.004101 -0.001057
0.017805 0.005178 0.000583
0.017520 0.002618 0.000586
0.019376 0.005697 0.000564
0.017148 0.003796 -0.001712
0.019014 0.004428 -0.001734
0.017178 0.004253 -0.001712
0.017055 0.004742 0.000592
0.019544 0.003905 0.000562
0.021015 0.002894 0.000544
0.019089 0.004463 0.000567
0.017550 0.003848 -0.001717
0.018031 0.006034 -0.001722
0.019175 0.003626 0.000566
0.018555 0.002465 0.000574
0.017463 0.004544 0.000587
0.019082 0.002610 0.000567
0.021213 0.003982 -0.000433
0.017017 0.005460 -0.000709
0.018867 0.006404 -0.000775
0.019109 0.006104 -0.000621
0.020561 0.003090 0.000549
0.017988 0.006314 0.000422
0.018348 0.006699 -0.001192
0.018294 0.002458 -0.001726
0.016851 0.003427 0.000594
0.019917 0.003103 -0.001745
0.017534 0.005900 -0.000070
0.017966 0.004792 -0.001721
0.017872 0.006202 -0.000083
0.020752 0.004371 -0.001702
0.018078 0.004376 -0.001723
0.020735 0.004392 -0.001119
0.019400 0.005768 -0.000711
0.019960 0.005045 -0.001746
0.017789 0.002959 0.000583
0.020019 0.003841 0.000556
0.018944 0.006293 -0.001713
0.018394 0.006363 -0.001726
0.018937 0.006330 0.000083
0.018025 0.003518 0.000580
0.017345 0.005210 0.000589
0.020450 0.004662 -0.001472
0.017426 0.004966 -0.001715
0.019438 0.003493 -0.001739
0.016990 0.004792 -0.001710
0.020997 0.004175 0.000002
0.018613 0.002883 0.000573
0.016513 0.004354 0.000599
0.020198 0.004548 0.000554
0.018418 0.004068 -0.001727
0.017714 0.002852 -0.001719
0.019773 0.003528 0.000559
0.017193 0.005593 0.000299
0.018141 0.002359 0.000579
0.017354 0.005398 -0.001714
0.017733 0.003270 -0.001719
0.018841 0.005167 -0.001732
0.017895 0.004391 0.000582
0.021307 0.003907 0.000103
0.017266 0.003256 0.000589
0.016695 0.005205 0.000123
0.017455 0.005835 -0.000550
0.020921 0.002669 -0.001758
0.018861 0.003167 -0.001733
0.020594 0.003904 0.000549
0.020880 0.003435 -0.001757
0.016574 0.005048 0.000598
0.018804 0.006477 -0.001224
0.017517 0.004133 0.000586
0.021253 0.003929 -0.001761
0.019385 0.005780 -0.001111
0.017989 0.003947 0.000581
0.017071 0.003806 0.000592
0.017770 0.006114 -0.000668
0.016946 0.005245 0.000593
0.019277 0.002577 -0.001738
0.018627 0.002824 -0.001730
0.019462 0.005710 0.000049
0.020211 0.002866 0.000554
0.020465 0.003525 -0.001752
0.018917 0.003215 0.000569
0.017491 0.005876 -0.001491
0.018541 0.006811 -0.000805
0.020505 0.004617 -0.000783
0.018190 0.006522 0.000112
0.018394 0.004370 0.000576
0.020953 0.004207 -0.000681
0.020797 0.003867 -0.001756
0.018151 0.002796 0.000578
0.018390 0.003966 0.000576
0.017585 0.003686 0.000585
0.017857 0.002356 -0.001720
0.018081 0.006432 -0.001492
0.018361 0.006702 -0.000314
0.020042 0.005065 -0.001345
0.019779 0.005348 -0.000691
0.021044 0.004120 -0.001473
0.018645 0.003558 0.000573
0.017817 0.005656 0.000583
0.020289 0.004399 -0.001750
0.016789 0.002543 -0.001707
0.019367 0.005163 -0.001738
0.019546 0.002495 0.000562
0.019967 0.004153 -0.001746
0.019430 0.004685 -0.001739
0.016812 0.004077 -0.001708
0.018631 0.004692 0.000573
0.021245 0.003923 0.000541
0.016691 0.002432 0.000596
0.016499 0.003093 -0.001704
0.019149 0.004017 -0.001736
0.017331 0.005731 -0.001104
0.017630 0.004344 -0.001717
0.018338 0.003248 0.000576
0.019182 0.006028 0.000442
0.018889 0.002495 -0.001733
0.021127 0.003119 -0.001760
0.019873 0.004818 0.000558
0.018506 0.003454 -0.001728
0.018183 0.005331 0.000578
0.019389 0.005288 0.000564
0.025068 0.003330 -0.000026
0.025072 0.003329 -0.001121
0.022663 0.003263 -0.001779
0.023108 0.002425 -0.001784
0.026194 0.003157 -0.001822
0.025973 0.002586 0.000484
0.023396 0.003439 -0.000799
0.024482 0.003103 -0.001801
0.024976 0.002951 0.000496
0.023968 0.003390 -0.001072
0.021518 0.002464 0.000538
0.025273 0.003257 0.000492
0.022630 0.003548 -0.001393
0.023528 0.003420 -0.001532
0.024032 0.003386 -0.001513
0.023061 0.003486 -0.001655
0.024947 0.003336 -0.000669
0.025504 0.003288 -0.001813
0.022362 0.003585 0.000528
0.021535 0.002906 -0.001765
0.025722 0.003295 -0.001360
0.021465 0.003753 -0.001459
0.023572 0.003234 0.000513
0.026127 0.003307 -0.000346
0.023245 0.003463 0.000449
0.025753 0.003296 -0.000893
0.025018 0.003331 -0.001730
0.021673 0.003687 -0.000433
0.024572 0.003356 -0.001500
0.022915 0.002740 0.000521
0.026186 0.003310 -0.001432
0.022738 0.003322 0.000523
0.022227 0.003608 0.000025
0.023469 0.002793 0.000514
0.022194 0.003006 -0.001773
0.023402 0.003440 -0.000284
0.025542 0.003303 -0.000527
0.022097 0.003624 -0.001627
0.025481 0.003307 -0.000016
0.025332 0.002764 -0.001811
0.023385 0.003048 -0.001787
0.023028 0.002840 -0.001783
0.025849 0.002828 -0.001817
0.024499 0.002345 -0.001801
0.021527 0.002884 0.000538
0.023019 0.003494 -0.000103
0.022295 0.003130 0.000528
0.022422 0.002504 -0.001776
0.024778 0.002654 -0.001804
0.023035 0.003491 -0.000581
0.023941 0.002671 0.000508
0.024138 0.003381 0.000453
0.024812 0.002354 0.000498
0.024376 0.003367 -0.000669
0.023713 0.003404 -0.000528
0.021721 0.003244 0.000535
0.024608 0.003355 -0.000209
0.024054 0.003385 0.000048
0.023088 0.003483 -0.001059
0.022565 0.003559 -0.000736
0.021640 0.003677 0.000536
0.022420 0.002642 0.000527
0.024723 0.003349 0.000407
0.024042 0.002877 -0.001795
0.022051 0.002357 0.000531
0.022123 0.003621 -0.001031
0.022700 0.003541 0.000185
0.021655 0.003690 0.000069
0.024542 0.003358 -0.001099
0.026188 0.003309 0.000463
0.026298 0.002869 0.000480
0.022033 0.002768 0.000531
0.023617 0.003409 0.000080
0.022053 0.003633 -0.000332
0.025678 0.003029 0.000487
0.021608 0.002493 -0.001766
0.021698 0.003682 -0.001122
0.021707 0.003547 -0.001767
0.026037 0.002335 -0.001820
0.024616 0.002713 0.000500
0.024094 0.002469 -0.001796
0.023509 0.002615 -0.001789
0.025580 0.002357 -0.001814
0.025339 0.002616 0.000491
0.026377 0.002589 -0.001824
0.022655 0.003547 -0.000311
0.025882 0.003299 0.000135
0.024304 0.002996 0.000504
0.030852 0.003814 -0.000562
0.030767 0.003672 0.000592
0.029126 0.002429 -0.001706
0.029497 0.003565 -0.000311
0.026530 0.003321 -0.000762
0.029707 0.003590 0.000116
0.027502 0.003121 -0.001837
0.028633 0.003216 -0.001756
0.029800 0.002366 0.000549
0.031277 0.003288 0.000615
0.031218 0.003889 0.000435
0.028037 0.002544 -0.001817
0.030427 0.002857 0.000577
0.029085 0.003081 -0.001710
0.026744 0.003328 -0.000326
0.029073 0.003514 -0.000375
0.030093 0.003657 -0.001530
0.031255 0.003782 -0.001490
0.031162 0.002879 -0.001500
0.028789 0.003481 -0.001027
0.030886 0.003820 -0.000163
0.029281 0.003541 -0.001194
0.027544 0.003354 -0.000917
0.030622 0.002406 -0.001555
0.029282 0.003541 -0.001631
0.027414 0.003350 -0.000512
0.030574 0.003238 0.000584
0.028351 0.002569 0.000485
0.030429 0.003725 -0.000304
0.027615 0.003356 0.000099
0.029541 0.003513 0.000538
0.029068 0.003455 0.000517
0.028492 0.003446 -0.001404
0.029682 0.003589 -0.001566
0.027999 0.003385 -0.000822
0.028516 0.003447 -0.000066
0.027127 0.002826 0.000470
0.029957 0.003625 -0.000289
0.026750 0.002794 -0.001828
0.028507 0.003201 0.000492
0.027878 0.003372 -0.001371
0.030179 0.003525 0.000566
0.030233 0.003682 0.000103
0.026571 0.003322 -0.001237
0.029029 0.003508 0.000073
0.029499 0.003057 0.000536
0.029658 0.003585 -0.000708
0.026984 0.003336 -0.001606
0.030054 0.002717 0.000560
0.030306 0.003701 -0.001165
0.026928 0.003333 0.000162
0.028560 0.003453 -0.000659
0.028146 0.003206 -0.001805
0.030416 0.003062 -0.001575
0.027731 0.003164 0.000462
0.026658 0.003223 -0.001827
0.030082 0.003653 -0.000832
0.030776 0.003799 -0.001003
0.028221 0.003412 -0.000422
0.026541 0.002375 0.000477
0.029848 0.003078 -0.001633
0.031377 0.003927 -0.001073
0.027041 0.003338 -0.001205
0.029034 0.003028 0.000515
0.027516 0.002694 0.000465
0.030143 0.002423 -0.001603
0.028640 0.002805 -0.001755
0.029414 0.002768 -0.001677
0.031368 0.002542 0.000619
0.027900 0.002565 0.000465
0.031306 0.003254 -0.001485
0.029931 0.003191 0.000555
0.027467 0.002669 -0.001837
0.026983 0.003335 -0.000685
0.029000 0.002579 0.000514
0.027427 0.003350 -0.001485
0.030997 0.002798 0.000602
0.029147 0.003524 -0.000767
0.029708 0.003592 -0.001165
0.030938 0.003410 -0.001522
0.026421 0.003317 -0.000010
0.028114 0.003387 0.000474
0.027777 0.003361 -0.000284
0.028682 0.002343 0.000499
0.026648 0.003177 0.000476
0.027236 0.003343 -0.000134
0.030470 0.003516 -0.001570
0.029800 0.002644 -0.001638
0.031248 0.003898 -0.000677
0.030815 0.003809 -0.001509
0.028020 0.003387 0.000085
0.027291 0.003345 0.000331
0.028180 0.002965 0.000477
0.032939 0.004240 0.000689
0.035811 0.005398 -0.000796
0.036390 0.002725 0.000818
0.032238 0.002956 0.000658
0.033769 0.004453 0.000726
0.031878 0.003901 0.000642
0.031981 0.004052 0.000058
0.035346 0.005204 0.000469
0.033022 0.004371 -0.000690
0.031803 0.003851 -0.001435
0.033956 0.003574 -0.001216
0.036158 0.003512 -0.001038
0.034937 0.004058 -0.001137
0.031853 0.002884 -0.001430
0.034217 0.004755 -0.000271
0.032674 0.003865 -0.001346
0.032293 0.004148 -0.000582
0.035687 0.005067 -0.001076
0.034224 0.004754 0.000323
0.034096 0.002508 -0.001205
0.035418 0.005239 -0.000214
0.033469 0.002389 0.000713
0.034179 0.004246 0.000743
0.035187 0.003501 -0.001116
0.035117 0.004998 -0.001122
0.035990 0.003609 0.000805
0.036328 0.002994 -0.001025
0.035868 0.003234 -0.001062
0.035680 0.004730 0.000794
0.035031 0.005082 0.000025
0.036238 0.005515 -0.001031
0.035597 0.002673 -0.001084
0.033446 0.004496 0.000440
0.036210 0.005582 -0.000073
0.035500 0.003723 0.000788
0.034637 0.004930 -0.001081
0.035820 0.005393 0.000792
0.031604 0.003970 0.000283
0.035085 0.005106 -0.000418
0.032774 0.002395 -0.001336
0.032338 0.003430 0.000663
0.035080 0.003507 0.000774
0.035898 0.004545 -0.001059
0.033275 0.002687 -0.001286
0.031778 0.002652 0.000637
0.033986 0.004162 -0.001214
0.033759 0.002820 0.000725
0.034416 0.002780 -0.001179
0.033706 0.004575 -0.000330
0.031575 0.003967 -0.000417
0.034299 0.003159 0.000747
0.035330 0.003138 0.000782
0.032303 0.002500 -0.001384
0.034311 0.004797 -0.000747
0.032143 0.003458 -0.001401
0.033288 0.004448 -0.000215
0.032889 0.003513 0.000687
0.032265 0.004143 -0.001217
0.032564 0.003446 -0.001358
0.032890 0.004326 -0.000052
0.035497 0.004311 -0.001092
0.032884 0.002804 -0.001326
0.034967 0.002601 -0.001134
0.032718 0.002688 0.000679
0.036078 0.002505 -0.001045
0.034627 0.004914 0.000531
0.031898 0.004036 -0.001026
0.035457 0.004743 -0.001095
0.035940 0.004420 0.000803
0.033379 0.003985 0.000709
0.033295 0.004213 -0.001283
0.033751 0.004589 0.000078
0.035663 0.005335 0.000187
0.035567 0.003861 -0.001086
0.034660 0.004032 0.000759
0.034376 0.003444 -0.001182
0.035660 0.002681 0.000793
0.034586 0.003841 -0.001165
0.031898 0.003439 0.000643
0.035200 0.002504 0.000778
0.034560 0.004891 -0.000043
0.032178 0.002504 0.000655
0.032358 0.003837 0.000663
0.032243 0.002925 -0.001390
0.032828 0.003084 0.000684
0.033899 0.002359 0.000732
0.034560 0.003470 0.000756
0.032633 0.004247 0.000252
0.035920 0.004006 0.000802
0.036044 0.005497 0.000295
0.032884 0.004226 -0.001325
0.033144 0.003238 -0.001298
0.035421 0.005242 -0.000805
0.034970 0.002845 0.000770
0.031518 0.003623 0.000626
0.033537 0.004529 -0.001112
0.035938 0.004092 -0.001056
0.033789 0.003768 0.000727
0.036198 0.004978 -0.001035
0.035750 0.003147 0.000796
0.033319 0.003350 0.000706
0.031653 0.003446 -0.001450
0.031648 0.003096 0.000631
0.034686 0.004486 -0.001157
0.034900 0.004733 0.000768
0.031532 0.002603 -0.001462
0.034219 0.003824 0.000744
0.033615 0.003107 -0.001251
0.034665 0.004935 -0.000452
0.032339 0.004161 -0.000128
0.033462 0.004505 -0.000648
0.034006 0.002957 -0.001212
0.035530 0.004346 0.000789
0.033465 0.003795 -0.001267
0.036030 0.004932 0.000806
0.035497 0.003086 -0.001092
0.034008 0.004676 -0.000984
0.034987 0.003083 -0.001133
0.034509 0.002642 0.000754
0.033739 0.003357 0.000724
0.035170 0.004050 0.000777
0.036170 0.003253 0.000811
0.035776 0.005381 -0.000342
0.034109 0.004672 0.000741
0.033189 0.002862 0.000700
0.035097 0.004556 -0.001124
0.032245 0.004129 0.000381
0.033084 0.003657 -0.001305
0.034499 0.004515 0.000754
0.035290 0.004853 0.000781
0.032599 0.004244 -0.000926
0.036488 0.003958 -0.001012
0.038592 0.005625 0.000894
0.036591 0.004716 0.000825
0.037448 0.006206 0.000611
0.039882 0.007065 0.000938
0.038031 0.003599 0.000875
0.036779 0.004963 -0.000988
0.036430 0.003629 0.000820
0.038701 0.004245 -0.000833
0.039231 0.003969 -0.000790
0.037710 0.005290 -0.000913
0.040522 0.006432 -0.000692
0.038220 0.004241 -0.000872
0.040773 0.006934 -0.000678
0.041183 0.004227 -0.000654
0.038410 0.003646 -0.000856
0.039882 0.006181 0.000938
0.037775 0.006379 -0.000501
0.039422 0.004552 0.000923
0.036809 0.002657 -0.000986
0.040332 0.002766 -0.000705
0.037169 0.005173 -0.000957
0.037870 0.003836 -0.000900
0.037001 0.002990 0.000839
0.038300 0.006035 -0.000865
0.037221 0.004152 0.000847
0.038611 0.005511 -0.000840
0.040863 0.004380 0.000965
0.039462 0.005470 0.000924
0.036789 0.004360 -0.000987
0.039551 0.003559 -0.000765
0.041383 0.005435 -0.000642
0.039792 0.005280 -0.000745
0.037271 0.005199 0.000849
0.039152 0.005114 0.000913
0.039411 0.006765 -0.000775
0.039362 0.003503 0.000920
0.038811 0.002880 -0.000825
0.037403 0.006188 0.000168
0.036906 0.005934 0.000429
0.038471 0.003589 0.000890
0.041283 0.005077 0.000975
0.040392 0.006425 0.000954
0.038542 0.006667 0.000893
0.039102 0.003052 0.000911
0.038461 0.002681 0.000889
0.038561 0.004271 0.000893
0.039062 0.005658 0.000910
0.036423 0.005698 -0.000584
0.037540 0.006265 -0.000891
0.036792 0.005882 -0.000714
0.041343 0.006494 0.000977
0.040843 0.002703 -0.000674
0.039081 0.004617 -0.000803
0.039632 0.002655 0.000929
0.036801 0.004044 0.000833
0.041393 0.003777 -0.000641
0.037181 0.006020 0.000846
0.037690 0.006337 -0.000083
0.037591 0.005714 0.000860
0.036440 0.005664 0.000820
0.037599 0.002959 -0.000922
0.036911 0.003448 0.000836
0.036941 0.004958 0.000837
0.038340 0.002431 -0.000862
0.040622 0.003616 -0.000687
0.038381 0.004698 0.000887
0.039692 0.006565 0.000932
0.039572 0.006396 -0.000762
0.037731 0.003158 0.000864
0.039161 0.005210 -0.000796
0.039932 0.006096 -0.000734
0.039002 0.006921 0.000909
0.039902 0.005506 0.000939
0.038722 0.004999 0.000898
0.038110 0.002789 -0.000881
0.040482 0.004014 0.000956
0.040963 0.005991 0.000968
0.038000 0.003275 -0.000890
0.039302 0.006412 0.000919
0.037931 0.004256 0.000871
0.038191 0.006222 0.000880
0.036708 0.005839 -0.000192
0.036410 0.004113 0.000819
0.037579 0.004757 -0.000923
0.037251 0.004707 0.000848
0.037990 0.004903 -0.000890
0.041283 0.007019 0.000976
0.040022 0.003660 0.000943
0.038802 0.003862 0.000901
0.040512 0.003149 -0.000694
0.039060 0.007173 -0.000067
0.037339 0.003462 -0.000944
0.040953 0.005367 -0.000667
0.038601 0.006524 -0.000841
0.037731 0.002582 0.000864
0.038131 0.005748 0.000878
0.040562 0.005729 -0.000691
0.041293 0.003380 0.000975
0.040753 0.005324 0.000963
0.038542 0.006032 0.000892
0.038871 0.003316 -0.000820
0.037811 0.006346 0.000867
0.038228 0.006656 -0.000246
0.040532 0.007115 0.000958
0.036931 0.004420 0.000837
0.038852 0.004602 0.000903
0.036535 0.005747 0.000345
0.039301 0.003183 -0.000785
0.040422 0.005076 0.000955
0.037351 0.002719 0.000851
0.039622 0.003806 0.000929
0.039242 0.002513 0.000916
0.037911 0.004800 0.000871
0.036991 0.002535 0.000839
0.038661 0.003091 0.000896
0.039142 0.004222 0.000912
0.040752 0.003014 0.000962
0.040773 0.006551 0.000963
0.038660 0.006928 -0.000021
0.038180 0.005276 -0.000875
0.041003 0.002469 0.000968
0.039321 0.005859 -0.000783
0.041243 0.006682 -0.000649
0.040332 0.007030 -0.000704
0.037211 0.005592 0.000847
0.040082 0.004056 0.000945
0.037095 0.006036 -0.000461
0.037209 0.004421 -0.000953
0.038211 0.003009 0.000881
0.036578 0.003480 -0.001004
0.038520 0.004712 -0.000848
0.040663 0.004839 -0.000684
0.038006 0.006514 0.000466
0.040332 0.005905 0.000953
0.041133 0.004871 -0.000656
0.040212 0.005521 -0.000712
0.039822 0.004782 0.000936
0.039742 0.007179 -0.000749
0.038951 0.006992 -0.000813
0.040693 0.004010 -0.000683
0.040092 0.003278 -0.000721
0.037349 0.005577 -0.000942
0.037910 0.005886 -0.000897
0.040833 0.006053 -0.000674
0.037029 0.003803 -0.000968
0.038852 0.006347 0.000903
0.038811 0.004989 -0.000824
0.038120 0.006446 -0.000880
0.040152 0.004701 -0.000716
0.039091 0.002608 -0.000802
0.037911 0.005202 0.000871
0.040602 0.004436 -0.000689
0.040132 0.006507 -0.000718
0.041333 0.002623 -0.000645
0.037629 0.002445 -0.000920
0.040602 0.002504 0.000959
0.041163 0.003183 -0.000655
0.041253 0.004243 0.000974
0.041243 0.005956 -0.000650
0.039942 0.002343 0.000940
0.039772 0.005697 -0.000747
0.040092 0.003190 0.000945
0.038831 0.006036 -0.000823
0.038862 0.002719 0.000903
0.037361 0.003355 0.000851
0.040262 0.002716 0.000951
0.036410 0.005072 0.000819
0.038563 0.006868 -0.000640
0.040202 0.006829 0.000949
0.036811 0.005495 0.000833
0.039314 0.007328 0.000246
0.037621 0.003904 0.000860
0.041013 0.003845 0.000969
0.036610 0.003176 0.000826
0.040893 0.004845 0.000966
0.039190 0.007252 0.000738
0.040142 0.004485 0.000947
0.036448 0.004587 -0.001015
0.039912 0.004335 -0.000736
0.040612 0.003593 0.000959
0.036879 0.005493 -0.000980
0.039712 0.003176 -0.000752
0.040232 0.003924 -0.000710
0.039021 0.006472 -0.000807
0.038365 0.006737 0.000363
0.040332 0.005110 -0.000704
0.038847 0.007039 0.000514
0.036748 0.003069 -0.000991
0.037149 0.003003 -0.000958
0.038470 0.003232 -0.000852
0.039571 0.002686 -0.000763
0.041293 0.004642 0.000975
0.038341 0.005193 0.000886
0.039762 0.004330 0.000934
0.039602 0.004797 -0.000760
0.039862 0.002335 -0.000740
0.038821 0.003859 -0.000823
0.039522 0.005913 0.000926
0.037439 0.003918 -0.000935
0.039842 0.003843 -0.000741
0.040522 0.004654 0.000957
0.039491 0.004358 -0.000769
0.037599 0.004319 -0.000922
0.038972 0.003431 0.000907
0.037109 0.006048 -0.000957
0.046385 0.006510 0.001098
0.042014 0.006513 -0.000603
0.045234 0.004085 0.001069
0.042924 0.002827 -0.000549
0.044004 0.005974 0.001041
0.042074 0.006976 -0.000600
0.045564 0.007196 0.001078
0.043054 0.003228 -0.000542
0.045496 0.003039 -0.000395
0.045146 0.004851 -0.000416
0.043395 0.006325 -0.000521
0.045747 0.002554 -0.000380
0.044664 0.005588 0.001056
0.046047 0.004512 -0.000362
0.045336 0.006094 -0.000404
0.043225 0.004333 -0.000531
0.045164 0.002481 0.001068
0.045714 0.003800 0.001081
0.046107 0.003636 -0.000358
0.044345 0.005147 -0.000464
0.041933 0.005969 0.000991
0.044906 0.004183 -0.000430
0.043495 0.003403 -0.000515
0.042763 0.006998 0.001011
0.042583 0.002617 0.001006
0.042464 0.002989 -0.000577
0.043805 0.004224 -0.000497
0.042293 0.003751 0.000999
0.044065 0.006653 -0.000480
0.046345 0.005245 0.001096
0.041974 0.002947 -0.000606
0.045617 0.007222 -0.000387
0.042153 0.002966 0.000996
0.045146 0.005443 -0.000416
0.044514 0.007247 0.001053
0.045614 0.004928 0.001079
0.045094 0.007295 0.001067
0.043494 0.005695 0.001028
0.042254 0.005226 -0.000589
0.043905 0.006111 -0.000490
0.042433 0.006718 0.001003
0.042243 0.007249 0.000999
0.044404 0.003643 0.001050
0.042683 0.003127 0.001009
0.046154 0.003550 0.001092
0.045344 0.003501 0.001072
0.045774 0.004453 0.001082
0.042814 0.006176 -0.000555
0.042024 0.003787 -0.000603
0.042933 0.005129 0.001015
0.043965 0.005624 -0.000487
0.041813 0.004966 0.000988
0.045336 0.003768 -0.000405
0.043104 0.005088 -0.000538
0.045596 0.004108 -0.000389
0.041523 0.006129 0.000981
0.042303 0.005175 0.001000
0.042364 0.006135 -0.000582
0.044774 0.004175 0.001059
0.044624 0.002554 0.001055
0.044536 0.003449 -0.000453
0.044974 0.003679 0.001063
0.043705 0.007012 -0.000502
0.043675 0.002854 -0.000504
0.045954 0.002579 0.001087
0.044594 0.006744 0.001055
0.043083 0.004022 0.001018
0.044516 0.004348 -0.000453
0.044024 0.003343 0.001041
0.041783 0.004531 -0.000617
0.042143 0.005597 0.000996
0.046044 0.004791 0.001089
0.042974 0.006609 -0.000546
0.042564 0.006581 -0.000571
0.044305 0.003062 -0.000467
0.041853 0.005623 -0.000613
0.044634 0.005987 0.001056
0.044576 0.005481 -0.000450
0.041413 0.005544 0.000978
0.043084 0.002377 -0.000540
0.045757 0.003455 -0.000380
0.045184 0.004987 0.001068
0.045494 0.003024 0.001076
0.044384 0.002918 0.001049
0.046307 0.007203 -0.000346
0.042014 0.004186 -0.000603
0.045296 0.006657 -0.000407
0.043243 0.003562 0.001022
0.043343 0.006098 0.001025
0.044376 0.007287 -0.000462
0.042603 0.005687 0.001007
0.041653 0.004407 0.000984
0.044956 0.003018 -0.000428
0.044434 0.005222 0.001051
0.045867 0.006831 -0.000373
0.046314 0.002852 0.001095
0.042813 0.006079 0.001012
0.045256 0.004366 -0.000409
0.041933 0.003345 0.000991
0.046287 0.006240 -0.000347
0.043473 0.004188 0.001028
0.045774 0.006755 0.001083
0.041503 0.005041 -0.000635
0.044406 0.005893 -0.000460
0.041934 0.006118 -0.000608
0.042573 0.004709 0.001006
0.041423 0.007095 -0.000639
0.043463 0.004685 0.001027
0.041733 0.006655 0.000986
0.043655 0.004785 -0.000505
0.044014 0.006563 0.001041
0.041663 0.003950 0.000984
0.043904 0.005069 0.001038
0.041463 0.006285 -0.000636
0.043835 0.003698 -0.000495
0.044045 0.002518 -0.000482
0.046097 0.002882 -0.000359
0.044684 0.004893 0.001057
0.042594 0.002609 -0.000569
0.043373 0.002729 0.001025
0.044636 0.003883 -0.000447
0.043675 0.005211 -0.000504
0.045977 0.005827 -0.000366
0.045044 0.006741 0.001065
0.044676 0.006568 -0.000444
0.043514 0.005165 0.001029
0.042244 0.004814 -0.000590
0.042983 0.004564 0.001016
0.045054 0.003153 0.001065
0.045324 0.006237 0.001072
0.044085 0.004697 -0.000480
0.045717 0.006303 -0.000381
0.044406 0.006874 -0.000460
0.042093 0.006363 0.000995
0.044254 0.004790 0.001046
0.044536 0.004757 -0.000452
0.042853 0.003670 0.001013
0.043395 0.005872 -0.000521
0.045156 0.002640 -0.000416
0.045556 0.005620 -0.000391
0.043804 0.004448 0.001036
0.042973 0.002791 0.001015
0.044174 0.005613 0.001045
0.043504 0.006482 0.001029
0.041743 0.007083 0.000987
0.043534 0.007120 0.001030
0.041403 0.002992 0.000978
0.046234 0.003996 0.001094
0.042774 0.003681 -0.000559
0.043934 0.007069 0.001039
0.042714 0.006967 -0.000561
0.043215 0.007317 -0.000531
0.042104 0.002533 -0.000599
0.045904 0.003142 0.001086
0.045687 0.004760 -0.000383
0.045804 0.006334 0.001084
0.044776 0.006069 -0.000438
0.041743 0.003417 -0.000620
0.043003 0.005603 0.001017
0.044315 0.006281 -0.000466
0.046267 0.005045 -0.000348
0.042374 0.003594 -0.000582
0.043475 0.003875 -0.000516
0.045334 0.005815 0.001073
0.045236 0.007098 -0.000410
0.042744 0.005644 -0.000560
0.044344 0.006291 0.001048
0.046094 0.005697 0.001091
0.042193 0.004461 0.000997
0.045534 0.005368 0.001077
0.042553 0.004075 0.001005
0.042664 0.004985 -0.000565
0.046277 0.005486 -0.000348
0.044796 0.007236 -0.000437
0.044876 0.005137 -0.000432
0.043984 0.002577 0.001040
0.043155 0.005526 -0.000535
0.041483 0.002366 0.000980
0.042854 0.004486 -0.000553
0.045907 0.005276 -0.000370
0.042254 0.005697 -0.000589
0.042354 0.004419 -0.000583
0.044854 0.006375 0.001061
0.042634 0.004099 -0.000567
0.043794 0.003753 0.001035
0.044164 0.004008 0.001044
0.043614 0.003358 0.001031
0.041783 0.002636 0.000987
0.042913 0.006600 0.001015
0.042493 0.006315 0.001005
0.045124 0.004503 0.001067
0.044225 0.003785 -0.000471
0.041663 0.006764 -0.000624
0.043283 0.003136 0.001023
0.045466 0.005143 -0.000397
0.046244 0.004402 0.001094
0.044384 0.004392 0.001049
0.041763 0.005371 0.000987
0.044966 0.003502 -0.000427
0.048438 0.003689 -0.000261
0.046705 0.004146 0.001102
0.049219 0.005520 -0.000230
0.049369 0.002433 -0.000224
0.047885 0.004026 0.001118
0.046695 0.005592 0.001102
0.049015 0.006901 0.001134
0.048105 0.004612 0.001122
0.046437 0.006821 -0.000339
0.049025 0.003581 0.001134
