ply
format ascii 1.0
element vertex 1680
property float x
property float y
property float z
end_header
0.132550 -0.006351 -0.006111
0.132910 -0.009050 0.001109
0.132780 -0.009046 -0.000380
0.132340 -0.006662 0.005814
0.134190 -0.006234 0.006165
0.132430 -0.008498 -0.003644
0.132260 -0.009045 -0.000945
0.131050 -0.009050 0.001393
0.129580 -0.009050 0.001284
0.130700 -0.005983 0.006298
0.134160 -0.008786 0.002997
0.131010 -0.008901 -0.002363
0.130220 -0.009045 -0.000493
0.131170 -0.007839 0.004732
0.136130 -0.009047 -0.000634
0.137290 -0.008822 -0.002762
0.136170 -0.008757 0.003136
0.138690 -0.007773 0.004820
0.135440 -0.008761 -0.003069
0.138440 -0.008884 -0.002428
0.138450 -0.008738 0.003241
0.135490 -0.009045 -0.001584
0.135220 -0.006215 0.006174
0.134610 -0.007966 -0.004522
0.139180 -0.009054 0.001281
0.135990 -0.006335 0.006109
0.135550 -0.007751 0.004836
0.137460 -0.006764 0.005725
0.136320 -0.005626 0.006487
0.137770 -0.007176 -0.005376
0.134550 -0.008904 0.002319
0.135320 -0.005562 -0.006536
0.138190 -0.009046 -0.001441
0.135150 -0.007074 -0.005465
0.136470 -0.009045 -0.001443
0.139470 -0.007597 -0.004992
0.134870 -0.008428 0.003752
0.138130 -0.008320 0.003935
0.139310 -0.006194 -0.006208
0.135400 -0.007646 -0.004953
0.139110 -0.006735 0.005753
0.139320 -0.008221 0.004107
0.135930 -0.008913 -0.002262
0.139070 -0.008561 -0.003542
0.138090 -0.006284 -0.006159
0.134860 -0.009046 -0.001014
0.137440 -0.009034 0.001651
0.137420 -0.005863 -0.006379
0.136070 -0.008078 -0.004343
0.136420 -0.008061 0.004363
0.135120 -0.009052 0.001436
0.138070 -0.006406 0.006053
0.135910 -0.006654 -0.005837
0.136120 -0.005943 -0.006340
0.137910 -0.008078 -0.004342
0.139390 -0.009049 -0.000447
0.136860 -0.007556 -0.005032
0.137070 -0.006056 0.006261
0.138960 -0.007146 -0.005400
0.136720 -0.006794 -0.005714
0.134990 -0.007372 0.005180
0.137510 -0.008896 0.002404
0.135690 -0.008925 0.002212
0.134760 -0.008378 -0.003842
0.134590 -0.008943 -0.002140
0.138150 -0.008631 -0.003426
0.138740 -0.007908 -0.004623
0.136740 -0.008856 0.002607
0.136710 -0.008399 -0.003811
0.137450 -0.008995 -0.001844
0.138450 -0.009049 -0.000557
0.137070 -0.008018 -0.004447
0.138880 -0.005667 0.006469
0.137100 -0.008469 0.003679
0.138450 -0.009044 0.001614
0.137590 -0.008021 0.004431
0.137480 -0.007443 0.005116
0.135750 -0.009049 0.000173
0.138170 -0.009052 0.000684
0.137300 -0.009047 -0.000901
0.135820 -0.008369 0.003854
0.138480 -0.008876 0.002483
0.136610 -0.008751 -0.003115
0.136020 -0.007225 -0.005323
0.139370 -0.008916 0.002315
0.137700 -0.005557 0.006528
0.136620 -0.007263 0.005280
0.136740 -0.009053 0.001352
0.139270 -0.009046 -0.001608
0.139180 -0.007344 0.005206
0.137120 -0.009050 0.000095
0.135550 -0.008369 -0.003867
0.135060 -0.009050 0.000629
0.135350 -0.006253 -0.006173
0.135320 -0.008786 0.002967
0.135960 -0.009052 0.001186
0.134850 -0.009048 -0.000185
0.138940 -0.009051 0.000408
0.138280 -0.007014 0.005506
0.135890 -0.007063 0.005456
0.140250 -0.007684 0.004901
0.140290 -0.007818 -0.004780
0.143670 -0.008820 0.002832
0.144320 -0.009050 -0.001009
0.140950 -0.005738 0.006430
0.144060 -0.006927 0.005586
0.141510 -0.008966 0.002006
0.139790 -0.008788 0.002999
0.142370 -0.006146 -0.006230
0.142860 -0.008809 0.002888
0.142560 -0.008010 -0.004465
0.142580 -0.008754 -0.003125
0.143430 -0.008987 -0.001921
0.141190 -0.009048 -0.001392
0.142830 -0.008143 0.004243
0.143790 -0.005629 0.006492
0.143480 -0.005715 -0.006458
0.142230 -0.005998 0.006292
0.140150 -0.005817 0.006386
0.142010 -0.009051 -0.000276
0.141610 -0.008562 -0.003553
0.142180 -0.007128 -0.005414
0.141710 -0.008824 -0.002773
0.141740 -0.007913 0.004613
0.143260 -0.006958 -0.005571
0.140010 -0.008531 -0.003598
0.141610 -0.008829 0.002768
0.144410 -0.006149 0.006212
0.142160 -0.008491 0.003651
0.142060 -0.009047 -0.001555
0.142220 -0.009054 0.000936
0.140390 -0.009048 -0.001021
0.142000 -0.007225 0.005317
0.140540 -0.008854 -0.002608
0.143480 -0.009049 -0.001135
0.142740 -0.009050 -0.000703
0.144050 -0.007765 0.004824
0.141280 -0.007415 0.005145
0.143660 -0.007489 -0.005094
0.143750 -0.008143 0.004236
0.140800 -0.008431 -0.003771
0.139790 -0.009051 0.000198
0.142360 -0.009016 0.001760
0.143340 -0.006366 -0.006097
0.144300 -0.007169 -0.005377
0.141300 -0.007699 -0.004907
0.141600 -0.006716 -0.005787
0.142400 -0.008926 -0.002232
0.140620 -0.006977 -0.005548
0.144240 -0.008222 -0.004119
0.140500 -0.009006 -0.001830
0.140540 -0.008729 0.003249
0.142980 -0.007036 0.005485
0.140160 -0.008122 0.004271
0.142600 -0.007615 0.004963
0.144260 -0.009055 0.001057
0.141200 -0.009054 0.001089
0.144150 -0.008482 0.003672
0.143240 -0.008502 0.003640
0.142710 -0.009052 0.000202
0.143780 -0.009051 -0.000403
0.139990 -0.009015 0.001768
0.139700 -0.008089 -0.004334
0.141420 -0.005785 -0.006421
0.143730 -0.008784 -0.002983
0.144010 -0.008987 0.001927
0.140400 -0.005924 -0.006345
0.140910 -0.009051 0.000180
0.140650 -0.006556 0.005919
0.143030 -0.006348 0.006104
0.141690 -0.006677 0.005807
0.139970 -0.009053 0.000961
0.139760 -0.008864 -0.002570
0.141280 -0.008600 0.003472
0.143180 -0.009027 0.001733
0.143390 -0.008181 -0.004186
0.143460 -0.009054 0.000598
0.140930 -0.008222 0.004107
0.144320 -0.007810 -0.004796
0.140540 -0.008897 0.002388
0.141630 -0.008100 -0.004306
0.139880 -0.006895 0.005610
0.144130 -0.008927 -0.002252
0.139870 -0.006776 -0.005732
0.148340 -0.007607 0.004977
0.144570 -0.008755 -0.003099
0.146940 -0.007916 0.004617
0.148940 -0.005552 0.006536
0.146640 -0.008989 -0.001917
0.145070 -0.008978 0.001979
0.148740 -0.008792 0.002981
0.146440 -0.008132 -0.004261
0.146740 -0.006469 0.006004
0.147540 -0.008334 -0.003924
0.149540 -0.008807 -0.002850
0.148040 -0.009055 0.000330
0.147340 -0.005977 -0.006317
0.147540 -0.006000 0.006297
0.146740 -0.008523 0.003610
0.149240 -0.006199 -0.006201
0.146940 -0.008816 -0.002817
0.146040 -0.007320 -0.005245
0.148940 -0.007361 -0.005213
0.148840 -0.007903 -0.004642
0.148340 -0.009058 0.001378
0.149140 -0.006859 0.005646
0.145740 -0.009054 0.000314
0.148740 -0.008858 -0.002598
0.149540 -0.008881 0.002483
0.146040 -0.005770 0.006416
0.145940 -0.007915 0.004615
0.148340 -0.005527 -0.006557
0.147340 -0.006859 0.005650
0.144590 -0.006267 -0.006169
0.147440 -0.009053 -0.000480
0.145060 -0.007269 -0.005289
0.145240 -0.008092 -0.004326
0.148140 -0.008949 -0.002133
0.147940 -0.008683 0.003331
0.149240 -0.009030 -0.001695
0.147640 -0.008294 0.003982
0.149240 -0.006800 -0.005710
0.146040 -0.008857 -0.002590
0.145740 -0.006469 0.006002
0.145640 -0.008664 -0.003371
0.146140 -0.009050 -0.001182
0.149140 -0.008474 0.003679
0.148240 -0.008585 -0.003509
0.148140 -0.009052 -0.000920
0.146840 -0.007327 0.005222
0.145940 -0.008919 0.002289
0.147540 -0.009050 -0.001379
0.146940 -0.005491 0.006566
0.146640 -0.009053 -0.000136
0.147640 -0.007290 -0.005272
0.148840 -0.008970 0.002013
0.148440 -0.006160 0.006210
0.146040 -0.007197 0.005343
0.145440 -0.008373 0.003850
0.145240 -0.007127 0.005407
0.145940 -0.006648 -0.005848
0.146540 -0.009057 0.001308
0.147040 -0.007851 -0.004725
0.145440 -0.009052 -0.000396
0.144570 -0.009052 -0.000133
0.145060 -0.009056 0.001074
0.147640 -0.006579 -0.005912
0.144930 -0.007805 0.004793
0.147140 -0.008949 0.002156
0.146640 -0.006328 -0.006132
0.146640 -0.005557 -0.006542
0.149240 -0.009057 0.000891
0.145140 -0.008866 -0.002552
0.145030 -0.008781 0.003028
0.147440 -0.009057 0.001063
0.147240 -0.009054 0.000273
0.145340 -0.006217 -0.006192
0.147740 -0.008827 -0.002767
0.144830 -0.005586 -0.006524
0.144870 -0.009008 -0.001827
0.147840 -0.008920 0.002296
0.148140 -0.006859 0.005651
0.148340 -0.006960 -0.005563
0.148340 -0.006278 -0.006159
0.148640 -0.008076 0.004347
0.145740 -0.008998 -0.001876
0.149040 -0.008375 -0.003863
0.147840 -0.007952 -0.004563
0.149040 -0.009053 -0.000594
0.145840 -0.008742 0.003228
0.149440 -0.006321 0.006123
0.146440 -0.008615 -0.003467
0.148840 -0.009055 0.000195
0.147640 -0.007417 0.005144
0.149440 -0.007986 0.004506
0.146840 -0.007280 -0.005283
0.145740 -0.009057 0.001396
0.151240 -0.009021 -0.001766
0.153040 -0.009056 -0.000257
0.151940 -0.008496 -0.003657
0.151140 -0.006310 -0.006143
0.154340 -0.009054 -0.001229
0.153440 -0.007333 -0.005230
0.152540 -0.009053 -0.001366
0.154140 -0.007885 -0.004668
0.152340 -0.007002 -0.005527
0.150540 -0.009053 -0.000981
0.153440 -0.006372 0.006094
0.152640 -0.006260 -0.006169
0.153140 -0.005553 0.006536
0.153640 -0.008809 -0.002835
0.150240 -0.005842 0.006381
0.150740 -0.007954 -0.004566
0.152240 -0.007100 0.005433
0.152240 -0.005853 0.006376
0.150840 -0.009020 0.001753
0.154540 -0.006923 -0.005597
0.152240 -0.008849 -0.002634
0.151440 -0.005842 0.006383
0.151440 -0.008912 0.002343
0.152740 -0.008207 0.004140
0.151140 -0.006661 0.005829
0.151840 -0.009054 -0.000598
0.153940 -0.005913 0.006347
0.154140 -0.008972 -0.002000
0.149940 -0.008285 -0.004009
0.151040 -0.006881 -0.005640
0.150240 -0.009057 0.000624
0.150740 -0.007189 0.005352
0.152940 -0.008951 -0.002134
0.151140 -0.007688 0.004899
0.150240 -0.006630 0.005862
0.149640 -0.009055 -0.000067
0.151740 -0.007954 -0.004555
0.150440 -0.007362 -0.005204
0.151640 -0.007322 -0.005242
0.153440 -0.006180 -0.006213
0.154540 -0.008178 0.004189
0.152840 -0.008246 -0.004081
0.152940 -0.008873 0.002531
0.153140 -0.006791 -0.005720
0.154340 -0.006732 0.005770
0.151940 -0.009059 0.001085
0.151840 -0.008465 0.003709
0.153840 -0.008942 0.002177
0.150240 -0.006500 -0.005979
0.150840 -0.005619 -0.006510
0.153240 -0.007190 0.005355
0.152540 -0.008615 0.003449
0.150940 -0.008757 -0.003101
0.149640 -0.007478 0.005093
0.153540 -0.008794 0.002967
0.151440 -0.009057 0.000313
0.150340 -0.008007 0.004463
0.150640 -0.008899 -0.002401
0.151140 -0.008426 -0.003779
0.152040 -0.005569 -0.006534
0.154040 -0.005530 -0.006557
0.154040 -0.009058 0.000338
0.152840 -0.005589 -0.006521
0.151340 -0.008127 0.004277
0.153740 -0.008486 0.003678
0.153840 -0.009056 -0.000405
0.149640 -0.009019 0.001746
0.153340 -0.009054 -0.001161
0.154040 -0.007340 0.005219
0.150240 -0.009031 -0.001699
0.153240 -0.007864 -0.004706
0.153440 -0.008028 0.004444
0.152440 -0.006532 0.005943
0.149740 -0.009052 -0.001024
0.150740 -0.008445 0.003742
0.152740 -0.009060 0.001506
0.153740 -0.009060 0.001202
0.149740 -0.007692 -0.004907
0.150640 -0.008862 0.002598
0.151940 -0.006540 -0.005943
0.153240 -0.009058 0.000564
0.152740 -0.008718 -0.003294
0.152440 -0.007723 -0.004884
0.150640 -0.009055 -0.000095
0.152040 -0.008804 0.002933
0.151140 -0.008754 0.003182
0.153740 -0.008236 -0.004094
0.150140 -0.008704 0.003294
0.152140 -0.009057 0.000181
0.151940 -0.007818 0.004788
0.152740 -0.007589 0.004989
0.155840 -0.006452 -0.006018
0.156940 -0.008861 -0.002595
0.157740 -0.008279 0.004023
0.155740 -0.009003 -0.001871
0.157640 -0.009014 -0.001823
0.157940 -0.006333 -0.006125
0.157540 -0.008826 0.002841
0.155740 -0.008066 -0.004369
0.158340 -0.005935 0.006336
0.156940 -0.007022 0.005504
0.156740 -0.006312 -0.006142
0.157540 -0.005995 0.006302
0.156440 -0.005671 -0.006482
0.154740 -0.008840 -0.002680
0.158840 -0.005812 -0.006405
0.159240 -0.008290 0.004000
0.155940 -0.007930 0.004614
0.158140 -0.008589 -0.003504
0.157140 -0.008478 0.003688
0.156640 -0.009052 0.001592
0.156540 -0.008993 -0.001901
0.157440 -0.009057 -0.000491
0.158940 -0.008832 -0.002776
0.154640 -0.008347 -0.003909
0.154940 -0.006351 -0.006107
0.157740 -0.006914 -0.005605
0.158640 -0.008915 0.002323
0.155440 -0.008746 0.003235
0.159240 -0.006385 0.006084
0.155740 -0.005884 0.006360
0.154840 -0.009057 -0.000080
0.159540 -0.009057 -0.001038
0.157640 -0.007212 0.005338
0.158140 -0.008832 -0.002736
0.157040 -0.009060 0.000778
0.155840 -0.009057 -0.000359
0.155040 -0.005694 0.006462
0.155940 -0.008851 -0.002676
0.158640 -0.007295 -0.005273
0.155140 -0.007444 -0.005136
0.158840 -0.006894 0.005623
0.156240 -0.008607 0.003476
0.155440 -0.008508 -0.003647
0.159140 -0.007977 -0.004531
0.158440 -0.007876 -0.004688
0.157640 -0.008984 0.001972
0.157840 -0.009060 0.000452
0.155740 -0.005561 -0.006540
0.157440 -0.008017 -0.004455
0.156440 -0.007996 -0.004493
0.156740 -0.006954 -0.005574
0.158440 -0.009056 -0.000900
0.156640 -0.008875 0.002577
0.154840 -0.005560 -0.006537
0.156440 -0.005565 0.006533
0.155340 -0.007331 0.005223
0.158440 -0.007791 0.004812
0.156340 -0.009059 0.000499
0.159140 -0.009061 0.000637
0.159240 -0.006453 -0.006018
0.158540 -0.009004 -0.001858
0.158340 -0.008528 0.003610
0.159140 -0.005656 0.006485
0.155540 -0.009059 0.000454
0.155040 -0.006503 0.005977
0.157440 -0.007525 -0.005064
0.156240 -0.007461 0.005111
0.154740 -0.008805 0.002910
0.155640 -0.008894 0.002426
0.156140 -0.009055 -0.001061
0.155340 -0.008357 0.003895
0.154940 -0.008992 -0.001909
0.156240 -0.008669 -0.003383
0.157140 -0.007741 0.004862
0.157240 -0.008690 -0.003346
0.154740 -0.008972 0.002045
0.156140 -0.007334 -0.005235
0.158840 -0.009059 -0.000055
0.156540 -0.008229 0.004105
0.159140 -0.008419 -0.003792
0.159440 -0.008994 -0.001893
0.156640 -0.009057 -0.000356
0.155240 -0.009055 -0.001017
0.158840 -0.009053 0.001587
0.155140 -0.009061 0.001295
0.156140 -0.006633 0.005858
0.159440 -0.007542 0.005043
0.157740 -0.006634 0.005861
0.156940 -0.009055 -0.001157
0.155140 -0.007939 0.004591
0.156740 -0.006264 0.006161
0.162640 -0.009061 0.000126
0.160540 -0.008500 -0.003666
0.159940 -0.009063 0.001413
0.159940 -0.007044 0.005488
0.162040 -0.006177 0.006208
0.162140 -0.006114 -0.006247
0.161340 -0.008877 0.002560
0.164440 -0.008996 -0.001908
0.160740 -0.009056 -0.001334
0.161940 -0.009035 0.001712
0.164240 -0.005755 -0.006437
0.161540 -0.007888 -0.004671
0.160240 -0.008078 -0.004350
0.161140 -0.005787 0.006413
0.161940 -0.008772 -0.003066
0.162840 -0.006996 -0.005532
0.161140 -0.008031 0.004443
0.163940 -0.009061 -0.000060
0.161140 -0.006495 0.005990
0.160240 -0.006253 -0.006176
0.161740 -0.009060 -0.000195
0.162840 -0.009063 0.001034
0.160440 -0.006845 -0.005673
0.162540 -0.007868 -0.004713
0.163940 -0.009058 -0.001100
0.164340 -0.007618 -0.004980
0.163440 -0.008080 -0.004353
0.163540 -0.007438 -0.005141
0.160140 -0.006046 0.006279
0.160140 -0.008924 -0.002258
0.164240 -0.005918 0.006346
0.160040 -0.007346 -0.005228
0.161240 -0.008609 0.003465
0.163540 -0.007035 0.005500
0.159940 -0.005522 -0.006560
0.159640 -0.009059 -0.000227
0.163740 -0.008793 -0.002960
0.160740 -0.006994 0.005531
0.163540 -0.009062 0.000605
0.163440 -0.008996 -0.001927
0.160340 -0.009058 -0.000614
0.162240 -0.007922 0.004615
0.161140 -0.008823 -0.002808
0.163540 -0.008976 0.002058
0.162240 -0.009036 -0.001728
0.160440 -0.008876 0.002556
0.161840 -0.007367 -0.005207
0.163940 -0.008610 0.003476
0.159640 -0.008827 0.002821
0.162440 -0.008481 -0.003685
0.164440 -0.008809 0.002935
0.163040 -0.007564 0.005025
0.161740 -0.007224 0.005326
0.163240 -0.008371 0.003874
0.162140 -0.006755 -0.005750
0.163040 -0.008789 0.003028
0.161240 -0.006745 -0.005757
0.163140 -0.008642 -0.003424
0.162240 -0.008798 0.002970
0.162940 -0.009058 -0.000957
0.160740 -0.009060 0.000172
0.164340 -0.009016 0.001850
0.164140 -0.008063 0.004389
0.160140 -0.007862 0.004721
0.163140 -0.005994 -0.006309
0.162240 -0.008480 0.003687
0.162740 -0.008927 0.002303
0.161540 -0.008300 -0.003987
0.159740 -0.008731 -0.003270
0.160840 -0.005753 -0.006435
0.160540 -0.009014 0.001803
0.161940 -0.009063 0.000941
0.160940 -0.007356 -0.005217
0.164340 -0.008351 -0.003906
0.164040 -0.007584 0.005005
0.160440 -0.008792 -0.002984
0.161540 -0.009057 -0.001200
0.163540 -0.006686 -0.005810
0.162740 -0.008925 -0.002292
0.161040 -0.007533 0.005048
0.160440 -0.008469 0.003705
0.161140 -0.009063 0.001199
0.161440 -0.008975 -0.002046
0.163240 -0.006007 0.006297
0.162740 -0.007005 0.005529
0.164140 -0.006587 0.005904
0.162540 -0.005647 0.006488
0.164140 -0.009064 0.001115
0.159940 -0.009061 0.000590
0.166140 -0.009065 0.001072
0.167840 -0.009063 0.000151
0.168440 -0.006489 0.005995
0.167440 -0.007279 -0.005284
0.166040 -0.009058 -0.001565
0.165140 -0.008631 0.003434
0.165040 -0.008000 -0.004496
0.168840 -0.006999 -0.005531
0.165140 -0.008143 0.004264
0.164740 -0.009059 -0.000821
0.165940 -0.008031 -0.004436
0.166840 -0.009063 0.000324
0.167740 -0.008795 -0.002983
0.168940 -0.008564 -0.003557
0.168940 -0.008781 0.003076
0.166840 -0.006029 0.006289
0.165040 -0.006647 0.005852
0.168540 -0.009066 0.001082
0.167740 -0.009059 -0.001334
0.167640 -0.005839 0.006391
0.165940 -0.006697 0.005803
0.169440 -0.007962 -0.004547
0.164940 -0.009062 0.000305
0.166040 -0.008522 0.003625
0.168340 -0.007981 -0.004528
0.166540 -0.007914 0.004636
0.165940 -0.008906 -0.002391
0.167040 -0.008947 -0.002177
0.166540 -0.008553 -0.003576
0.166440 -0.007228 -0.005332
0.169040 -0.008274 0.004036
0.167240 -0.008800 0.002981
0.169140 -0.006020 0.006295
0.165340 -0.007355 0.005209
0.166840 -0.008333 0.003948
0.168040 -0.007366 0.005201
0.165140 -0.008693 -0.003334
0.168640 -0.006317 -0.006142
0.169040 -0.007038 0.005500
0.165740 -0.009062 0.000190
0.165740 -0.009027 0.001766
0.168640 -0.009063 -0.000236
0.166340 -0.009060 -0.000683
0.168640 -0.007935 0.004616
0.164940 -0.009065 0.001230
0.165340 -0.005878 0.006366
0.165140 -0.007228 -0.005329
0.167340 -0.006768 0.005739
0.168840 -0.007570 -0.005021
0.165740 -0.008810 0.002900
0.167840 -0.006417 -0.006053
0.166940 -0.006447 -0.006026
0.165140 -0.006075 -0.006265
0.168140 -0.008811 0.002936
0.166640 -0.007780 -0.004832
0.167440 -0.008423 -0.003782
0.168640 -0.008856 -0.002628
0.169340 -0.009018 0.001832
0.166040 -0.006006 -0.006303
0.164640 -0.006777 -0.005734
0.165840 -0.008432 -0.003770
0.166240 -0.006667 -0.005830
0.167740 -0.008024 0.004459
0.166240 -0.008928 0.002301
0.168240 -0.008373 -0.003866
0.167840 -0.008968 0.002074
0.165540 -0.009059 -0.000960
0.166840 -0.005746 -0.006440
0.164940 -0.008928 0.002296
0.169240 -0.009065 0.000672
0.164740 -0.008865 -0.002606
0.168540 -0.009029 -0.001761
0.167340 -0.007961 -0.004560
0.167140 -0.009061 -0.000476
0.167940 -0.005736 -0.006447
0.166940 -0.009027 0.001765
0.168940 -0.009061 -0.001084
0.168240 -0.008433 0.003770
0.167240 -0.007336 0.005227
0.168640 -0.008939 0.002223
0.166940 -0.008805 -0.002904
0.166440 -0.007216 0.005342
0.166940 -0.009059 -0.001371
0.167340 -0.009065 0.001067
0.165740 -0.007844 0.004754
0.165240 -0.009047 -0.001670
0.173340 -0.007040 0.005499
0.173940 -0.007957 0.004569
0.173640 -0.008757 -0.003145
0.173740 -0.008215 -0.004130
0.172740 -0.005578 -0.006530
0.172140 -0.008797 -0.002979
0.171740 -0.008294 -0.004010
0.172540 -0.009068 0.000983
0.173540 -0.009063 -0.000707
0.173140 -0.008868 -0.002572
0.169740 -0.009060 -0.001541
0.172440 -0.006229 -0.006186
0.174340 -0.007352 -0.005217
0.171540 -0.009066 0.000492
0.170040 -0.008811 0.002925
0.174040 -0.008823 0.002873
0.174440 -0.009069 0.001351
0.170940 -0.008086 0.004357
0.171240 -0.006021 0.006293
0.170640 -0.006639 0.005860
0.173740 -0.006359 -0.006111
0.174140 -0.009066 0.000336
0.172640 -0.008265 0.004053
0.169640 -0.007079 -0.005459
0.171840 -0.006920 -0.005605
0.173340 -0.007281 -0.005282
0.169840 -0.008857 -0.002672
0.173140 -0.009069 0.001440
0.170140 -0.008523 0.003631
0.170340 -0.006789 -0.005721
0.172040 -0.007947 0.004598
0.173440 -0.008941 0.002253
0.173340 -0.009066 0.000210
0.171140 -0.006529 -0.005959
0.170740 -0.008746 -0.003210
0.172540 -0.008822 0.002901
0.171840 -0.007188 0.005364
0.174340 -0.006072 0.006268
0.170540 -0.008979 -0.002008
0.172140 -0.005881 0.006372
0.170140 -0.007621 -0.004979
0.170040 -0.005890 0.006363
0.173340 -0.007708 0.004899
0.169840 -0.008055 0.004414
0.173440 -0.007853 -0.004731
0.174340 -0.007904 -0.004646
0.169840 -0.006268 -0.006166
0.170840 -0.008822 0.002894
0.171940 -0.009059 0.001604
0.170440 -0.008989 0.001988
0.170540 -0.008354 -0.003907
0.171040 -0.009067 0.001226
0.174340 -0.009062 -0.001383
0.174140 -0.008475 0.003716
0.172540 -0.008970 0.002079
0.173740 -0.009000 -0.001889
0.172540 -0.009061 -0.001425
0.172540 -0.007528 0.005063
0.171940 -0.008939 -0.002205
0.171540 -0.009062 -0.000969
0.171240 -0.008878 -0.002562
0.173940 -0.006661 0.005849
0.169940 -0.009064 0.000174
0.169840 -0.006529 0.005963
0.169640 -0.009062 -0.000562
0.169840 -0.008605 -0.003495
0.173440 -0.008276 0.004044
0.173340 -0.008684 0.003366
0.172440 -0.007411 -0.005164
0.170740 -0.005828 -0.006396
0.170640 -0.009061 -0.001160
0.172740 -0.006860 -0.005658
0.171940 -0.008554 0.003574
0.169940 -0.009066 0.001060
0.171040 -0.008524 0.003630
0.172140 -0.006640 0.005859
0.170940 -0.009063 -0.000284
0.172940 -0.008646 -0.003425
0.169640 -0.007317 0.005252
0.172840 -0.006471 0.006020
0.173340 -0.005932 0.006345
0.172440 -0.008063 -0.004387
0.174440 -0.007439 0.005143
0.171440 -0.008950 0.002180
0.170840 -0.007351 -0.005217
0.171940 -0.009064 -0.000262
0.174340 -0.008849 -0.002712
0.171440 -0.007812 -0.004811
0.172740 -0.009064 -0.000553
0.170740 -0.007428 0.005153
0.177040 -0.006582 0.005919
0.178540 -0.009065 -0.001061
0.174840 -0.008717 -0.003304
0.177740 -0.009067 -0.000046
0.176140 -0.009068 0.000489
0.175440 -0.008824 0.002870
0.178440 -0.008953 0.002199
0.175940 -0.009065 -0.000479
0.179540 -0.008107 -0.004323
0.177640 -0.008749 -0.003237
0.178440 -0.006633 0.005874
0.176740 -0.009063 -0.001508
0.179240 -0.008845 0.002776
0.176740 -0.008487 -0.003681
0.179240 -0.008830 -0.002813
0.176640 -0.008227 0.004133
0.175540 -0.006090 -0.006262
0.175840 -0.009063 -0.001429
0.174940 -0.008286 -0.004028
0.176640 -0.008880 -0.002514
0.178540 -0.007885 -0.004682
0.179540 -0.007491 0.005100
0.179340 -0.008567 0.003554
0.179040 -0.008498 -0.003664
0.177240 -0.008825 0.002896
0.179540 -0.009072 0.001351
0.174640 -0.009065 -0.000525
0.174940 -0.008565 0.003559
0.177840 -0.007510 0.005075
0.178640 -0.009071 0.001426
0.178240 -0.008840 -0.002735
0.177140 -0.007233 -0.005326
0.179340 -0.009068 0.000043
0.177540 -0.008586 0.003524
0.175340 -0.008217 0.004147
0.175940 -0.008576 0.003547
0.174740 -0.008892 0.002512
0.174740 -0.006651 0.005851
0.179540 -0.006773 0.005751
0.177840 -0.007554 -0.005038
0.176740 -0.007764 -0.004852
0.178640 -0.008972 -0.002063
0.176840 -0.006652 -0.005849
0.176040 -0.008256 -0.004075
0.178640 -0.007261 0.005301
0.179340 -0.005595 0.006524
0.175340 -0.008869 -0.002606
0.175040 -0.009067 0.000277
0.179040 -0.006252 -0.006175
0.176140 -0.008768 -0.003099
0.175640 -0.006172 0.006219
0.178640 -0.005984 0.006317
0.179340 -0.007144 -0.005404
0.177640 -0.009002 0.001931
0.178540 -0.007204 -0.005351
0.175840 -0.007242 -0.005319
0.176740 -0.008933 0.002316
0.178540 -0.008786 0.003096
0.177140 -0.007919 0.004647
0.174940 -0.009001 -0.001906
0.177540 -0.005714 0.006464
0.177640 -0.006171 -0.006218
0.178840 -0.008009 0.004492
0.175940 -0.006811 0.005714
0.177540 -0.008901 -0.002416
0.174640 -0.006620 -0.005872
0.178540 -0.009068 0.000268
0.177640 -0.009064 -0.001161
0.176040 -0.007799 0.004820
0.175940 -0.008982 0.002055
0.175740 -0.007794 -0.004822
0.175640 -0.006691 -0.005808
0.176440 -0.005933 0.006343
0.178240 -0.006572 -0.005913
0.175240 -0.007170 0.005383
0.175340 -0.009070 0.001406
0.176340 -0.005960 -0.006327
0.177640 -0.008076 -0.004373
0.178240 -0.008418 -0.003801
0.179540 -0.009066 -0.000877
0.179240 -0.005541 -0.006547
0.178240 -0.008437 0.003782
0.176840 -0.009066 -0.000171
0.176140 -0.009070 0.001297
0.177840 -0.009069 0.000781
0.175040 -0.007232 -0.005329
0.176940 -0.009068 0.000611
0.177040 -0.009071 0.001563
0.176740 -0.007201 0.005360
0.177940 -0.008079 0.004385
0.179540 -0.009054 -0.001653
0.182840 -0.007937 -0.004607
0.179940 -0.007940 0.004618
0.184440 -0.006905 -0.005624
0.181340 -0.007846 -0.004758
0.181840 -0.005846 0.006390
0.182540 -0.008500 -0.003670
0.182940 -0.009066 -0.001317
0.183040 -0.006156 0.006230
0.180340 -0.007926 -0.004626
0.181540 -0.008399 0.003848
0.183640 -0.009071 0.000479
0.181640 -0.008876 0.002601
0.183940 -0.007054 0.005496
0.183940 -0.009074 0.001499
0.179840 -0.008458 -0.003739
0.181140 -0.008479 -0.003699
0.184440 -0.006366 0.006117
0.183440 -0.007286 -0.005284
0.182240 -0.009067 -0.000772
0.180340 -0.009070 0.000628
0.181140 -0.006994 -0.005541
0.182840 -0.006934 0.005600
0.184240 -0.008269 -0.004051
0.181240 -0.006404 0.006082
0.182140 -0.008757 0.003237
0.183840 -0.006294 -0.006154
0.183440 -0.008913 -0.002398
0.184440 -0.008768 0.003192
0.183040 -0.005653 -0.006488
0.180540 -0.008836 0.002842
0.180340 -0.009064 -0.001586
0.183940 -0.008430 0.003797
0.180740 -0.008159 0.004247
0.183740 -0.008916 0.002411
0.182740 -0.009044 0.001738
0.180540 -0.009067 -0.000705
0.182640 -0.007396 -0.005177
0.181940 -0.008791 -0.003022
0.180740 -0.008892 -0.002513
0.179940 -0.006055 0.006279
0.180640 -0.009072 0.001525
0.181940 -0.007053 0.005493
0.184340 -0.008843 -0.002761
0.181340 -0.009066 -0.001031
0.180240 -0.007345 -0.005227
0.183340 -0.008440 -0.003768
0.182240 -0.008943 -0.002210
0.180140 -0.008944 0.002261
0.181540 -0.009024 -0.001797
0.180240 -0.007033 0.005515
0.182440 -0.006684 -0.005820
0.180040 -0.006523 -0.005967
0.184540 -0.008916 0.002415
0.182840 -0.008876 0.002604
0.181040 -0.009071 0.000850
0.180140 -0.005741 -0.006443
0.180840 -0.006443 -0.006030
0.182840 -0.008812 -0.002926
0.181340 -0.005792 -0.006419
0.181640 -0.009069 -0.000118
0.182840 -0.007971 0.004554
0.182440 -0.009069 0.000110
0.181940 -0.009071 0.000772
0.184340 -0.009056 -0.001624
0.182240 -0.007662 0.004947
0.182940 -0.009068 -0.000497
0.181140 -0.007043 0.005499
0.184040 -0.005787 0.006426
0.182040 -0.008088 -0.004348
0.181940 -0.009014 0.001889
0.183140 -0.006514 -0.005973
0.183140 -0.008688 0.003365
0.182540 -0.008439 0.003785
0.181940 -0.007195 -0.005357
0.179940 -0.008902 -0.002411
0.182240 -0.006455 0.006038
0.183640 -0.007918 -0.004627
0.183440 -0.007493 0.005098
0.182840 -0.009072 0.000832
0.183840 -0.009069 -0.000296
0.180440 -0.008740 -0.003273
0.184440 -0.009071 0.000507
0.180140 -0.008518 0.003635
0.184140 -0.007507 -0.005078
0.181340 -0.007582 0.005016
0.180440 -0.007581 0.005022
0.183840 -0.007952 0.004588
0.184540 -0.009068 -0.000899
0.180940 -0.008608 0.003489
0.181640 -0.006564 -0.005927
0.188740 -0.006406 -0.006068
0.188140 -0.009070 -0.000837
0.188740 -0.008571 0.003565
0.185640 -0.006956 -0.005577
0.189040 -0.008840 0.002822
0.188940 -0.008967 -0.002105
0.187040 -0.006957 -0.005576
0.187740 -0.008093 0.004369
0.187740 -0.008844 -0.002747
0.184740 -0.007932 0.004624
0.186140 -0.007989 -0.004513
0.186940 -0.006125 -0.006240
0.187040 -0.008391 0.003861
0.186540 -0.008905 -0.002452
0.186240 -0.007514 0.005084
0.185640 -0.007045 0.005505
0.187940 -0.006396 -0.006075
0.187140 -0.008888 0.002565
0.188740 -0.008804 -0.002970
0.187740 -0.007435 0.005157
0.185940 -0.007498 -0.005091
0.185740 -0.005877 0.006377
0.184940 -0.007908 -0.004642
0.186740 -0.005628 0.006514
0.184740 -0.006404 -0.006072
0.185740 -0.009073 0.000935
0.188040 -0.008829 0.002901
0.184740 -0.007094 0.005458
0.184940 -0.007317 -0.005249
0.188240 -0.007940 -0.004599
0.185440 -0.008441 -0.003768
0.188740 -0.009072 0.000005
0.187040 -0.008110 -0.004317
0.184640 -0.008611 -0.003481
0.187540 -0.007528 -0.005068
0.187940 -0.008521 0.003649
0.186140 -0.006576 0.005928
0.185640 -0.007903 0.004677
0.186240 -0.009075 0.001555
0.185240 -0.006516 0.005983
0.186040 -0.008858 0.002706
0.188040 -0.008462 -0.003735
0.187140 -0.009047 -0.001706
0.189440 -0.006498 0.006001
0.188040 -0.009073 0.000684
0.188940 -0.009069 -0.001114
0.184940 -0.009074 0.001337
0.188740 -0.005589 0.006532
0.188940 -0.007046 0.005509
0.185540 -0.009015 0.001862
0.185540 -0.006104 -0.006253
0.188140 -0.009027 -0.001794
0.184940 -0.005657 0.006495
0.185340 -0.009067 -0.001382
0.184740 -0.005603 -0.006516
0.185340 -0.008500 0.003676
0.187140 -0.006786 0.005739
0.187340 -0.009072 0.000222
0.187540 -0.006098 0.006261
0.185040 -0.009070 -0.000053
0.185940 -0.009071 -0.000081
0.185840 -0.008844 -0.002772
0.186040 -0.008241 0.004111
0.189540 -0.005846 -0.006386
0.188440 -0.009007 0.001924
0.187040 -0.008713 -0.003316
0.185240 -0.008955 -0.002147
0.185340 -0.008838 0.002843
0.188840 -0.009075 0.001165
0.187040 -0.009074 0.001019
0.186040 -0.009057 -0.001657
0.189040 -0.007934 0.004638
0.188340 -0.007814 0.004811
0.188340 -0.007238 -0.005324
0.187540 -0.009016 0.001904
0.187340 -0.009070 -0.000582
0.186540 -0.008749 0.003263
0.186340 -0.009069 -0.000907
0.188940 -0.008472 -0.003710
0.189440 -0.007238 -0.005320
0.189140 -0.008020 -0.004471
0.188240 -0.006328 0.006142
0.186240 -0.008511 -0.003657
0.188040 -0.005725 -0.006452
0.187040 -0.007854 0.004767
0.185940 -0.005504 -0.006566
0.186140 -0.006545 -0.005945
0.193240 -0.007982 -0.004526
0.191640 -0.008910 0.002463
0.191540 -0.009074 0.000155
0.192440 -0.008715 -0.003315
0.192140 -0.007935 0.004628
0.190840 -0.008102 -0.004328
0.192040 -0.009071 -0.000802
0.190940 -0.008821 0.002940
0.194340 -0.006001 0.006317
0.189840 -0.008886 -0.002527
0.192740 -0.008821 0.002920
0.194240 -0.007060 -0.005482
0.192440 -0.008072 -0.004384
0.191740 -0.008968 -0.002140
0.191240 -0.005650 0.006502
0.193840 -0.007561 -0.005036
0.191540 -0.007851 -0.004744
0.194240 -0.005497 -0.006571
0.191540 -0.008765 -0.003183
0.194540 -0.009076 0.000651
0.193540 -0.009076 0.000890
0.192640 -0.005757 -0.006435
0.193040 -0.008979 0.002094
0.190440 -0.007129 -0.005424
0.190240 -0.009058 -0.001622
0.193940 -0.006358 -0.006112
0.193340 -0.007080 -0.005470
0.191240 -0.008413 0.003835
0.189740 -0.009075 0.000970
0.194040 -0.008822 0.002934
0.191340 -0.007219 -0.005337
0.191240 -0.009072 -0.000570
0.191640 -0.008762 0.003253
0.194240 -0.009074 -0.000071
0.189740 -0.008978 0.002068
0.190740 -0.007047 0.005511
0.189640 -0.006547 -0.005945
0.192740 -0.009075 0.000635
0.190040 -0.008704 -0.003342
0.193440 -0.005911 0.006364
0.191240 -0.006417 -0.006056
0.190740 -0.009075 0.000681
0.189840 -0.007865 0.004747
0.193040 -0.008493 0.003696
0.194140 -0.008645 -0.003436
0.191040 -0.008927 -0.002301
0.193740 -0.009072 -0.000831
0.194040 -0.009029 0.001807
0.192340 -0.009073 -0.000076
0.190440 -0.008194 0.004190
0.189640 -0.008711 0.003321
0.193140 -0.009073 -0.000279
0.192040 -0.008334 0.003959
0.190640 -0.006099 0.006264
0.189640 -0.009071 -0.000560
0.190740 -0.008664 -0.003407
0.192840 -0.009070 -0.001461
0.190040 -0.009073 0.000139
0.192840 -0.008897 -0.002507
0.190440 -0.006197 -0.006200
0.190440 -0.008622 0.003476
0.192540 -0.007049 -0.005491
0.190440 -0.009077 0.001479
0.191440 -0.005616 -0.006509
0.191240 -0.009077 0.001509
0.193340 -0.008725 -0.003300
0.191240 -0.009069 -0.001534
0.193840 -0.007517 0.005080
0.192140 -0.006448 -0.006030
0.194140 -0.008275 0.004069
0.192340 -0.006050 0.006289
0.192240 -0.009028 0.001823
0.189940 -0.007951 -0.004586
0.194540 -0.007308 0.005272
0.193140 -0.008095 0.004371
0.193040 -0.006318 -0.006139
0.192140 -0.006679 0.005842
0.191540 -0.007127 0.005437
0.189940 -0.007047 0.005502
0.190740 -0.007746 0.004875
0.193940 -0.008877 -0.002586
0.192940 -0.007058 0.005497
0.191340 -0.006549 0.005953
0.193740 -0.006649 0.005865
0.190640 -0.008959 0.002220
0.191440 -0.008333 -0.003957
0.193040 -0.006489 0.006016
0.193840 -0.009030 -0.001777
0.191940 -0.009076 0.000909
0.190440 -0.009070 -0.000874
0.191340 -0.008015 0.004492
0.198140 -0.006831 0.005704
0.195040 -0.006179 -0.006215
0.197340 -0.007182 -0.005376
0.197340 -0.006910 0.005635
0.195440 -0.008951 0.002270
0.194740 -0.008787 -0.003071
0.194740 -0.008033 -0.004453
0.198240 -0.006340 -0.006128
0.196640 -0.009000 -0.001940
0.195440 -0.009076 0.000240
0.196240 -0.009020 0.001870
0.195840 -0.008234 -0.004120
0.196940 -0.007938 0.004628
0.195740 -0.008524 0.003645
0.198240 -0.007729 0.004897
0.198840 -0.008933 0.002354
0.196040 -0.009073 -0.000863
0.196040 -0.007139 0.005424
0.199240 -0.008608 -0.003500
0.197640 -0.007924 -0.004636
0.196540 -0.007041 -0.005505
0.195640 -0.008626 -0.003459
0.195140 -0.007502 -0.005085
0.195740 -0.008868 -0.002662
0.196640 -0.008848 -0.002770
0.196740 -0.008094 -0.004352
0.194640 -0.009073 -0.000784
0.196940 -0.009079 0.001379
0.196740 -0.007643 -0.004963
0.197740 -0.009079 0.001248
0.198240 -0.008406 -0.003836
0.197340 -0.008930 -0.002303
0.199040 -0.007250 0.005328
0.195040 -0.007996 0.004528
0.195040 -0.008822 0.002933
0.199340 -0.009078 0.000603
0.197240 -0.005503 0.006583
0.197040 -0.006039 -0.006284
0.198240 -0.007493 -0.005099
0.197440 -0.008981 0.002101
0.196640 -0.009074 -0.000395
0.196240 -0.006219 -0.006191
0.196140 -0.006571 0.005945
0.196340 -0.009078 0.000871
0.197540 -0.009076 0.000094
0.195140 -0.009078 0.001215
0.195440 -0.009071 -0.001454
0.197540 -0.006591 -0.005901
0.197940 -0.008808 -0.002952
0.198540 -0.009077 0.000369
0.195240 -0.006890 -0.005638
0.197440 -0.008546 -0.003593
0.197340 -0.008436 0.003803
0.195140 -0.006660 0.005861
0.198840 -0.005833 0.006408
0.197940 -0.006142 0.006245
0.197640 -0.009072 -0.001574
0.198240 -0.009075 -0.000601
0.198740 -0.006791 -0.005722
0.196640 -0.006012 0.006314
0.198640 -0.009080 0.001377
0.194640 -0.008941 0.002317
0.198040 -0.008883 0.002613
0.194740 -0.008939 -0.002265
0.199540 -0.008864 0.002735
0.196340 -0.008296 0.004031
0.198840 -0.006532 0.005976
0.199040 -0.009076 -0.000181
0.199440 -0.008038 0.004468
0.196640 -0.008704 0.003343
0.198240 -0.008595 0.003524
0.198840 -0.008829 -0.002838
0.195340 -0.009073 -0.000563
0.198540 -0.009072 -0.001487
0.197340 -0.008833 0.002891
0.198340 -0.008940 -0.002265
0.196840 -0.007359 0.005226
0.199340 -0.009052 -0.001705
0.194740 -0.008514 0.003659
0.198740 -0.007944 -0.004597
0.195840 -0.005608 -0.006513
0.195740 -0.007907 0.004674
0.197940 -0.008187 0.004208
0.195940 -0.007803 -0.004818
0.196840 -0.009073 -0.001167
0.198940 -0.008426 0.003823
0.196540 -0.008586 -0.003533
0.195340 -0.007468 0.005131
0.201540 -0.007885 -0.004699
0.202740 -0.009053 0.001719
0.202640 -0.007302 0.005283
0.202340 -0.009081 0.001029
0.202340 -0.008871 -0.002649
0.199740 -0.008216 -0.004145
0.203840 -0.009082 0.001277
0.202640 -0.009078 0.000054
0.199740 -0.007393 -0.005186
0.202140 -0.008607 0.003521
0.203540 -0.006272 -0.006161
0.203440 -0.008349 0.003953
0.201740 -0.008759 -0.003215
0.201840 -0.007124 -0.005429
0.200140 -0.007470 0.005131
0.202240 -0.005581 -0.006526
0.202540 -0.009075 -0.001073
0.199640 -0.006541 -0.005946
0.202540 -0.006442 -0.006034
0.200840 -0.007151 0.005416
0.204040 -0.006225 0.006204
0.204340 -0.008128 -0.004295
0.204140 -0.006834 -0.005691
0.203140 -0.008851 -0.002725
0.200140 -0.008658 -0.003411
0.203540 -0.007846 -0.004757
0.202440 -0.008845 0.002844
0.201040 -0.008874 0.002648
0.204240 -0.008963 -0.002153
0.202840 -0.008207 -0.004169
0.201340 -0.008647 0.003442
0.200840 -0.008810 -0.002943
0.204240 -0.009080 0.000263
0.201540 -0.009074 -0.001303
0.203540 -0.009078 -0.000110
0.203040 -0.007104 -0.005449
0.199640 -0.009074 -0.000887
0.203240 -0.008836 0.002876
0.200940 -0.009032 0.001813
0.200840 -0.008357 -0.003921
0.202740 -0.008709 -0.003336
0.199740 -0.005803 0.006427
0.202340 -0.006104 0.006268
0.204340 -0.005952 -0.006333
0.201140 -0.005515 0.006579
0.201240 -0.007750 0.004882
0.199740 -0.008931 -0.002336
0.201740 -0.008983 0.002100
0.204440 -0.009077 -0.000628
0.201140 -0.009078 0.000243
0.203440 -0.009075 -0.001338
0.202840 -0.006584 0.005935
0.200740 -0.009022 -0.001856
0.201840 -0.008119 0.004324
0.203040 -0.009080 0.000776
0.200540 -0.009074 -0.001004
0.204340 -0.007063 0.005499
0.200440 -0.006872 -0.005656
0.203840 -0.005546 0.006563
0.201440 -0.009080 0.001099
0.199640 -0.006702 0.005826
0.202740 -0.009003 -0.001941
0.200540 -0.008457 0.003772
0.201740 -0.009077 -0.000419
0.199840 -0.009032 0.001842
0.203740 -0.008680 -0.003382
0.204440 -0.008299 0.004031
0.200340 -0.008815 0.003011
0.204140 -0.008817 0.002972
0.200340 -0.006201 -0.006203
0.199840 -0.008606 0.003517
0.200540 -0.006004 0.006316
0.201240 -0.006121 -0.006242
0.200240 -0.009076 -0.000320
0.203340 -0.007940 0.004629
0.203940 -0.007552 0.005055
0.200840 -0.007434 -0.005154
0.203240 -0.005915 0.006367
0.202340 -0.007615 -0.004990
0.201940 -0.009079 0.000337
0.203740 -0.008974 0.002172
0.200340 -0.007975 -0.004553
0.201440 -0.008901 -0.002493
0.203540 -0.006714 0.005815
0.202640 -0.008109 0.004352
0.201640 -0.008357 -0.003906
0.201740 -0.006942 0.005611
0.201240 -0.006403 0.006093
0.200640 -0.009080 0.001141
0.200140 -0.009078 0.000537
0.201040 -0.008148 0.004275
0.200240 -0.008069 0.004414
0.205040 -0.006283 -0.006156
0.208040 -0.007076 -0.005471
0.207340 -0.008833 -0.002839
0.206340 -0.009076 -0.001599
0.206940 -0.008936 0.002359
0.208140 -0.006174 -0.006213
0.208640 -0.007517 -0.005074
0.207440 -0.009084 0.001553
0.207340 -0.006426 0.006074
0.208940 -0.008833 -0.002841
0.208540 -0.007943 0.004630
0.208140 -0.007504 0.005108
0.204640 -0.007265 -0.005301
0.207940 -0.008828 0.002942
0.206340 -0.008837 0.002884
0.205840 -0.005796 0.006429
0.206540 -0.006785 -0.005736
0.208540 -0.008975 -0.002130
0.205040 -0.008953 -0.002195
0.205740 -0.009074 0.001608
0.209240 -0.009081 -0.000150
0.208240 -0.006576 0.005946
0.204640 -0.008801 -0.002993
0.208040 -0.008490 0.003711
0.208840 -0.008818 0.002981
0.204840 -0.005736 0.006462
0.207440 -0.009056 -0.001677
0.205540 -0.007852 0.004776
0.208340 -0.009080 -0.000080
0.206740 -0.009083 0.001301
0.206540 -0.008490 -0.003705
0.206540 -0.008822 -0.002921
0.209540 -0.008541 0.003640
0.205540 -0.007968 -0.004555
0.205440 -0.007015 -0.005528
0.205440 -0.007034 0.005529
0.208040 -0.008029 -0.004468
0.205740 -0.008240 0.004131
0.206640 -0.008078 -0.004376
0.207840 -0.009082 0.000475
0.207140 -0.007206 -0.005358
0.205640 -0.009080 0.000370
0.209140 -0.007949 -0.004602
0.205440 -0.009078 -0.000646
0.208840 -0.009084 0.001343
0.204740 -0.009082 0.000991
0.208740 -0.005947 0.006351
0.207940 -0.008712 -0.003336
0.205840 -0.006514 -0.005972
0.205340 -0.008640 -0.003444
0.209540 -0.009077 -0.001489
0.206540 -0.006705 0.005829
0.206940 -0.005827 0.006413
0.208640 -0.008340 -0.003954
0.209240 -0.009083 0.000625
0.206740 -0.008131 0.004314
0.207240 -0.006194 -0.006205
0.209540 -0.009056 0.001750
0.207640 -0.009078 -0.000669
0.207340 -0.007833 0.004808
0.207840 -0.008102 0.004364
0.208240 -0.009006 0.002000
0.206740 -0.007314 0.005278
0.207840 -0.005897 0.006380
0.205540 -0.008728 0.003321
0.208440 -0.009078 -0.001095
0.205540 -0.009075 -0.001527
0.207640 -0.005573 -0.006533
0.205840 -0.006455 0.006050
0.206740 -0.009080 0.000178
0.209440 -0.007953 0.004616
0.207040 -0.008778 0.003200
0.206240 -0.009078 -0.000715
0.205540 -0.008896 0.002578
0.209140 -0.006756 0.005780
0.204740 -0.008935 0.002359
0.207640 -0.007055 0.005511
0.208540 -0.005524 -0.006554
0.206340 -0.007476 -0.005109
0.208840 -0.006646 -0.005858
0.204740 -0.009075 -0.001481
0.204640 -0.007911 0.004680
0.205840 -0.008923 -0.002387
0.207440 -0.008300 -0.004011
0.204840 -0.006495 0.006014
0.213040 -0.009058 -0.001707
0.210640 -0.008351 -0.003930
0.210740 -0.006817 -0.005705
0.210140 -0.008829 0.002963
0.210440 -0.007734 0.004897
0.210340 -0.009082 0.000372
0.211240 -0.007318 -0.005256
0.210240 -0.009085 0.001533
0.213640 -0.009080 -0.001229
0.211240 -0.009046 0.001761
0.211240 -0.008849 0.002844
0.213240 -0.005839 0.006411
0.214240 -0.008826 -0.002874
0.209640 -0.007508 -0.005088
0.213240 -0.008775 -0.003168
0.209640 -0.008925 -0.002369
0.210740 -0.005645 -0.006491
0.212840 -0.008081 -0.004373
0.211540 -0.007960 -0.004570
0.211940 -0.008978 0.002127
0.213540 -0.007087 0.005486
0.213240 -0.008919 0.002485
0.214140 -0.007951 -0.004596
0.211340 -0.007954 0.004623
0.213940 -0.008443 0.003804
0.212940 -0.009083 0.000297
0.212040 -0.006146 -0.006231
0.213840 -0.009008 0.002019
0.209640 -0.006145 -0.006228
0.212240 -0.007649 -0.004957
0.211040 -0.008531 0.003642
0.213340 -0.007189 -0.005369
0.212840 -0.008452 0.003784
0.212540 -0.009081 -0.000664
0.212240 -0.008094 0.004386
0.214440 -0.006020 0.006317
0.212340 -0.008784 -0.003130
0.212940 -0.009067 0.001663
0.213940 -0.009083 -0.000078
0.212240 -0.008810 0.003041
0.211940 -0.007118 -0.005437
0.211840 -0.008432 -0.003788
0.211640 -0.005669 0.006504
0.212240 -0.009085 0.000846
0.214340 -0.009079 -0.001554
0.211140 -0.009079 -0.001236
0.210440 -0.008885 -0.002559
0.210640 -0.006048 0.006299
0.213340 -0.008771 0.003244
0.209740 -0.005968 0.006340
0.210740 -0.006976 0.005582
0.211340 -0.009084 0.000647
0.210640 -0.007839 -0.004776
0.213740 -0.006557 -0.005936
0.214340 -0.009086 0.000940
0.210240 -0.009079 -0.000820
0.210740 -0.008753 -0.003265
0.212540 -0.007067 0.005500
0.210240 -0.008252 0.004109
0.214540 -0.006187 -0.006210
0.209840 -0.007205 0.005378
0.209940 -0.008070 -0.004399
0.211540 -0.008825 -0.002885
0.209740 -0.008652 -0.003422
0.212140 -0.007625 0.005000
0.212240 -0.006069 0.006291
0.214140 -0.008453 -0.003765
0.211640 -0.006837 0.005713
0.213440 -0.007790 -0.004835
0.209940 -0.006766 -0.005745
0.210140 -0.006587 0.005936
0.214440 -0.008782 0.003203
0.214340 -0.007390 -0.005188
0.213340 -0.006498 0.006018
0.213540 -0.005756 -0.006433
0.212240 -0.008967 -0.002166
0.214540 -0.006748 0.005792
0.214440 -0.008045 0.004472
0.213040 -0.007676 0.004956
0.211640 -0.009081 -0.000258
0.210840 -0.009081 -0.000156
0.213440 -0.009085 0.001024
0.212840 -0.006607 -0.005893
0.211940 -0.009079 -0.001067
0.211440 -0.008976 -0.002126
0.212640 -0.005686 -0.006475
0.213640 -0.008927 -0.002354
0.211540 -0.006637 -0.005866
0.211540 -0.005585 -0.006526
0.213640 -0.007905 0.004708
0.213440 -0.008282 -0.004040
0.211840 -0.008482 0.003730
0.215140 -0.006719 -0.005791
0.216240 -0.008062 -0.004418
0.216640 -0.006068 -0.006273
0.217640 -0.009084 -0.000141
0.216140 -0.008920 0.002469
0.215840 -0.007617 0.005004
0.215940 -0.009085 0.000519
0.218840 -0.007040 0.005531
0.215440 -0.008821 0.002968
0.215940 -0.009087 0.001278
0.218840 -0.008757 -0.003254
0.217740 -0.009087 0.001061
0.219240 -0.009081 -0.001501
0.217940 -0.007291 -0.005282
0.217940 -0.005898 -0.006361
0.216440 -0.008645 -0.003445
0.217240 -0.007050 -0.005493
0.217940 -0.008766 -0.003209
0.219440 -0.006600 -0.005901
0.215740 -0.008837 -0.002821
0.215340 -0.006330 0.006151
0.215940 -0.008613 0.003515
0.217940 -0.008365 -0.003917
0.217440 -0.005502 0.006596
0.217140 -0.007993 -0.004533
0.219240 -0.006132 0.006260
0.215840 -0.008175 0.004256
0.217140 -0.006560 0.005963
0.217740 -0.006609 -0.005887
0.215440 -0.007891 -0.004699
0.217340 -0.007588 0.005036
0.219340 -0.007312 -0.005263
0.216840 -0.009069 0.001705
0.217640 -0.008793 0.003174
0.216440 -0.009083 -0.000294
0.218340 -0.009085 -0.000180
0.219340 -0.008014 -0.004497
0.216740 -0.008315 0.004020
0.215440 -0.005581 0.006552
0.216540 -0.005601 0.006541
0.216340 -0.007481 -0.005112
0.218440 -0.009081 -0.001350
0.218740 -0.007877 0.004759
0.215140 -0.009082 -0.000585
0.219540 -0.008017 0.004527
0.218540 -0.008843 0.002912
0.218440 -0.006081 0.006284
0.216740 -0.008802 0.003095
0.215040 -0.008725 -0.003319
0.217940 -0.008046 0.004473
0.217640 -0.008929 -0.002351
0.216340 -0.009080 -0.001606
0.215740 -0.006278 -0.006161
0.215640 -0.008424 -0.003813
0.215340 -0.009059 -0.001713
0.218540 -0.008515 0.003684
0.216440 -0.007248 0.005343
0.218540 -0.008929 -0.002395
0.219040 -0.008365 -0.003915
0.219240 -0.009086 0.000463
0.216040 -0.006669 0.005865
0.217140 -0.009086 0.000482
0.215240 -0.007330 -0.005249
0.216940 -0.008857 -0.002760
0.215240 -0.008969 0.002227
0.217640 -0.008941 0.002364
0.218640 -0.007782 -0.004842
0.216340 -0.006679 -0.005832
0.217340 -0.009082 -0.001066
0.214640 -0.007357 0.005245
0.219240 -0.009084 -0.000448
0.217240 -0.008625 -0.003473
0.217840 -0.007089 0.005483
0.214840 -0.009078 0.001616
0.219240 -0.009089 0.001350
0.218440 -0.009069 0.001685
0.218640 -0.006379 -0.006099
0.219140 -0.008961 0.002261
0.218440 -0.009087 0.000618
0.215040 -0.008897 -0.002507
0.215040 -0.008493 0.003726
0.216640 -0.007837 0.004807
0.215140 -0.009086 0.000874
0.215440 -0.007028 0.005538
0.223540 -0.007371 0.005232
0.219840 -0.007250 0.005340
0.221940 -0.007669 0.004967
0.220540 -0.005823 0.006425
0.224340 -0.008288 0.004063
0.219940 -0.006501 0.006023
0.223140 -0.007915 -0.004666
0.221140 -0.009089 0.001033
0.219840 -0.008335 -0.003968
0.221740 -0.008913 0.002518
0.221240 -0.006110 -0.006247
0.220540 -0.007944 -0.004614
0.222640 -0.008158 0.004280
0.220240 -0.006360 -0.006117
0.221340 -0.008115 -0.004331
0.224040 -0.009085 -0.000747
0.222240 -0.008015 -0.004499
0.220240 -0.008849 -0.002795
0.220240 -0.009085 -0.000375
0.221240 -0.009086 -0.000133
0.223940 -0.008759 -0.003246
0.220340 -0.007958 0.004624
0.224440 -0.009089 0.000344
0.222840 -0.009084 -0.001236
0.224040 -0.008904 0.002591
0.224140 -0.008676 0.003419
0.220540 -0.009021 -0.001894
0.224540 -0.006553 0.005976
0.224440 -0.005854 0.006410
0.222740 -0.006582 -0.005915
0.221540 -0.009071 0.001695
0.220940 -0.007533 -0.005061
0.223640 -0.008158 0.004283
0.223240 -0.009090 0.001036
0.222840 -0.009052 0.001792
0.222040 -0.008870 -0.002672
0.219740 -0.008960 -0.002215
0.220340 -0.008396 0.003893
0.223340 -0.008874 0.002712
0.224440 -0.008438 -0.003800
0.220340 -0.007062 -0.005488
0.220540 -0.008833 0.002935
0.223340 -0.005774 0.006450
0.220140 -0.009083 -0.001147
0.221740 -0.007613 -0.004998
0.223740 -0.009032 0.001917
0.224240 -0.006261 -0.006171
0.221540 -0.007061 0.005513
0.223240 -0.008367 -0.003904
0.224140 -0.009091 0.001277
0.221940 -0.009088 0.000705
0.219840 -0.008754 0.003281
0.222540 -0.007443 -0.005146
0.220940 -0.008466 -0.003743
0.222840 -0.009088 0.000226
0.220740 -0.009031 0.001892
0.220240 -0.009089 0.001318
0.219940 -0.009001 0.002070
0.222040 -0.006331 -0.006131
0.223740 -0.007113 -0.005442
0.222740 -0.007071 0.005501
0.219740 -0.005639 -0.006497
0.223040 -0.008789 -0.003118
0.221940 -0.005973 0.006347
0.221140 -0.008798 -0.003028
0.221140 -0.009084 -0.001002
0.222040 -0.009086 -0.000316
0.222840 -0.005880 -0.006372
0.223640 -0.009084 -0.001437
0.222240 -0.009022 -0.001919
0.222540 -0.005524 0.006583
0.219740 -0.008737 -0.003301
0.220740 -0.007040 0.005529
0.222640 -0.007680 0.004953
0.224040 -0.007945 -0.004606
0.221840 -0.009083 -0.001224
0.223840 -0.006772 0.005778
0.221440 -0.006902 -0.005633
0.222040 -0.008668 -0.003407
0.221040 -0.007649 0.004978
0.223140 -0.008666 0.003441
0.221840 -0.008277 0.004086
0.224440 -0.007122 0.005460
0.223440 -0.008941 -0.002340
0.220040 -0.009087 0.000510
0.223640 -0.009087 -0.000067
0.221240 -0.005583 0.006553
0.222440 -0.008844 0.002874
0.224340 -0.009012 -0.001947
0.221040 -0.008635 0.003480
0.222540 -0.006502 0.006022
0.221340 -0.008971 -0.002179
0.221040 -0.006332 0.006154
0.229040 -0.007998 -0.004520
0.224840 -0.008954 0.002313
0.225040 -0.006723 -0.005789
0.229040 -0.007882 0.004758
0.226040 -0.009088 -0.000007
0.226940 -0.006844 0.005715
0.226740 -0.008660 -0.003423
0.228240 -0.007285 -0.005288
0.226240 -0.008558 0.003623
0.226840 -0.007235 -0.005334
0.227440 -0.009087 -0.000661
0.227840 -0.009092 0.001174
0.226540 -0.008915 0.002537
0.227240 -0.008548 0.003644
0.228540 -0.007074 0.005503
0.228040 -0.009075 -0.001624
0.226640 -0.007821 0.004830
0.229040 -0.008933 -0.002388
0.225340 -0.009086 -0.000561
0.225340 -0.007072 0.005510
0.225640 -0.007671 0.004962
0.228440 -0.009090 0.000309
0.228440 -0.006415 0.006102
0.229240 -0.009092 0.000892
0.228940 -0.008629 0.003498
0.225940 -0.005965 0.006354
0.229240 -0.009005 0.002029
0.227740 -0.007063 0.005519
0.228140 -0.008178 -0.004219
0.227740 -0.007837 -0.004789
0.229240 -0.006214 -0.006195
0.228440 -0.008945 0.002354
0.226340 -0.008268 -0.004083
0.225340 -0.009091 0.001151
0.225340 -0.008637 0.003481
0.225540 -0.006102 -0.006253
0.227540 -0.008902 -0.002541
0.226340 -0.008872 -0.002662
0.225740 -0.008689 -0.003375
0.225440 -0.008249 0.004138
0.227740 -0.005886 0.006392
0.227440 -0.006804 -0.005716
0.225540 -0.007715 -0.004899
0.226840 -0.009093 0.001468
0.228640 -0.008240 0.004162
0.226940 -0.005872 -0.006375
0.228840 -0.008530 -0.003641
0.225840 -0.006634 0.005903
0.228340 -0.008811 -0.003006
0.226940 -0.009090 0.000655
0.225640 -0.009023 0.001934
0.225640 -0.009054 -0.001746
0.224940 -0.007334 -0.005244
0.227740 -0.005802 -0.006411
0.225940 -0.007224 -0.005346
0.227640 -0.008680 -0.003392
0.228440 -0.006664 -0.005843
0.229440 -0.008847 0.002911
0.225940 -0.009086 -0.000976
0.225240 -0.006134 0.006262
0.229040 -0.009088 -0.000456
0.224840 -0.009085 -0.001199
0.226540 -0.007886 -0.004707
