ply
format ascii 1.0
element vertex 88
property float x
property float y
property float z
end_header
0.063390 4.251870 10.847500
-0.369790 7.987330 10.864600
0.420608 9.331020 11.970600
0.218382 7.284060 10.230300
-0.182739 5.647160 9.937920
-0.364999 7.935420 11.948500
0.221744 11.386800 10.191000
0.058372 5.919830 12.118400
-0.001243 3.604180 10.920900
-0.292398 6.638610 12.058200
-0.332308 7.284060 11.433800
0.052907 4.932390 12.053100
-0.113697 4.776180 10.284400
-0.281675 6.526850 11.547700
-0.367833 9.352470 10.002900
-0.135767 5.006190 11.394500
-0.119832 4.840120 10.864200
0.307644 6.797490 10.842500
-0.608385 11.037900 10.432900
-0.413789 8.566060 11.054800
0.552656 10.459400 11.686100
0.773241 10.919400 10.755900
-0.673528 10.994600 11.530200
-0.004660 3.639790 10.346600
-0.172911 5.393310 10.458000
0.023520 8.412210 9.856420
0.712298 10.984000 11.424300
0.561155 9.665920 11.395800
0.702718 10.301200 11.212500
0.354792 7.376140 11.961500
-0.060294 4.219610 11.738200
0.482731 10.578600 10.274200
-0.346991 7.207570 12.102400
0.191383 5.585820 10.781700
-0.048173 4.105180 10.046400
-0.351711 7.256770 10.268000
0.281721 9.375480 10.002600
0.304497 6.764690 10.110400
-0.672860 10.431900 11.491200
0.424316 8.854950 11.639900
0.666635 10.180600 10.616000
-0.143485 10.218600 11.941100
-0.366337 7.911090 11.412300
-0.363868 8.002810 10.090000
0.302481 6.743680 11.504100
0.365878 7.965960 10.038000
0.310965 6.832110 12.141300
-0.293968 6.654960 10.097000
-0.812902 11.329200 11.154000
0.254059 6.239030 10.327800
0.029577 10.294900 10.086800
-0.499457 9.365250 10.508900
0.356921 7.556460 11.256600
0.056994 7.565310 9.824920
-0.110923 9.107110 12.102200
-0.289667 8.434240 12.154500
0.413790 8.757770 10.043800
-0.355134 7.368590 10.877200
-0.592250 9.633930 11.072100
-0.458954 9.488330 11.934300
-0.296463 6.680970 10.627700
0.342924 9.894610 11.942600
-0.571417 9.958600 11.713400
0.591654 9.630580 10.864000
-0.422645 8.672200 11.576200
-0.734870 10.456800 10.918500
-0.392326 8.421110 10.553400
-0.581591 10.337300 10.421500
-0.231145 6.000220 10.547300
0.379330 8.162730 10.624300
0.496649 9.167450 10.638600
0.378717 8.433840 11.947100
-0.428253 9.861300 10.121500
-0.489016 9.098650 11.106600
0.089399 7.988190 12.196600
-0.016846 3.766790 11.434200
-0.237291 6.064270 11.202800
0.062693 5.162980 9.971990
0.399000 8.438240 11.236800
0.362921 7.903340 11.714400
-0.186697 5.536980 11.770900
0.176660 10.759000 11.883700
-0.390039 8.669920 10.073800
0.357430 7.602350 10.622500
-0.154840 10.919300 10.156800
0.230804 5.996670 11.440600
0.086707 4.494880 11.315700
0.063390 4.251870 10.847500
