ply
format ascii 1.0
element vertex 1680
property float x
property float y
property float z
end_header
-0.112810 0.020082 0.007012
-0.113790 0.018871 -0.007731
-0.112710 0.019192 0.006909
-0.112260 0.018826 -0.006207
-0.112520 0.016661 0.007252
-0.111840 0.019428 -0.003421
-0.114790 0.017627 0.009004
-0.111840 0.017523 -0.005339
-0.113810 0.018980 0.008014
-0.113080 0.020398 -0.007026
-0.111870 0.018515 0.005757
-0.114020 0.016638 0.008771
-0.111840 0.017706 -0.002490
-0.111840 0.021245 0.001832
-0.113100 0.021131 0.007310
-0.111840 0.018580 -0.003985
-0.112090 0.017633 0.006284
-0.112680 0.016828 -0.007040
-0.111840 0.017343 -0.001456
-0.111840 0.019912 -0.004741
-0.112250 0.020193 0.006456
-0.113690 0.021170 -0.007625
-0.111840 0.017662 -0.000761
-0.111840 0.018228 -0.003182
-0.114340 0.019418 0.008539
-0.111840 0.021353 -0.005114
-0.112300 0.020606 -0.006244
-0.111840 0.021064 -0.001643
-0.111840 0.017202 -0.004632
-0.112690 0.017432 0.006959
-0.111840 0.017354 0.002302
-0.114960 0.018124 -0.008903
-0.114330 0.017512 -0.008338
-0.111840 0.020781 -0.004402
-0.111970 0.016743 0.006476
-0.111840 0.019146 -0.002558
-0.115000 0.019724 -0.008941
-0.112560 0.021297 -0.006495
-0.111840 0.016631 0.003271
-0.115270 0.016695 0.009964
-0.111840 0.018196 0.005028
-0.113680 0.017780 -0.007634
-0.111840 0.019824 0.002251
-0.111840 0.017660 -0.003889
-0.114730 0.018768 0.008935
-0.114330 0.018442 -0.008276
-0.111840 0.020502 -0.000770
-0.111840 0.020399 -0.003723
-0.111840 0.016921 -0.000535
-0.114990 0.020844 -0.008934
-0.114000 0.021429 0.008207
-0.113750 0.016911 -0.008053
-0.114640 0.016837 0.009213
-0.111840 0.020380 0.003833
-0.111840 0.019936 -0.002468
-0.111840 0.020336 0.001415
-0.111840 0.019410 0.003794
-0.111840 0.017098 -0.003268
-0.111840 0.016865 0.005726
-0.111840 0.020687 -0.002653
-0.111840 0.019220 -0.000261
-0.115170 0.018257 0.009368
-0.111840 0.019883 -0.001370
-0.111840 0.021201 -0.000451
-0.111840 0.018370 -0.000287
-0.111840 0.020220 -0.000060
-0.111840 0.016667 0.004907
-0.113610 0.020740 0.007816
-0.111840 0.019054 0.002235
-0.114400 0.019222 -0.008347
-0.113100 0.019628 -0.007048
-0.111840 0.019452 0.002972
-0.111840 0.019558 0.000775
-0.111840 0.017736 0.001281
-0.115190 0.018865 -0.009139
-0.113110 0.021359 -0.007048
-0.112930 0.018128 -0.006883
-0.114080 0.017359 0.008375
-0.111840 0.018144 -0.001791
-0.111840 0.017470 0.000010
-0.137740 0.025628 0.008735
-0.140420 0.023566 -0.005206
-0.138880 0.021840 -0.007331
-0.140420 0.025549 -0.002666
-0.137700 0.021793 -0.008510
-0.139360 0.026329 -0.006834
-0.140420 0.021505 -0.000953
-0.135760 0.022802 0.010716
-0.140420 0.022196 0.002237
-0.139350 0.023619 -0.006859
-0.140420 0.022250 0.000941
-0.138410 0.023102 -0.007792
-0.138250 0.021882 -0.007958
-0.140420 0.025551 0.000462
-0.140420 0.025133 -0.003991
-0.139730 0.021954 0.006743
-0.139290 0.025550 -0.006907
-0.140420 0.024440 0.000922
-0.140420 0.023192 -0.003703
-0.140420 0.024451 0.004410
-0.138620 0.024531 0.007857
-0.140420 0.023572 0.003880
-0.137350 0.023167 0.009119
-0.140420 0.024498 0.005274
-0.138630 0.022721 0.007837
-0.140420 0.026435 0.002796
-0.140340 0.024537 -0.005669
-0.140420 0.024194 -0.004532
-0.140420 0.023132 -0.000110
-0.138960 0.025232 0.007520
-0.140420 0.025686 -0.001555
-0.139570 0.022824 0.006897
-0.137590 0.023253 -0.008617
-0.136430 0.021646 -0.009777
-0.136370 0.022684 0.010099
-0.139460 0.021749 -0.006755
-0.138720 0.026021 -0.007476
-0.137180 0.022077 0.009287
-0.137940 0.026483 -0.008254
-0.139480 0.026313 0.007005
-0.136580 0.025575 -0.009614
-0.139190 0.022263 0.007276
-0.136230 0.024196 -0.009974
-0.140420 0.025480 0.004811
-0.140060 0.025725 0.006414
-0.140420 0.025644 -0.004560
-0.140420 0.022838 0.001647
-0.140050 0.024605 0.006423
-0.140420 0.025466 0.002384
-0.139530 0.024904 0.006946
-0.138070 0.023772 -0.008132
-0.138700 0.026051 0.007782
-0.137480 0.024654 -0.008725
-0.140420 0.024129 -0.002719
-0.140180 0.026048 -0.005984
-0.136210 0.022686 -0.009999
-0.137540 0.025683 -0.008661
-0.137090 0.025546 0.009393
-0.140410 0.023487 0.005691
-0.136090 0.025763 0.010387
-0.140420 0.021974 0.003062
-0.140420 0.026349 0.004948
-0.140420 0.025964 -0.000573
-0.140420 0.025228 0.005571
-0.139170 0.022770 -0.007034
-0.140420 0.023400 0.000680
-0.137870 0.022029 0.008604
-0.140420 0.021942 0.000170
-0.140420 0.022768 0.005290
-0.136690 0.023915 0.009787
-0.140420 0.022713 0.003450
-0.138320 0.024652 -0.007882
-0.140420 0.025563 0.003572
-0.140420 0.024812 0.000160
-0.136450 0.025154 0.010033
-0.137240 0.024567 0.009238
-0.136500 0.023436 -0.009708
-0.135560 0.022788 -0.010643
-0.140420 0.022399 -0.002522
-0.140420 0.024383 0.003463
-0.140420 0.022421 0.004322
-0.140420 0.022535 -0.000982
-0.135710 0.025092 0.010765
-0.140420 0.024954 -0.000740
-0.136630 0.021875 0.009840
-0.139010 0.023282 0.007467
-0.140350 0.022337 -0.005639
-0.135870 0.024292 0.010609
-0.140410 0.025977 0.005710
-0.140420 0.021640 -0.003114
-0.140420 0.023757 0.001863
-0.140420 0.023566 -0.001597
-0.135850 0.025127 -0.010347
-0.139470 0.024399 -0.006731
-0.136900 0.023975 -0.009301
-0.136060 0.026027 -0.010139
-0.138070 0.024379 0.008403
-0.137060 0.026114 -0.009134
-0.140420 0.023405 0.002841
-0.137030 0.023144 -0.009175
-0.139980 0.025028 -0.006223
-0.137040 0.021894 -0.009166
-0.137030 0.025154 -0.009168
-0.140420 0.023359 -0.002639
-0.135660 0.024127 -0.010546
-0.140420 0.022094 -0.004703
-0.135910 0.023457 -0.010296
-0.140410 0.025486 -0.005352
-0.137630 0.023918 0.008842
-0.136210 0.023414 0.010263
-0.140420 0.024052 -0.003695
-0.137900 0.023259 0.008570
-0.136780 0.026355 0.009697
-0.140420 0.024865 0.002871
-0.140420 0.025848 0.001425
-0.140420 0.022401 -0.003296
-0.140080 0.023845 0.006390
-0.140420 0.025681 -0.003458
-0.137430 0.022494 -0.008772
-0.139250 0.024183 0.007225
-0.140380 0.021747 0.005817
-0.138450 0.023680 0.008024
-0.138870 0.024291 -0.007331
-0.140420 0.024801 -0.003256
-0.138090 0.026339 0.008395
-0.140420 0.024637 0.002039
-0.140420 0.023389 0.004844
-0.140130 0.022826 0.006330
-0.140420 0.021842 -0.003902
-0.140420 0.024606 -0.001662
-0.140420 0.022934 -0.004759
-0.139790 0.023119 -0.006415
-0.138730 0.025261 -0.007467
-0.138090 0.025532 -0.008110
-0.140420 0.021682 0.004043
-0.140010 0.021808 -0.006197
-0.140420 0.024112 -0.000145
-0.140420 0.023504 -0.000773
-0.140420 0.022787 -0.001801
-0.140420 0.021927 -0.001918
-0.140170 0.023658 -0.006001
-0.134950 0.022990 0.011524
-0.132830 0.022733 0.013641
-0.134660 0.022049 0.011815
-0.134020 0.023847 0.012455
-0.131340 0.022225 -0.014156
-0.135170 0.022270 0.011301
-0.133470 0.024575 0.013009
-0.132670 0.024974 -0.013526
-0.131900 0.023865 -0.014084
-0.134300 0.023068 0.012170
-0.132220 0.022545 -0.013941
-0.132630 0.024903 0.013846
-0.132540 0.024022 0.013933
-0.130740 0.023290 0.014424
-0.135310 0.025348 -0.010891
-0.133540 0.025382 -0.012659
-0.133370 0.023305 0.013103
-0.130830 0.025625 -0.014147
-0.134740 0.026089 0.011742
-0.130710 0.022825 -0.014154
-0.131520 0.022881 0.014423
-0.134100 0.022661 -0.012104
-0.131160 0.022011 0.014421
-0.134320 0.023660 -0.011882
-0.134090 0.026491 -0.012092
-0.135050 0.023029 -0.011153
-0.131500 0.023195 -0.014153
-0.132950 0.023953 -0.013252
-0.131550 0.026431 0.014431
-0.131940 0.024761 0.014346
-0.133370 0.025435 0.013112
-0.131180 0.025141 0.014429
-0.133690 0.022346 0.012778
-0.134260 0.024431 -0.011943
-0.135190 0.023900 0.011286
-0.132780 0.025763 0.013703
-0.134410 0.024408 0.012064
-0.135410 0.022008 -0.010796
-0.133890 0.025947 0.012591
-0.132000 0.023541 0.014321
-0.130620 0.023865 -0.014151
-0.132220 0.022112 0.014202
-0.133550 0.024292 -0.012652
-0.134280 0.025248 0.012197
-0.131690 0.024935 -0.014135
-0.132910 0.022293 -0.013301
-0.130630 0.024160 0.014427
-0.132130 0.025535 -0.013976
-0.132920 0.025933 -0.013270
-0.132880 0.023193 -0.013330
-0.134780 0.022359 -0.011431
-0.135100 0.024860 0.011374
-0.132280 0.026402 0.014177
-0.133840 0.021961 -0.012367
-0.134610 0.025360 -0.011594
-0.134710 0.026140 -0.011491
-0.132260 0.026345 -0.013898
-0.135320 0.026348 -0.010872
-0.133460 0.026152 -0.012730
-0.133420 0.022612 -0.012790
-0.134340 0.021500 -0.011872
-0.135360 0.025751 0.011119
-0.132690 0.021594 -0.013521
-0.133470 0.023382 -0.012731
-0.130640 0.025780 0.014431
-0.132230 0.025562 0.014210
-0.134060 0.025171 -0.012139
-0.134830 0.024589 -0.011375
-0.131980 0.021665 -0.014060
-0.135120 0.023919 -0.011081
-0.130230 0.025080 0.014429
-0.126570 0.025663 -0.014146
-0.127970 0.026299 0.014433
-0.128750 0.024464 -0.014149
-0.128710 0.025494 -0.014147
-0.128170 0.025539 0.014431
-0.127720 0.024283 -0.014149
-0.125780 0.023553 -0.014151
-0.129570 0.022444 -0.014155
-0.125780 0.025738 0.014432
-0.129510 0.026144 -0.014145
-0.130080 0.022140 0.014422
-0.126690 0.024659 0.014429
-0.125920 0.021778 0.014422
-0.125700 0.022633 -0.014153
-0.128710 0.026394 -0.014144
-0.126300 0.023978 0.014427
-0.128800 0.021649 0.014421
-0.126000 0.022988 0.014425
-0.128720 0.024709 0.014429
-0.129050 0.023530 0.014425
-0.126840 0.026369 0.014433
-0.128310 0.023949 0.014427
-0.126580 0.024083 -0.014150
-0.127890 0.022779 0.014424
-0.130440 0.024885 -0.014149
-0.126610 0.022283 -0.014154
-0.126520 0.025498 0.014431
-0.127250 0.024983 -0.014147
-0.127240 0.023349 0.014425
-0.128900 0.022824 -0.014153
-0.128170 0.023474 -0.014152
-0.129920 0.023164 -0.014153
-0.128630 0.022619 0.014423
-0.125850 0.025053 -0.014147
-0.128010 0.022214 -0.014155
-0.129500 0.024300 0.014427
-0.129710 0.025324 -0.014147
-0.130290 0.026244 -0.014145
-0.129740 0.024434 -0.014150
-0.126630 0.022339 0.014423
-0.127290 0.021959 0.014422
-0.127350 0.025743 -0.014146
-0.127570 0.024999 0.014430
-0.129250 0.023684 -0.014151
-0.129400 0.025260 0.014430
-0.129150 0.026050 0.014432
-0.125750 0.024798 0.014430
-0.125820 0.025933 -0.014145
-0.128080 0.025054 -0.014147
-0.127550 0.024129 0.014427
-0.127140 0.023473 -0.014151
-0.129430 0.022530 0.014423
-0.126970 0.026483 -0.014144
-0.127330 0.022703 -0.014153
-0.130050 0.023660 0.014425
-0.124410 0.023962 -0.014149
-0.120990 0.022706 0.014425
-0.120470 0.025740 -0.014110
-0.122930 0.023557 0.014427
-0.125180 0.026418 0.014434
-0.120500 0.024820 -0.014116
-0.121410 0.026176 0.014434
-0.123560 0.024347 0.014429
-0.122870 0.021937 0.014423
-0.121890 0.023346 0.014427
-0.122490 0.023811 -0.014149
-0.120900 0.024816 0.014431
-0.122270 0.023091 -0.014151
-0.121990 0.024447 0.014429
-0.121020 0.022630 -0.014152
-0.123720 0.021737 0.014422
-0.121140 0.025340 -0.014145
-0.124480 0.022812 -0.014152
-0.124960 0.025638 0.014432
-0.124590 0.023938 0.014428
-0.125320 0.024182 -0.014149
-0.121890 0.026231 -0.014143
-0.121590 0.023821 -0.014149
-0.125140 0.022002 -0.014155
-0.123970 0.025797 0.014433
-0.124000 0.025732 -0.014145
-0.120520 0.023576 0.014401
-0.123290 0.025227 0.014431
-0.123260 0.021971 -0.014154
-0.122200 0.022161 -0.014154
-0.125030 0.025882 -0.014145
-0.121430 0.025406 0.014432
-0.122290 0.025111 -0.014146
-0.122770 0.026141 -0.014143
-0.122480 0.022637 0.014425
-0.124080 0.023277 0.014426
-0.123330 0.022647 0.014424
-0.122840 0.026187 0.014434
-0.124200 0.022517 0.014424
-0.123670 0.023212 -0.014151
-0.125040 0.022498 0.014424
-0.124360 0.024798 0.014430
-0.123010 0.022761 -0.014152
-0.123100 0.024791 -0.014147
-0.122410 0.025147 0.014431
-0.120870 0.024100 -0.014148
-0.121770 0.022126 0.014424
-0.125300 0.023618 0.014427
-0.124500 0.021678 0.014422
-0.124980 0.023452 -0.014151
-0.121380 0.021791 -0.014154
-0.124240 0.024852 -0.014147
-0.123670 0.026442 -0.014143
-0.123570 0.024092 -0.014149
-0.125090 0.025132 -0.014147
-0.122780 0.024417 0.014429
-0.121300 0.023896 0.014428
-0.121770 0.024561 -0.014147
-0.120120 0.023830 -0.013979
-0.115560 0.021516 0.009772
-0.115970 0.022285 0.010185
-0.117550 0.023401 0.011768
-0.115850 0.024037 -0.009781
-0.117580 0.025711 0.011800
-0.116740 0.024980 -0.010671
-0.116240 0.022978 -0.010177
-0.120430 0.021890 -0.014107
-0.117590 0.024351 0.011808
-0.119440 0.024197 0.013650
-0.116110 0.024898 -0.010042
-0.117030 0.023603 0.011243
-0.119350 0.022787 -0.013288
-0.115620 0.025786 0.009844
-0.118300 0.025310 0.012523
-0.115880 0.023585 0.010091
-0.120230 0.026026 0.014313
-0.119780 0.025959 -0.013720
-0.119440 0.024967 0.013655
-0.118440 0.022205 -0.012378
-0.118440 0.023950 0.012656
-0.119350 0.021637 -0.013286
-0.117130 0.024291 -0.011059
-0.117450 0.025292 -0.011376
-0.118120 0.022924 -0.012054
-0.116490 0.025494 0.010711
-0.116560 0.024079 -0.010497
-0.118100 0.026204 -0.012035
-0.116650 0.025769 -0.010576
-0.117530 0.026212 -0.011455
-0.116490 0.024724 0.010708
-0.118920 0.024716 -0.012854
-0.115690 0.022796 -0.009625
-0.118810 0.024599 0.013025
-0.118220 0.023200 0.012434
-0.115900 0.025607 -0.009827
-0.117980 0.021633 -0.011915
-0.118430 0.023755 -0.012365
-0.119370 0.022478 0.013579
-0.118190 0.025224 -0.012119
-0.117540 0.021502 0.011749
-0.117600 0.023932 -0.011532
-0.115470 0.021916 -0.009405
-0.119130 0.023558 0.013341
-0.117080 0.022293 0.011292
-0.117560 0.023012 -0.011497
-0.118470 0.026140 0.012687
-0.119330 0.025267 -0.013259
-0.117040 0.023230 -0.010971
-0.119800 0.024789 -0.013734
-0.118030 0.021900 0.012244
-0.115780 0.024675 0.009994
-0.117660 0.022641 0.011875
-0.116690 0.022039 -0.010626
-0.118770 0.022926 -0.012705
-0.119910 0.022856 0.014115
-0.118510 0.022329 0.012716
-0.116030 0.021957 -0.009973
-0.115540 0.024816 -0.009469
-0.117130 0.025092 0.011343
-0.120290 0.022960 -0.014059
-0.119090 0.023837 -0.013029
-0.119390 0.025817 0.013614
-0.116620 0.021904 0.010828
-0.117050 0.025873 0.011267
-0.118910 0.025479 0.013129
-0.119820 0.022249 -0.013756
-0.115460 0.023066 0.009674
-0.117250 0.021861 -0.011184
-0.118790 0.025666 -0.012724
-0.119700 0.021717 0.013909
-0.116510 0.023204 0.010726
-0.120030 0.025086 0.014205
-0.111840 0.025042 0.002995
-0.111840 0.024702 -0.004727
-0.113180 0.025371 0.007397
-0.112180 0.025086 -0.006101
-0.111860 0.024555 0.005696
-0.111840 0.021495 0.005524
-0.111840 0.026100 -0.004103
-0.113540 0.025300 -0.007474
-0.113210 0.022781 0.007419
-0.111840 0.022697 -0.002935
-0.114410 0.024388 0.008631
-0.112970 0.023198 -0.006906
-0.111840 0.022382 -0.000886
-0.112760 0.022172 0.006974
-0.114950 0.026317 0.009173
-0.112250 0.025986 -0.006177
-0.111840 0.023632 -0.000909
-0.114060 0.022201 -0.007996
-0.114380 0.025568 0.008604
-0.112210 0.021943 0.006419
-0.111900 0.025774 0.005893
-0.111840 0.026383 -0.005017
-0.114890 0.022957 0.009099
-0.113220 0.026321 0.007444
-0.113190 0.024519 -0.007124
-0.112750 0.025447 -0.006683
-0.112280 0.024073 0.006501
-0.111840 0.022161 -0.004509
-0.111840 0.025756 0.005103
-0.111840 0.025488 -0.003285
-0.114890 0.021634 -0.008832
-0.111840 0.023075 0.001578
-0.111840 0.022459 -0.003769
-0.115330 0.025715 -0.009263
-0.112340 0.022823 0.006554
-0.114100 0.024472 -0.008034
-0.111880 0.022415 0.005786
-0.114540 0.021708 0.008745
-0.111840 0.022767 0.004901
-0.113490 0.021840 0.007703
-0.114330 0.025882 -0.008253
-0.114620 0.024163 -0.008554
-0.111840 0.025640 -0.000090
-0.111840 0.023569 -0.003421
-0.111840 0.024367 0.004724
-0.113750 0.023630 0.007966
-0.114950 0.022544 -0.008889
-0.111840 0.023658 0.000625
-0.111840 0.023889 0.003897
-0.112280 0.024953 0.006496
-0.114050 0.022959 0.008264
-0.113800 0.022911 -0.007740
-0.111840 0.021559 -0.003674
-0.111840 0.023045 -0.002020
-0.113170 0.022279 -0.007111
-0.111840 0.021658 0.000491
-0.114990 0.025104 -0.008924
-0.111840 0.025862 0.002960
-0.111840 0.022939 0.000089
-0.111840 0.025389 0.004071
-0.113630 0.023910 -0.007564
-0.111840 0.023514 0.002311
-0.112490 0.026112 0.006709
-0.111840 0.024284 -0.001622
-0.115170 0.023615 -0.009099
-0.111840 0.023912 -0.004711
-0.111840 0.021942 0.002733
-0.111840 0.024096 0.001522
-0.114430 0.023578 0.008641
-0.111960 0.022675 -0.005752
-0.111840 0.026200 0.003812
-0.113710 0.024700 0.007924
-0.113120 0.026009 -0.007046
-0.111840 0.026298 -0.003266
-0.111840 0.025864 0.002150
-0.111840 0.026456 0.001402
-0.111840 0.023201 0.003198
-0.111840 0.023526 -0.002641
-0.113960 0.026129 0.008178
-0.111840 0.025948 0.000667
-0.111840 0.026112 -0.000755
-0.111840 0.024654 0.002269
-0.114940 0.026364 -0.008870
-0.111840 0.025083 -0.001234
-0.111840 0.024637 0.000952
-0.111840 0.025606 0.001382
-0.112700 0.023452 0.006918
-0.111840 0.024849 -0.003726
-0.111940 0.023894 -0.005704
-0.112330 0.022106 -0.006266
-0.114420 0.022832 -0.008361
-0.111840 0.024256 -0.002383
-0.115240 0.022166 0.009449
-0.111840 0.022046 0.001368
-0.114940 0.024587 0.009153
-0.111850 0.025664 -0.005377
-0.111840 0.021528 0.004354
-0.111840 0.021990 0.003535
-0.111840 0.024202 0.003025
-0.115320 0.023986 0.009539
-0.111840 0.025265 -0.002034
-0.111840 0.024310 -0.000037
-0.111840 0.025896 -0.002509
-0.111950 0.023204 0.006017
-0.111840 0.022659 0.004078
-0.111840 0.022140 -0.000147
-0.111840 0.021587 -0.002841
-0.114060 0.022189 0.008268
-0.111840 0.022574 0.002259
-0.111840 0.023478 0.004545
-0.111840 0.022014 -0.001830
-0.112600 0.024097 -0.006532
-0.111840 0.023101 -0.004536
-0.114230 0.023622 -0.008164
-0.115210 0.025277 0.009427
-0.112990 0.024341 0.007202
-0.113690 0.026130 -0.007618
-0.111840 0.023656 0.005323
-0.111840 0.022687 0.000839
-0.112410 0.023196 -0.006347
-0.111840 0.024807 -0.002953
-0.111840 0.025451 -0.004533
-0.111840 0.025864 -0.001499
-0.140420 0.028236 -0.001679
-0.140420 0.027476 -0.001465
-0.138330 0.029622 -0.007847
-0.140420 0.030656 -0.001591
-0.138270 0.029340 0.008219
-0.140350 0.027767 -0.005623
-0.139730 0.030654 0.006763
-0.140420 0.029598 0.005601
-0.135930 0.031173 0.010562
-0.140420 0.028775 -0.001094
-0.135950 0.026977 -0.010242
-0.140420 0.028324 0.003163
-0.138560 0.027021 0.007926
-0.140060 0.029888 -0.006119
-0.140420 0.028359 0.001353
-0.135870 0.027462 0.010619
-0.139070 0.027470 -0.007123
-0.137890 0.027219 0.008591
-0.140420 0.031025 0.002556
-0.136990 0.029336 0.009497
-0.137510 0.028343 -0.008676
-0.140420 0.027878 -0.002440
-0.136480 0.030736 -0.009700
-0.140420 0.027632 0.004002
-0.140420 0.027438 0.001662
-0.140420 0.026678 -0.002373
-0.140420 0.026608 0.001474
-0.135470 0.026601 0.011016
-0.139830 0.027148 -0.006364
-0.140420 0.026632 0.000147
-0.137520 0.028148 0.008962
-0.140420 0.029447 0.001814
-0.138420 0.031051 -0.007756
-0.140420 0.027630 -0.003205
-0.139050 0.031290 -0.007123
-0.135810 0.027987 -0.010370
-0.138220 0.027900 0.008268
-0.140180 0.030978 -0.005957
-0.137520 0.030108 0.008973
-0.138920 0.029040 -0.007265
-0.136560 0.030615 0.009934
-0.136520 0.028044 0.009966
-0.140420 0.029804 -0.000582
-0.140410 0.029976 -0.005197
-0.135710 0.029632 0.010777
-0.140420 0.028717 0.002145
-0.136150 0.028903 0.010339
-0.138410 0.028551 -0.007771
-0.140420 0.026502 0.004025
-0.140140 0.030086 0.006332
-0.135670 0.030147 -0.010511
-0.137360 0.029674 -0.008820
-0.138510 0.027501 -0.007686
-0.137740 0.027233 -0.008454
-0.137720 0.029018 0.008765
-0.139670 0.030759 -0.006507
-0.140420 0.027679 0.004904
-0.140420 0.026651 -0.003371
-0.138570 0.028521 0.007912
-0.136990 0.031406 0.009500
-0.140420 0.027564 0.003117
-0.136840 0.027225 0.009646
-0.139100 0.030500 -0.007080
-0.137380 0.026547 0.009099
-0.139520 0.028999 -0.006670
-0.139510 0.027939 -0.006684
-0.140420 0.030136 0.002337
-0.140420 0.030782 0.000140
-0.138080 0.030349 0.008414
-0.138540 0.031291 0.007950
-0.136430 0.029486 -0.009747
-0.140420 0.030609 -0.002624
-0.136420 0.028366 -0.009762
-0.136240 0.026834 0.010242
-0.137830 0.029213 -0.008350
-0.139210 0.030303 0.007283
-0.140420 0.029218 -0.002087
-0.137050 0.031074 -0.009124
-0.140410 0.031479 -0.002693
-0.137150 0.027624 -0.009043
-0.140370 0.029297 -0.005581
-0.140420 0.029300 0.004721
-0.140420 0.028519 0.004862
-0.136690 0.026665 -0.009502
-0.140420 0.030111 -0.003505
-0.139280 0.027683 0.007201
-0.140040 0.031375 0.006457
-0.140420 0.027048 0.005393
-0.137860 0.030043 -0.008318
-0.140370 0.028797 0.005873
-0.140420 0.027200 0.000731
-0.140420 0.027922 0.000034
-0.136390 0.029684 0.010105
-0.140150 0.026646 0.006316
-0.136920 0.030125 -0.009257
-0.139110 0.028722 0.007378
-0.140420 0.028973 -0.000341
-0.135970 0.028817 -0.010213
-0.140420 0.030889 0.001114
-0.140420 0.028819 -0.002769
-0.140420 0.027403 -0.004045
-0.140420 0.030460 0.004824
-0.140420 0.031278 0.005573
-0.140420 0.026623 -0.004227
-0.140420 0.029522 0.003891
-0.136900 0.028945 -0.009276
-0.140420 0.031363 0.003328
-0.140420 0.031450 0.004788
-0.140420 0.029405 0.002625
-0.140420 0.029876 -0.001553
-0.139090 0.031202 0.007405
-0.140420 0.027946 0.002359
-0.136430 0.027466 -0.009752
-0.140040 0.028518 -0.006149
-0.140420 0.029372 -0.003929
-0.135680 0.030462 0.010813
-0.140420 0.029090 0.000895
-0.140420 0.030672 0.003808
-0.139890 0.027605 0.006591
-0.135480 0.030908 -0.010692
-0.140420 0.028018 0.005587
-0.140420 0.030143 -0.004317
-0.140420 0.027934 -0.004629
-0.139240 0.029650 -0.006941
-0.140420 0.030274 0.003134
-0.140420 0.031477 -0.001879
-0.135840 0.028272 0.010648
-0.140420 0.028472 0.003952
-0.140320 0.026987 -0.005706
-0.137820 0.030853 -0.008352
-0.140420 0.028552 -0.003902
-0.140420 0.026595 -0.005019
-0.138970 0.029572 0.007516
-0.140420 0.029699 -0.002690
-0.139720 0.029184 0.006770
-0.140420 0.026785 -0.001020
-0.140420 0.030278 0.001585
-0.140420 0.029960 0.000759
-0.139790 0.028374 0.006692
-0.140420 0.029364 -0.004707
-0.140410 0.030994 -0.004648
-0.140420 0.028446 -0.005231
-0.140420 0.027464 -0.000603
-0.140410 0.030902 -0.003794
-0.132530 0.028402 0.013961
-0.134600 0.027479 0.011886
-0.134100 0.028831 -0.012079
-0.134640 0.031400 -0.011530
-0.130970 0.028600 0.014438
-0.131270 0.029385 -0.014137
-0.134060 0.027307 0.012423
-0.133310 0.028473 -0.012873
-0.134980 0.026940 0.011508
-0.133020 0.026594 0.013467
-0.135260 0.027188 -0.010927
-0.132620 0.026984 -0.013566
-0.132760 0.028324 -0.013419
-0.133780 0.030476 0.012714
-0.131960 0.029721 0.014354
-0.132000 0.030305 -0.014027
-0.130950 0.030960 0.014444
-0.130750 0.029890 0.014442
-0.130690 0.030885 -0.014133
-0.131810 0.027035 -0.014101
-0.132160 0.028805 -0.013955
-0.135290 0.028928 -0.010892
-0.133660 0.031122 -0.012515
-0.131580 0.030955 -0.014129
-0.130720 0.026660 0.014433
-0.135420 0.028851 0.011065
-0.134360 0.030478 0.012129
-0.133800 0.027131 -0.012380
-0.132620 0.027623 0.013866
-0.133400 0.029925 0.013095
-0.132410 0.031474 -0.013763
-0.132220 0.027695 -0.013917
-0.132840 0.030884 -0.013331
-0.131190 0.026575 -0.014144
-0.134330 0.030520 -0.011851
-0.133160 0.027673 -0.013020
-0.132730 0.029613 0.013763
-0.135090 0.030010 0.011401
-0.134940 0.027889 -0.011248
-0.130510 0.030135 -0.014135
-0.134020 0.028187 0.012470
-0.133850 0.027941 -0.012329
-0.133460 0.027955 0.013029
-0.133550 0.029632 -0.012627
-0.132610 0.030543 0.013880
-0.135270 0.027811 0.011214
-0.134640 0.029240 -0.011541
-0.134580 0.027050 -0.011610
-0.133290 0.030453 -0.012883
-0.134530 0.028608 0.011955
-0.131760 0.027751 0.014407
-0.133380 0.029155 0.013106
-0.134210 0.031237 0.012282
-0.130650 0.027410 0.014435
-0.131900 0.030631 0.014374
-0.133570 0.026855 0.012917
-0.134690 0.029449 0.011802
-0.132910 0.029493 -0.013266
-0.134920 0.031050 0.011578
-0.131140 0.028005 -0.014141
-0.132590 0.030104 -0.013584
-0.131590 0.029041 0.014435
-0.134200 0.029721 -0.011981
-0.134100 0.029697 0.012395
-0.134840 0.030079 -0.011338
-0.133250 0.030695 0.013241
-0.128630 0.028879 0.014439
-0.127230 0.031069 0.014445
-0.127390 0.028003 -0.014140
-0.125630 0.031128 0.014446
-0.126360 0.029698 0.014442
-0.129890 0.030460 0.014443
-0.129610 0.029540 0.014441
-0.128240 0.030754 -0.014133
-0.129640 0.030194 -0.014134
-0.129590 0.027810 0.014436
-0.129140 0.031170 0.014445
-0.128500 0.027664 -0.014141
-0.126550 0.028393 -0.014138
-0.126280 0.030568 0.014444
-0.125480 0.027432 -0.014141
-0.127050 0.028509 0.014439
-0.130320 0.028394 -0.014139
-0.129810 0.028600 0.014438
-0.129440 0.028504 -0.014139
-0.127610 0.029843 -0.014135
-0.127820 0.026563 -0.014144
-0.127950 0.028479 0.014439
-0.126180 0.026823 -0.014142
-0.127560 0.029499 0.014441
-0.128600 0.029849 0.014442
-0.126200 0.027663 -0.014140
-0.128290 0.030669 0.014444
-0.129360 0.031304 -0.014132
-0.129930 0.031260 0.014445
-0.125920 0.029033 -0.014137
-0.130310 0.029190 0.014440
-0.129020 0.027114 -0.014142
-0.126460 0.027688 0.014437
-0.126610 0.031143 -0.014131
-0.127510 0.030369 0.014444
-0.129730 0.026850 0.014434
-0.128610 0.027059 0.014435
-0.128400 0.029754 -0.014135
-0.128110 0.028804 -0.014138
-0.125570 0.027238 0.014436
-0.127450 0.027599 0.014436
-0.127450 0.030613 -0.014133
-0.127160 0.029123 -0.014137
-0.125710 0.029792 -0.014135
-0.126380 0.030213 -0.014134
-0.130330 0.027145 -0.014143
-0.125780 0.031373 -0.014130
-0.128930 0.029074 -0.014137
-0.128030 0.031399 0.014446
-0.129730 0.029314 -0.014137
-0.127210 0.027243 -0.014142
-0.128540 0.027869 0.014437
-0.126090 0.028618 0.014439
-0.126230 0.026848 0.014435
-0.121110 0.030056 0.014444
-0.122820 0.028611 -0.014137
-0.124450 0.028002 -0.014139
-0.120710 0.028940 -0.014136
-0.124590 0.030358 0.014444
-0.123510 0.028507 0.014440
-0.125220 0.028282 -0.014138
-0.121890 0.029551 -0.014134
-0.120590 0.030856 0.014435
-0.125300 0.030058 0.014443
-0.121150 0.027661 -0.014139
-0.124820 0.029068 0.014441
-0.122100 0.027607 0.014438
-0.123250 0.030451 -0.014132
-0.120720 0.031130 -0.014130
-0.122740 0.028177 0.014439
-0.125290 0.028148 0.014438
-0.124660 0.029862 -0.014134
-0.122270 0.030661 -0.014131
-0.122900 0.029761 -0.014134
-0.124740 0.031318 0.014447
-0.120510 0.030240 -0.014106
-0.123820 0.028452 -0.014138
-0.124370 0.031102 -0.014131
-0.121390 0.031346 0.014448
-0.122980 0.027061 -0.014141
-0.122190 0.027301 -0.014140
-0.121880 0.028706 0.014441
-0.123690 0.027392 -0.014140
-0.124250 0.028237 0.014439
-0.122310 0.029477 0.014443
-0.121460 0.030641 -0.014131
-0.123750 0.031477 0.014447
-0.121100 0.029660 -0.014134
-0.125190 0.030622 -0.014132
-0.121850 0.028461 -0.014137
-0.123640 0.029687 0.014443
-0.124130 0.027347 0.014437
-0.124470 0.027242 -0.014141
-0.124210 0.029242 -0.014136
-0.123540 0.030657 0.014445
-0.121890 0.031461 -0.014129
-0.124290 0.026587 0.014435
-0.124080 0.030382 -0.014133
-0.123360 0.029141 -0.014136
-0.122730 0.031301 -0.014130
-0.121200 0.026641 -0.014142
-0.123510 0.026817 0.014435
-0.121070 0.027016 0.014436
-0.120810 0.028066 0.014439
-0.122380 0.026797 0.014436
-0.122370 0.030987 0.014446
-0.125430 0.026622 -0.014143
-0.121070 0.029046 0.014442
-0.123210 0.027557 0.014437
-0.121920 0.030276 0.014445
-0.123600 0.031342 -0.014130
-0.123100 0.027871 -0.014139
-0.115620 0.029736 0.009846
-0.117590 0.030702 -0.011512
-0.116750 0.029773 0.010978
-0.116440 0.031094 0.010671
-0.116060 0.028015 0.010283
-0.118360 0.027190 0.012588
-0.115850 0.028207 -0.009785
-0.116990 0.030573 0.011227
-0.118490 0.030299 0.012719
-0.119300 0.030307 -0.013233
-0.115840 0.026957 -0.009770
-0.117490 0.031192 0.011723
-0.116400 0.030369 -0.010325
-0.117340 0.028091 -0.011271
-0.120200 0.028370 -0.014007
-0.116630 0.029013 0.010862
-0.117370 0.029832 0.011600
-0.119350 0.030548 0.013579
-0.116650 0.026689 -0.010573
-0.119130 0.027678 0.013356
-0.118890 0.028396 -0.012826
-0.119980 0.030386 0.014190
-0.116540 0.027799 -0.010475
-0.116740 0.029540 -0.010673
-0.115520 0.031116 0.009754
-0.119340 0.026667 -0.013274
-0.117630 0.027741 0.011852
-0.117650 0.026891 0.011870
-0.115720 0.027175 0.009947
-0.118740 0.027506 -0.012677
-0.117560 0.028661 0.011787
-0.118680 0.026545 -0.012618
-0.118650 0.030005 -0.012578
-0.118090 0.028034 -0.012024
-0.118710 0.030876 -0.012635
-0.120340 0.027400 -0.014066
-0.119260 0.029748 0.013493
-0.119870 0.030749 -0.013796
-0.119770 0.027187 0.013992
-0.116750 0.028023 0.010973
-0.120380 0.028726 0.014379
-0.116710 0.028659 -0.010637
-0.115570 0.028456 0.009794
-0.118940 0.028838 0.013169
-0.117860 0.027303 -0.011793
-0.119340 0.026688 0.013564
-0.117930 0.030411 0.012164
-0.118420 0.028765 -0.012355
-0.117540 0.029352 -0.011475
-0.119880 0.027926 0.014104
-0.117210 0.030041 -0.011134
-0.118140 0.028490 0.012362
-0.116010 0.030265 0.010242
-0.115850 0.030177 -0.009773
-0.118520 0.031399 0.012754
-0.119840 0.029366 0.014070
-0.117850 0.029993 -0.011775
-0.119100 0.031238 0.013332
-0.120100 0.026670 -0.013964
-0.116810 0.027223 0.011035
-0.119110 0.029577 -0.013039
-0.116080 0.028985 0.010307
-0.119940 0.029709 -0.013856
-0.119510 0.028537 0.013733
-0.116350 0.026554 0.010570
-0.118200 0.029390 0.012432
-0.118110 0.031404 -0.012038
-0.116060 0.029017 -0.009985
-0.115780 0.030947 -0.009709
-0.116950 0.030960 -0.010874
-0.117280 0.027091 -0.011214
-0.119600 0.027998 -0.013538
-0.118740 0.029549 0.012967
-0.119430 0.028748 -0.013363
-0.118220 0.030574 -0.012145
-0.118700 0.028159 0.012929
-0.111840 0.030672 0.002957
-0.115060 0.031034 -0.008985
-0.113210 0.030529 -0.007141
-0.112080 0.027743 0.006272
-0.114030 0.030379 0.008259
-0.112230 0.028523 0.006460
-0.114070 0.027931 -0.007993
-0.111840 0.029748 0.004541
-0.113170 0.026769 -0.007097
-0.111840 0.029225 0.001945
-0.111840 0.027989 0.004245
-0.113310 0.028731 0.007536
-0.113730 0.029610 -0.007660
-0.111870 0.031024 -0.005506
-0.114010 0.029499 0.008239
-0.111840 0.027257 0.004850
-0.111840 0.027628 0.000592
-0.111840 0.028313 0.002394
-0.111840 0.029052 -0.004935
-0.114440 0.031398 0.008670
-0.114590 0.030103 -0.008513
-0.112390 0.027003 0.006609
-0.111840 0.026853 0.002530
-0.111840 0.029122 0.002952
-0.113230 0.027281 0.007458
-0.111920 0.026834 -0.005656
-0.111840 0.028601 -0.004305
-0.111840 0.031277 0.004913
-0.111840 0.029614 -0.001545
-0.111840 0.030537 -0.002835
-0.111840 0.027394 0.001973
-0.113490 0.031460 0.007727
-0.112230 0.030913 0.006466
-0.112460 0.029672 0.006690
-0.111840 0.030949 0.000320
-0.111940 0.027984 -0.005689
-0.114130 0.026929 0.008356
-0.114140 0.029112 -0.008067
-0.114680 0.029193 -0.008605
-0.111840 0.029579 0.000276
-0.113200 0.030811 0.007438
-0.111840 0.030814 0.002188
-0.115390 0.029725 -0.009314
-0.111840 0.028975 0.005482
-0.111840 0.028626 -0.002400
-0.111840 0.026633 -0.001334
-0.111840 0.030901 -0.000489
-0.114710 0.030248 0.008941
-0.114970 0.028514 -0.008899
-0.113160 0.029661 0.007386
-0.111840 0.027732 0.002918
-0.111840 0.030071 -0.004355
-0.112040 0.030195 -0.005917
-0.112680 0.031432 0.006916
-0.111840 0.030357 0.000897
-0.112610 0.026587 -0.006532
-0.113760 0.030410 -0.007686
-0.111840 0.026916 -0.002591
-0.112150 0.029376 -0.006064
-0.111840 0.030089 -0.003583
-0.112760 0.030332 0.006995
-0.112810 0.027892 0.007035
-0.113210 0.029759 -0.007134
-0.114700 0.029368 0.008929
-0.111840 0.029885 0.005471
-0.111840 0.030101 -0.000478
-0.111840 0.029903 0.002711
-0.114660 0.027403 -0.008585
-0.112000 0.030264 0.006147
-0.111840 0.028440 0.003551
-0.111840 0.030990 0.003650
-0.111840 0.027621 -0.004561
-0.112420 0.027816 -0.006345
-0.112360 0.028616 -0.006278
-0.111840 0.027190 0.003509
-0.112530 0.030787 -0.006453
-0.111840 0.030913 -0.001312
-0.111840 0.031286 0.001350
-0.112020 0.029334 0.006173
-0.113930 0.028099 0.008155
-0.111840 0.029836 -0.002312
-0.111840 0.030100 0.003829
-0.113970 0.031161 -0.007895
-0.113100 0.028738 -0.007021
-0.111840 0.030675 -0.002033
-0.111890 0.027014 0.005861
-0.111840 0.026760 -0.000180
-0.111840 0.028419 -0.003467
-0.115100 0.027997 0.009330
-0.111840 0.028072 -0.000922
-0.114900 0.027277 0.009128
-0.111840 0.028908 0.004308
-0.111840 0.028026 0.001444
-0.111830 0.031342 -0.004774
-0.111840 0.027610 -0.000179
-0.113800 0.027041 -0.007722
-0.111840 0.029249 -0.003463
-0.114450 0.027728 0.008672
-0.111840 0.028907 0.000867
-0.114380 0.026692 -0.008310
-0.114620 0.028478 0.008848
-0.111840 0.026558 0.004523
-0.111830 0.031010 -0.003860
-0.113350 0.027489 -0.007277
-0.111840 0.030005 0.001877
-0.111840 0.028693 -0.001394
-0.111840 0.028570 -0.000022
-0.115440 0.027456 -0.009359
-0.111840 0.027485 -0.001991
-0.111840 0.030527 0.004787
-0.112710 0.029377 -0.006640
-0.113620 0.028640 -0.007556
-0.111840 0.027288 -0.003261
-0.111840 0.026890 -0.004125
-0.111840 0.026778 0.000627
-0.111840 0.029241 -0.000426
-0.111840 0.028045 0.005496
-0.111830 0.030213 -0.005153
-0.140410 0.035141 -0.003354
-0.136370 0.031704 0.010129
-0.140410 0.032606 -0.001349
-0.138980 0.032082 0.007516
-0.140410 0.034266 0.002488
-0.139090 0.035643 0.007279
-0.140280 0.035784 -0.000573
-0.138760 0.032971 0.007735
-0.136860 0.035455 -0.009244
-0.138500 0.032391 -0.007673
-0.136910 0.036273 -0.008746
-0.139580 0.036198 -0.006135
-0.140410 0.032513 -0.004208
-0.139470 0.036124 0.006631
-0.139720 0.033894 0.006776
-0.140420 0.033138 0.005342
-0.139080 0.033220 -0.007090
-0.139960 0.036401 0.000179
-0.136080 0.036064 0.010058
-0.136720 0.032305 0.009773
-0.135810 0.033662 0.010694
-0.140410 0.033242 0.000014
-0.136510 0.033704 0.009995
-0.136160 0.035193 0.010336
-0.140330 0.032857 -0.005655
-0.140420 0.031888 0.001398
-0.140420 0.033662 0.003998
-0.137950 0.035269 0.008534
-0.140330 0.035618 0.001387
-0.137270 0.035647 0.009096
-0.140420 0.032214 0.003272
-0.137000 0.033595 -0.009164
-0.137700 0.031588 0.008793
-0.139670 0.032064 0.006829
-0.137860 0.033959 0.008643
-0.135620 0.035452 0.010816
-0.138530 0.034231 0.007970
-0.140200 0.034017 -0.005923
-0.139480 0.032803 0.007016
-0.135820 0.031757 -0.010358
-0.137540 0.031843 -0.008631
-0.140280 0.035755 0.002826
-0.137500 0.033203 -0.008671
-0.136090 0.032883 0.010412
-0.139760 0.036457 0.005880
-0.140410 0.034219 0.001290
-0.140410 0.031601 -0.003507
-0.137430 0.034124 -0.008735
-0.136620 0.034655 -0.009541
-0.139780 0.032848 -0.006387
-0.139420 0.034279 -0.006751
-0.138510 0.033421 -0.007663
-0.135670 0.034502 0.010829
-0.140390 0.035311 0.000293
-0.136760 0.035475 0.009670
-0.140220 0.035929 0.004860
-0.140340 0.035568 0.005582
-0.135890 0.032977 -0.010280
-0.140410 0.033639 -0.002516
-0.140340 0.035595 -0.005135
-0.136550 0.034615 0.009956
-0.140420 0.031926 0.002369
-0.138150 0.034582 -0.008017
-0.140410 0.033502 -0.003827
-0.140410 0.032970 -0.002929
-0.137770 0.036451 -0.007719
-0.140420 0.031632 0.000032
-0.139680 0.031789 -0.006491
-0.140410 0.034101 0.000524
-0.140390 0.035316 -0.001380
-0.138140 0.035732 -0.007869
-0.136540 0.031736 -0.009636
-0.140410 0.034624 -0.000768
-0.140200 0.035972 0.003949
-0.136430 0.032766 -0.009735
-0.140420 0.034329 0.004878
-0.138650 0.035111 -0.007517
-0.137110 0.034566 0.009389
-0.137120 0.033446 0.009375
-0.135490 0.032491 0.011004
-0.136290 0.035386 -0.009836
-0.137610 0.035183 -0.008551
-0.139040 0.035720 -0.006969
-0.140010 0.036317 0.002090
-0.138020 0.032882 -0.008151
-0.140250 0.034916 0.006180
-0.140300 0.035722 -0.003869
-0.140420 0.032492 0.000141
-0.136860 0.036477 0.008914
-0.139920 0.036459 0.001044
-0.139510 0.035129 -0.006657
-0.135840 0.034777 -0.010324
-0.137260 0.032217 0.009236
-0.140410 0.033567 -0.001698
-0.136980 0.032315 -0.009196
-0.139160 0.034652 0.007340
-0.140410 0.034343 -0.004259
-0.140420 0.033354 0.003212
-0.137680 0.036039 0.008473
-0.135620 0.035657 -0.010419
-0.140410 0.035136 0.002390
-0.137530 0.032918 0.008965
-0.140310 0.035688 -0.002303
-0.140230 0.033236 0.006215
-0.138390 0.036051 0.007763
-0.138390 0.036230 -0.007304
-0.140410 0.034948 -0.002126
-0.138840 0.034061 -0.007331
-0.140420 0.033228 0.001618
-0.140410 0.032225 -0.004975
-0.140420 0.032368 0.005384
-0.140420 0.034612 0.004000
-0.138430 0.032170 0.008066
-0.139170 0.032080 -0.007002
-0.138250 0.033240 0.008247
-0.140410 0.032299 -0.002534
-0.140420 0.033040 0.004542
-0.140410 0.033714 -0.000720
-0.140250 0.031987 -0.005844
-0.137530 0.035953 -0.008366
-0.139040 0.033762 0.007461
-0.140420 0.032202 0.004087
-0.140420 0.033898 0.005509
-0.139620 0.035264 0.006861
-0.140390 0.035303 0.003438
-0.140210 0.034126 0.006240
-0.140410 0.033265 -0.004757
-0.140420 0.033246 0.002376
-0.140210 0.034887 -0.005897
-0.140420 0.031564 -0.000823
-0.136040 0.033877 -0.010130
-0.140410 0.034815 -0.004878
-0.138620 0.035251 0.007863
-0.140410 0.033976 -0.005159
-0.140420 0.032600 0.000894
-0.140270 0.032426 0.006129
-0.140410 0.035170 0.004655
-0.140140 0.036106 -0.001375
-0.140410 0.034171 -0.003397
-0.140410 0.032794 -0.000605
-0.131800 0.034725 -0.014082
-0.134440 0.035999 -0.011432
-0.131420 0.031845 -0.014131
-0.135040 0.032970 0.011460
-0.134830 0.035269 -0.011324
-0.133430 0.032405 0.013065
-0.135180 0.036081 0.010949
-0.133570 0.033392 -0.012600
-0.135140 0.032419 -0.011027
-0.135060 0.033940 0.011441
-0.135000 0.036377 -0.010569
-0.130990 0.032480 0.014448
-0.133780 0.033126 0.012722
-0.133140 0.033224 0.013357
-0.130530 0.033305 -0.014127
-0.132550 0.036153 -0.013214
-0.134440 0.035919 0.011789
-0.131910 0.032565 -0.014053
-0.132640 0.033824 -0.013525
-0.131280 0.036241 0.014083
-0.131890 0.031661 0.014380
-0.132570 0.031572 0.013929
-0.131800 0.033591 0.014412
-0.133990 0.035527 0.012415
-0.132780 0.034073 0.013727
-0.130590 0.033420 0.014451
-0.133120 0.031494 0.013380
-0.134290 0.032878 0.012212
-0.133250 0.031643 -0.012926
-0.135400 0.033428 -0.010764
-0.133140 0.036145 0.012928
-0.134290 0.034040 -0.011881
-0.132970 0.035234 0.013521
-0.134540 0.032540 -0.011631
-0.130820 0.034445 -0.014124
-0.133330 0.034125 0.013171
-0.133070 0.034373 -0.013100
-0.133700 0.034212 -0.012465
-0.134770 0.032139 0.011727
-0.133600 0.035791 -0.012380
-0.132240 0.036113 0.013830
-0.131260 0.034441 0.014453
-0.132630 0.032694 -0.013541
-0.133570 0.036477 0.012193
-0.135300 0.031611 0.011198
-0.133190 0.035313 -0.012958
-0.134880 0.033269 -0.011293
-0.132200 0.034751 0.014252
-0.135270 0.034298 -0.010898
-0.130480 0.036383 -0.013698
-0.131400 0.035954 -0.013935
-0.132750 0.032403 0.013744
-0.133530 0.035255 0.012951
-0.131920 0.033545 -0.014047
-0.133750 0.032542 -0.012424
-0.132050 0.032561 0.014322
-0.132580 0.034954 -0.013586
-0.134860 0.034969 0.011647
-0.134540 0.034358 0.011961
-0.131010 0.035330 0.014427
-0.132220 0.035694 -0.013775
-0.133860 0.034256 0.012643
-0.133960 0.032207 0.012541
-0.134190 0.034791 -0.011973
-0.131800 0.035581 0.014316
-0.134140 0.033211 -0.012031
-0.131180 0.032795 -0.014128
-0.134010 0.031711 -0.012165
-0.132450 0.033362 0.014051
-0.127730 0.032209 0.014448
-0.130160 0.035284 -0.014110
-0.126020 0.033748 0.014453
-0.127110 0.035933 -0.013943
-0.130270 0.035140 0.014448
-0.126030 0.035148 0.014449
-0.130140 0.032050 0.014447
-0.129300 0.032490 0.014449
-0.128220 0.031564 -0.014131
-0.127740 0.034463 -0.014123
-0.127120 0.033753 -0.014125
-0.128530 0.033834 -0.014125
-0.129450 0.035830 0.014292
-0.127850 0.036263 -0.013774
-0.130220 0.034320 0.014453
-0.128000 0.035543 -0.014064
-0.125900 0.032393 -0.014128
-0.126870 0.036129 0.014151
-0.127300 0.032869 0.014450
-0.126630 0.035213 -0.014115
-0.128170 0.033179 0.014451
-0.128680 0.034389 0.014454
-0.129290 0.033414 -0.014126
-0.129390 0.034670 0.014454
-0.128840 0.035883 -0.013958
-0.130420 0.032225 -0.014129
-0.126470 0.032978 0.014451
-0.130120 0.036481 0.013922
-0.130000 0.032920 0.014450
-0.127590 0.034419 0.014454
-0.128060 0.035559 0.014378
-0.129310 0.033330 0.014451
-0.129160 0.032244 -0.014129
-0.130060 0.034004 -0.014125
-0.126910 0.032219 0.014449
-0.128600 0.032764 -0.014128
-0.128630 0.034804 -0.014122
-0.127430 0.032933 -0.014127
-0.127070 0.035339 0.014425
-0.126310 0.033063 -0.014126
-0.129370 0.034494 -0.014123
-0.126100 0.034363 -0.014123
-0.126260 0.031698 0.014447
-0.127300 0.031543 -0.014130
-0.125480 0.036259 0.014072
-0.126170 0.036272 -0.013769
-0.126720 0.034279 0.014454
-0.128780 0.031879 0.014447
-0.126690 0.032373 -0.014128
-0.128490 0.036190 0.014114
-0.127940 0.032333 -0.014129
-0.129540 0.036183 -0.013821
-0.129910 0.032854 -0.014128
-0.125450 0.034448 0.014455
-0.125560 0.033202 -0.014126
-0.123720 0.034492 -0.014122
-0.124580 0.035032 -0.014121
-0.122770 0.035607 0.014363
-0.125410 0.035822 -0.013980
-0.122810 0.036420 -0.013673
-0.125170 0.035308 0.014431
-0.122060 0.033256 0.014452
-0.125120 0.033892 -0.014124
-0.122860 0.032217 0.014450
-0.120830 0.034316 0.014455
-0.122510 0.035491 -0.014074
-0.120450 0.034930 -0.014081
-0.122410 0.032181 -0.014128
-0.122180 0.034641 -0.014121
-0.122470 0.033967 0.014454
-0.121710 0.034146 0.014455
-0.121520 0.035500 -0.014072
-0.121030 0.033246 0.014453
-0.123680 0.032467 0.014450
-0.121000 0.032026 0.014449
-0.122120 0.033541 -0.014124
-0.125190 0.033538 0.014452
-0.124510 0.035941 -0.013936
-0.121310 0.031981 -0.014128
-0.123440 0.036288 0.014051
-0.123670 0.035292 -0.014109
-0.123780 0.033622 -0.014124
-0.125220 0.031902 -0.014129
-0.120850 0.034200 -0.014122
-0.121760 0.035026 0.014457
-0.124360 0.033807 0.014453
-0.123390 0.034007 0.014454
-0.124320 0.035628 0.014359
-0.124690 0.032702 -0.014127
-0.120530 0.035236 0.014432
-0.123200 0.032871 -0.014126
-0.124510 0.032668 0.014450
-0.123590 0.036041 -0.013894
-0.123270 0.035007 0.014457
-0.125430 0.032158 0.014449
-0.120810 0.036369 -0.013684
-0.125410 0.034782 -0.014122
-0.123290 0.032071 -0.014128
-0.121960 0.032206 0.014450
-0.124680 0.034668 0.014455
-0.121320 0.032771 -0.014126
-0.123370 0.033207 0.014452
-0.124180 0.032112 -0.014128
-0.121930 0.035847 0.014284
-0.121860 0.036380 -0.013697
-0.123020 0.033791 -0.014124
-0.120940 0.035906 0.014263
-0.118100 0.032860 0.012335
-0.116720 0.035049 -0.010636
-0.117550 0.031512 -0.011477
-0.116690 0.036418 -0.009960
-0.116010 0.033077 -0.009925
-0.119340 0.034298 0.013586
-0.119660 0.034788 -0.013571
-0.118430 0.034825 -0.012350
-0.118360 0.032190 0.012600
-0.115500 0.032496 0.009733
-0.119330 0.032327 -0.013250
-0.117330 0.032832 0.011569
-0.119450 0.036139 0.013248
-0.117570 0.034602 -0.011483
-0.117560 0.032051 0.011795
-0.118840 0.033076 -0.012762
-0.115980 0.034465 0.010226
-0.119060 0.033578 0.013301
-0.116780 0.032223 0.011021
-0.117600 0.033322 -0.011521
-0.116180 0.033634 0.010425
-0.116680 0.035173 0.010913
-0.119710 0.033247 0.013953
-0.117730 0.035151 0.011965
-0.116610 0.031569 -0.010529
-0.119400 0.032377 0.013641
-0.116740 0.033023 0.010981
-0.119760 0.036407 -0.013048
-0.116830 0.034303 0.011072
-0.117490 0.033612 0.011730
-0.116270 0.032654 0.010509
-0.119990 0.031536 0.014196
-0.116030 0.035947 -0.009675
-0.119990 0.032486 0.014200
-0.116240 0.032198 -0.010161
-0.116250 0.035775 0.010294
-0.120400 0.035680 -0.013953
-0.115680 0.035166 0.009918
-0.118420 0.033995 -0.012342
-0.117010 0.033190 -0.010932
-0.118120 0.033810 0.012360
-0.118550 0.035620 0.012665
-0.117350 0.035742 0.011402
-0.116790 0.035839 -0.010493
-0.115740 0.036345 -0.009071
-0.117550 0.035392 -0.011424
-0.117080 0.034071 -0.010996
-0.119780 0.032829 -0.013700
-0.115830 0.034137 -0.009752
-0.115510 0.033816 0.009751
-0.120180 0.036117 0.013928
-0.118570 0.036094 -0.012126
-0.118480 0.036451 0.012000
-0.119010 0.034246 -0.012925
-0.119600 0.031508 -0.013522
-0.118490 0.032185 -0.012409
-0.118490 0.034539 0.012731
-0.120340 0.033350 -0.014051
-0.117450 0.036141 -0.010966
-0.119160 0.035137 -0.013070
-0.117670 0.034331 0.011912
-0.115500 0.036137 0.009316
-0.119280 0.035188 0.013515
-0.118940 0.031988 0.013180
-0.116770 0.036365 0.010368
-0.115580 0.032046 -0.009505
-0.116450 0.033819 -0.010371
-0.119820 0.035437 0.014000
-0.120180 0.031890 -0.013990
-0.119160 0.035976 -0.012791
-0.118300 0.033004 -0.012220
-0.120140 0.034036 0.014295
-0.117640 0.032372 -0.011559
-0.117020 0.032270 -0.010940
-0.117990 0.036132 -0.011518
-0.115950 0.034897 -0.009861
-0.119700 0.035548 -0.013528
-0.119620 0.033558 -0.013542
-0.116010 0.031635 0.010243
-0.118790 0.032849 0.013032
-0.118920 0.031616 -0.012845
-0.111830 0.031646 -0.002336
-0.115430 0.035315 -0.009317
-0.112870 0.033718 -0.006790
-0.111830 0.033962 -0.000805
-0.111840 0.035103 -0.001184
-0.111840 0.031734 -0.001528
-0.111830 0.034765 -0.001946
-0.114900 0.032937 0.009143
-0.112030 0.035937 -0.002916
-0.112280 0.036224 -0.005519
-0.112140 0.033896 -0.006052
-0.114870 0.032434 -0.008789
-0.111840 0.034610 0.003872
-0.111840 0.031684 0.002347
-0.112140 0.032113 0.006366
-0.111990 0.034995 -0.005800
-0.111830 0.033041 -0.004253
-0.111840 0.032692 0.003023
-0.115000 0.035487 0.009159
-0.111840 0.034002 0.003010
-0.111830 0.031780 -0.004109
-0.111840 0.032987 0.004876
-0.113110 0.031928 -0.007035
-0.114440 0.035332 -0.008325
-0.114950 0.033697 0.009193
-0.111950 0.035722 -0.000720
-0.111840 0.031890 0.003634
-0.112370 0.032793 0.006613
-0.112180 0.036218 0.000554
-0.111830 0.033233 -0.005076
-0.112390 0.035163 0.006625
-0.112230 0.036175 0.005749
-0.114970 0.031527 0.009210
-0.111830 0.034856 0.001421
-0.114030 0.035009 0.008272
-0.113910 0.031921 -0.007831
-0.111830 0.034064 -0.001639
-0.112120 0.036142 -0.004734
-0.112890 0.036276 -0.006278
-0.112330 0.032856 -0.006254
-0.114320 0.032668 0.008558
-0.113940 0.032771 -0.007857
-0.112330 0.031536 -0.006257
-0.113140 0.034181 0.007379
-0.111930 0.035650 0.003605
-0.115180 0.034657 0.009420
-0.112320 0.036431 0.003327
-0.114440 0.034048 0.008677
-0.111840 0.034476 0.005158
-0.111830 0.032883 -0.001184
-0.111830 0.034499 -0.003689
-0.113260 0.032811 0.007501
-0.111920 0.033384 0.005963
-0.111850 0.031585 0.005681
-0.112790 0.033302 0.007034
-0.114930 0.033974 -0.008850
-0.112330 0.033703 0.006573
-0.111830 0.033875 0.001971
-0.111840 0.035220 -0.000037
-0.111830 0.033304 -0.001846
-0.111940 0.035687 0.004824
-0.114740 0.031693 -0.008658
-0.111840 0.031671 -0.000482
-0.111830 0.033510 -0.000125
-0.113820 0.033240 0.008064
-0.114520 0.035889 0.008506
-0.112010 0.035905 -0.001886
-0.113310 0.035831 0.007322
-0.111830 0.033811 -0.004180
-0.114960 0.036382 -0.008252
-0.111840 0.033777 0.004729
-0.112500 0.035287 -0.006397
-0.111840 0.032416 0.001429
-0.114350 0.036400 0.007931
-0.111830 0.033228 0.000601
-0.113130 0.032839 -0.007051
-0.111830 0.034542 -0.004573
-0.111830 0.034069 0.000439
-0.113420 0.034890 0.007660
-0.113010 0.036363 0.006624
-0.111840 0.033196 0.001407
-0.111830 0.034812 0.002969
-0.111930 0.035680 -0.003897
-0.112330 0.036448 0.004646
-0.114240 0.034392 -0.008155
-0.115410 0.033555 -0.009332
-0.111940 0.034524 0.006028
-0.111830 0.031558 -0.003171
-0.111830 0.034407 -0.002631
-0.111840 0.033249 0.003910
-0.113390 0.034639 -0.007302
-0.111830 0.032162 -0.004908
-0.113770 0.032420 0.008008
-0.111950 0.035384 0.005918
-0.111840 0.032428 0.000492
-0.113450 0.036138 -0.006967
-0.113780 0.033741 -0.007699
-0.111830 0.032327 -0.002823
-0.111830 0.033467 -0.002832
-0.111840 0.032218 0.004610
-0.111940 0.035677 0.001078
-0.111840 0.032475 0.005482
-0.113830 0.035730 0.007901
-0.112670 0.034537 -0.006581
-0.114540 0.033453 -0.008454
-0.111870 0.035382 -0.004875
-0.113190 0.035349 -0.007071
-0.112130 0.036135 0.001723
-0.113870 0.034189 0.008113
-0.111920 0.032464 -0.005659
-0.111840 0.032714 0.002239
-0.111830 0.032424 -0.001846
-0.111850 0.035244 0.002133
-0.111830 0.032740 -0.000207
-0.113750 0.035690 -0.007521
-0.114950 0.034824 -0.008865
-0.113080 0.031961 0.007315
-0.111850 0.035306 -0.002489
-0.111840 0.035168 -0.003306
-0.112000 0.035862 0.002824
-0.111840 0.033993 -0.005319
-0.111830 0.032879 -0.003463
-0.138790 0.038121 0.004127
-0.138810 0.037115 0.006346
-0.135590 0.037154 -0.009230
-0.137090 0.036949 0.008224
-0.139500 0.037080 0.000668
-0.136900 0.038686 -0.005987
-0.136990 0.038092 0.007238
-0.136480 0.038704 -0.005167
-0.139580 0.036963 -0.000431
-0.136960 0.038687 0.001332
-0.137620 0.038690 0.000359
-0.138470 0.038504 0.002809
-0.137920 0.038693 -0.000659
-0.138120 0.036929 -0.006914
-0.136570 0.037880 -0.007554
-0.136030 0.038679 0.004218
-0.136270 0.038673 0.006646
-0.138190 0.038641 0.003979
-0.139140 0.037622 -0.003905
-0.136800 0.038697 -0.002574
-0.137520 0.038704 -0.004913
-0.139560 0.036985 0.002572
-0.136730 0.038681 0.003805
-0.136920 0.038700 -0.003620
-0.138270 0.037815 0.006219
-0.136010 0.038687 0.001118
-0.136040 0.038698 -0.006691
-0.137150 0.037041 -0.007779
-0.138950 0.037873 0.003383
-0.138960 0.037879 -0.002887
-0.138570 0.038424 -0.001159
-0.139560 0.036968 0.005148
-0.139090 0.037676 0.002190
-0.135700 0.038703 -0.004858
-0.139890 0.036514 -0.004630
-0.138330 0.038602 -0.004113
-0.136660 0.038692 -0.000625
-0.137800 0.036972 0.007487
-0.136060 0.037969 0.008278
-0.136580 0.038678 0.004863
-0.135510 0.038695 -0.002080
-0.136300 0.037163 -0.008515
-0.139490 0.037081 0.004169
