ply
format ascii 1.0
element vertex 402
property float x
property float y
property float z
end_header
0.090890 -0.013597 0.001669
0.092826 -0.007845 0.010550
0.088277 -0.013902 0.005440
0.087414 -0.006406 0.014062
0.092802 -0.012801 -0.002945
0.091388 -0.007676 -0.011128
0.092937 -0.011135 0.006841
0.089804 -0.012800 -0.005983
0.093329 -0.012634 0.003269
0.089545 -0.009121 0.010861
0.092155 -0.011035 -0.007568
0.089636 -0.011493 0.008278
0.089932 -0.013913 -0.002174
0.093757 -0.008812 -0.009679
0.103010 -0.011592 0.004628
0.099927 -0.010745 0.006617
0.096232 -0.012649 -0.002459
0.101660 -0.009608 -0.008099
0.097076 -0.006111 0.011203
0.101470 -0.012419 -0.002016
0.097645 -0.010841 -0.006886
0.096247 -0.010402 0.007578
0.099757 -0.008112 -0.009858
0.098216 -0.008441 0.009501
0.100330 -0.011545 -0.005188
0.098290 -0.012650 0.002202
0.101610 -0.006085 -0.011004
0.101410 -0.012526 0.000966
0.094031 -0.013023 -0.000168
0.094654 -0.011613 -0.005809
0.096717 -0.008698 -0.009533
0.096358 -0.011960 0.004812
0.106500 -0.010519 -0.006325
0.107770 -0.006384 -0.010365
0.103560 -0.009588 0.008000
0.109280 -0.009746 -0.007255
0.112220 -0.010351 -0.005890
0.109260 -0.012093 -0.000239
0.112810 -0.008304 -0.008498
0.105170 -0.008243 -0.009259
0.107620 -0.011427 0.004213
0.112320 -0.011490 0.003048
0.108600 -0.007656 0.009366
0.104180 -0.006484 0.010519
0.105210 -0.012254 -0.001709
0.111490 -0.011579 -0.002949
0.112050 -0.007228 0.009475
0.108940 -0.009885 0.006949
0.108640 -0.011539 -0.003925
0.105200 -0.012248 0.002061
0.103990 -0.011682 -0.004443
0.112530 -0.011877 0.000139
0.114140 -0.010421 0.005542
0.119400 -0.007731 0.008774
0.122080 -0.010510 -0.005151
0.116070 -0.008458 -0.008199
0.117430 -0.011388 0.002923
0.117400 -0.010992 -0.004362
0.119360 -0.008061 -0.008565
0.122470 -0.008356 0.008147
0.116020 -0.011792 -0.000343
0.119850 -0.011559 -0.002047
0.114750 -0.005894 0.010157
0.122780 -0.008079 -0.008480
0.121400 -0.011440 0.002587
0.120190 -0.009728 0.006499
0.115640 -0.008144 0.008455
0.117130 -0.010318 0.005636
0.114390 -0.011191 -0.004000
0.126560 -0.008855 -0.007566
0.131250 -0.009312 0.006904
0.129060 -0.006787 -0.009433
0.124190 -0.010951 0.004042
0.127490 -0.011610 0.000580
0.130620 -0.011077 -0.003561
0.124700 -0.011703 -0.000820
0.127380 -0.010887 -0.004283
0.131960 -0.011605 -0.000417
0.131470 -0.008078 -0.008322
0.125910 -0.006644 -0.009572
0.129750 -0.009812 -0.006266
0.126090 -0.009391 0.006894
0.129230 -0.011057 0.003490
0.129560 -0.006766 0.009494
0.133190 -0.006613 0.009556
0.133360 -0.011022 0.003523
0.142250 -0.012291 0.001625
0.136410 -0.008886 -0.007442
0.135200 -0.008543 0.007833
0.133720 -0.009714 -0.006417
0.140740 -0.008712 0.007682
0.135150 -0.011545 0.001071
0.136530 -0.011371 -0.002234
0.140190 -0.010918 -0.004119
0.138330 -0.005888 0.009940
0.137620 -0.006685 -0.009462
0.139660 -0.010986 0.003648
0.141410 -0.011857 -0.001610
0.136870 -0.010599 0.004874
0.141220 -0.006522 0.009871
0.140350 -0.008666 -0.007680
0.142590 -0.011443 0.005012
0.139160 -0.011579 0.000278
0.137020 -0.010441 -0.005027
0.143400 -0.009100 -0.008479
0.143780 -0.011283 -0.005278
0.145660 -0.009033 0.008561
0.151120 -0.005802 -0.010013
0.150930 -0.011331 -0.002411
0.145390 -0.011797 0.003947
0.150730 -0.007368 0.008927
0.151310 -0.011502 0.002007
0.151190 -0.008853 -0.007474
0.153320 -0.010124 -0.004840
0.146810 -0.009709 -0.007817
0.147870 -0.005946 0.010887
0.150630 -0.010085 0.005697
0.147440 -0.010498 0.006654
0.147090 -0.012420 0.000845
0.145460 -0.007142 -0.010188
0.147570 -0.012281 -0.002114
0.148820 -0.010652 -0.005846
0.153910 -0.009769 -0.001746
0.153920 -0.007650 -0.006340
0.153900 -0.006797 -0.001392
0.153910 -0.007955 0.006232
0.153900 -0.008673 0.002895
0.089615 -0.004250 0.013495
0.092385 -0.005126 0.012159
0.091871 0.003836 -0.012804
0.086073 -0.003777 0.016090
0.089251 0.001713 -0.014336
0.092106 0.002965 0.012884
0.089315 0.003063 0.013951
0.090655 -0.000654 0.013686
0.093645 -0.001475 0.012944
0.095319 -0.005225 -0.011920
0.095621 0.003375 -0.012455
0.097990 -0.002397 -0.012628
0.097146 0.002885 0.012420
0.093670 -0.001574 -0.012973
0.103160 0.000756 0.012341
0.103300 -0.000982 -0.012400
0.100540 -0.001188 0.012578
0.100320 0.003902 0.011901
0.100280 -0.005396 0.011358
0.097580 0.000551 -0.012817
0.096746 -0.000681 0.012788
0.101250 0.001104 -0.012608
0.099900 0.003720 -0.012106
0.098389 -0.005253 -0.011712
0.098075 -0.003261 0.012266
0.110750 0.000350 -0.011993
0.105240 0.003671 -0.011778
0.112240 0.004131 -0.011212
0.108150 0.003971 -0.011525
0.104960 -0.002112 0.012096
0.111420 -0.005594 -0.010599
0.105020 -0.004556 -0.011499
0.110990 -0.002043 0.011736
0.107030 -0.001227 -0.012159
0.106800 0.002361 0.011968
0.109470 0.001012 0.011945
0.109860 -0.004903 0.010960
0.109150 -0.003808 -0.011465
0.106900 -0.004847 0.011192
0.117600 -0.000924 -0.011701
0.123320 0.000133 -0.011668
0.118870 0.001861 -0.011572
0.113960 -0.002066 0.011555
0.117680 0.002996 0.011275
0.114720 0.000047 -0.011779
0.117660 -0.005523 -0.010409
0.119940 -0.003710 -0.011110
0.121200 -0.000287 0.011646
0.117010 -0.001440 0.011658
0.114600 -0.005319 -0.010587
0.122740 -0.004854 0.010593
0.115890 0.003408 -0.011265
0.113520 -0.002704 -0.011526
0.114750 0.001261 0.011662
0.117670 -0.004294 0.010956
0.133090 -0.000552 0.011536
0.127600 0.003540 0.010977
0.127900 -0.002690 -0.011317
0.126920 -0.001892 0.011433
0.130580 0.003943 0.010814
0.124780 -0.003936 -0.010971
0.124130 0.000096 0.011594
0.129450 0.002333 -0.011321
0.124000 0.003084 0.011167
0.129460 0.000082 0.011529
0.133090 -0.003947 0.010918
0.126540 -0.005089 0.010416
0.132870 0.003557 -0.011021
0.125160 0.002941 -0.011244
0.126230 -0.000176 -0.011617
0.130800 -0.003623 -0.010986
0.129500 -0.004027 0.010920
0.140950 0.002840 -0.000872
0.140960 0.002780 -0.003969
0.138860 0.003114 -0.011117
0.140950 0.001928 0.010848
0.133380 -0.000754 -0.011526
0.138510 0.003758 0.010869
0.136730 -0.002004 0.011358
0.140960 -0.005140 -0.010195
0.138290 -0.001962 -0.011475
0.134170 0.002647 0.011213
0.134130 -0.005043 -0.010501
0.136460 0.000625 -0.011581
0.140210 -0.001065 0.011561
0.140950 -0.004221 -0.001817
0.140950 -0.001462 0.004095
0.140960 0.000296 -0.010591
0.140960 -0.005060 -0.006297
0.140950 -0.001944 -0.003850
0.140950 -0.000704 0.008590
0.140950 -0.002723 0.001047
0.141890 0.002796 -0.011801
0.143870 -0.005631 0.011050
0.147140 0.003108 -0.011997
0.150940 0.000728 0.011495
0.152600 0.004082 0.010739
0.144830 0.001637 0.012316
0.148130 0.003416 0.011882
0.149810 0.000468 -0.011587
0.146880 -0.002185 -0.012323
0.147740 -0.002013 0.012246
0.151690 -0.002543 -0.011307
0.143450 -0.001659 0.012324
0.143400 -0.004051 -0.011743
0.150640 -0.004191 0.010838
0.144370 0.000858 -0.012448
0.148210 -0.005355 -0.011311
0.151790 0.003268 -0.011075
0.153920 -0.001196 -0.009860
0.153910 0.001524 0.009818
0.153910 -0.004271 -0.008655
0.153900 0.001047 -0.002537
0.153900 -0.003390 0.003700
0.153900 -0.004149 -0.002824
0.153910 0.002742 -0.005770
0.153900 -0.002175 0.009416
0.153900 -0.000141 0.002318
0.153900 -0.004211 0.000682
0.153900 -0.004626 0.006880
0.153910 0.001949 -0.009305
0.153900 -0.001276 -0.000662
0.153900 0.003452 0.003524
0.153900 0.002817 -0.000004
0.153910 -0.001072 -0.006474
0.153900 0.000674 0.006163
0.153360 -0.005328 0.009794
0.089468 0.009458 0.010610
0.089536 0.014069 -0.001890
0.091570 0.010243 -0.008765
0.092828 0.011466 -0.006297
0.087671 0.010093 -0.011474
0.090398 0.013022 -0.004484
0.092478 0.006955 0.011082
0.090902 0.012481 0.005357
0.091441 0.006832 -0.011599
0.088070 0.012466 -0.008334
0.097057 0.012345 -0.003209
0.094095 0.012963 0.001054
0.102440 0.011602 -0.004477
0.100950 0.007754 -0.009894
0.098908 0.010836 -0.006516
0.100770 0.008340 0.009373
0.093762 0.012084 0.004765
0.097880 0.007525 -0.010365
0.094907 0.005326 0.011802
0.099665 0.012558 -0.000487
0.096792 0.011753 0.004998
0.093547 0.012726 -0.002712
0.096889 0.009023 0.008982
0.094870 0.006627 -0.011117
0.094730 0.010534 0.007538
0.100250 0.010709 0.006531
0.098254 0.012483 0.002125
0.099118 0.006406 0.010844
0.095949 0.009569 -0.008641
0.102140 0.012225 0.002187
0.101490 0.009962 -0.007600
0.107440 0.007527 -0.009558
0.112990 0.009701 -0.006683
0.105130 0.012095 -0.002340
0.110770 0.011883 -0.000277
0.108760 0.005121 0.010961
0.105870 0.006958 0.010008
0.111540 0.011374 -0.003325
0.106760 0.012155 0.000359
0.103480 0.010521 0.006462
0.108230 0.010007 0.006817
0.104340 0.009090 -0.008376
0.110490 0.011358 0.003699
0.108370 0.009597 -0.007381
0.103540 0.004556 0.011492
0.112400 0.008288 0.008381
0.106630 0.011504 0.004131
0.105260 0.010985 -0.005546
0.103630 0.006456 -0.010594
0.112370 0.005061 0.010739
0.112110 0.010129 0.006074
0.108620 0.011175 -0.004568
0.110620 0.007066 -0.009716
0.108860 0.007938 0.009078
0.118940 0.010250 -0.005593
0.115820 0.009489 0.006917
0.116780 0.006202 0.009871
0.119420 0.009313 0.007041
0.116320 0.009523 -0.006810
0.117210 0.011689 0.000631
0.117100 0.010849 0.004389
0.117640 0.006656 -0.009720
0.122510 0.009935 0.005986
0.113420 0.011497 0.002269
0.119770 0.011572 -0.001434
0.122510 0.004354 -0.010855
0.123120 0.007636 -0.008754
0.122050 0.007993 0.008422
0.120300 0.005550 0.010232
0.115220 0.011376 -0.002785
0.120860 0.011421 0.002092
0.113470 0.007745 -0.008850
0.122470 0.010104 -0.005737
0.120310 0.008725 -0.007801
0.132430 0.011295 -0.002347
0.129400 0.008295 0.007960
0.133250 0.009638 0.006317
0.132050 0.009671 -0.006208
0.131550 0.007322 -0.008898
0.124450 0.011590 0.000525
0.128490 0.010020 -0.005722
0.130060 0.010088 0.005487
0.125810 0.009068 0.007188
0.127030 0.011032 -0.003371
0.128710 0.006742 -0.009477
0.127560 0.011534 0.000130
0.125950 0.005701 -0.010096
0.130320 0.011192 0.002554
0.124900 0.006277 0.009705
0.126580 0.010706 0.004404
0.125380 0.009783 -0.006175
0.123570 0.011130 -0.003207
0.134700 0.005948 0.009823
0.137180 0.011510 0.000695
0.139240 0.009254 -0.006862
0.140950 0.005408 0.008284
0.136350 0.004960 -0.010403
0.142560 0.007778 0.009661
0.141490 0.008195 -0.008595
0.136880 0.009012 0.007153
0.140260 0.008900 0.007276
0.140960 0.008735 -0.004149
0.140950 0.009438 0.002201
0.137280 0.010920 0.003717
0.133680 0.011504 0.000531
0.140960 0.004853 -0.007604
0.135820 0.011203 -0.002638
0.140950 0.006860 0.004359
0.140950 0.006795 -0.001120
0.140640 0.011467 -0.000336
0.142070 0.011477 -0.004071
0.134700 0.007105 -0.009095
0.139220 0.011008 -0.003259
0.138250 0.006760 0.009313
0.135690 0.009783 -0.006028
0.141880 0.011185 0.004656
0.144110 0.010544 0.006445
0.144330 0.012228 0.001824
0.145840 0.006935 0.010223
0.152850 0.009543 -0.006204
0.143490 0.005681 -0.010993
0.150320 0.006050 -0.009822
0.151280 0.011245 0.002269
0.147770 0.008494 -0.008976
0.152310 0.008437 0.007781
0.150430 0.006086 0.009744
0.150630 0.008348 -0.007938
0.144620 0.012273 -0.001708
0.151190 0.011424 -0.001368
0.148190 0.010470 -0.006537
0.149170 0.009860 0.006371
0.148180 0.012145 -0.002492
0.143750 0.004593 0.011513
0.147460 0.011999 0.002844
0.144600 0.008187 -0.009262
0.150760 0.010688 -0.004271
0.148310 0.008279 0.009191
0.143490 0.010098 -0.007134
0.145360 0.011325 -0.005129
0.146890 0.005840 -0.010907
0.153900 0.004479 0.007174
0.153920 0.009759 -0.002106
0.153910 0.009684 0.002038
0.153910 0.008494 0.005227
0.153900 0.006599 0.001420
0.153910 0.005073 -0.003082
0.153910 0.006204 -0.006320
0.153570 0.005094 -0.009630
