ply
format ascii 1.0
element vertex 1678
property float x
property float y
property float z
end_header
-0.136840 -0.040191 0.049186
-0.137800 -0.044565 -0.047588
-0.133600 -0.043101 -0.051323
-0.129090 -0.039949 -0.053888
-0.123760 -0.040588 0.056228
-0.121770 -0.044348 -0.055839
-0.110850 -0.041338 0.056742
-0.105300 -0.040567 0.056736
-0.098292 -0.044475 0.056692
-0.093229 -0.042058 -0.056129
-0.087446 -0.044306 0.056695
-0.085961 -0.042514 -0.056132
-0.082461 -0.039920 0.056719
-0.080021 -0.042060 -0.056137
-0.075899 -0.043729 0.056725
-0.073581 -0.041308 -0.056144
-0.069135 -0.039803 0.056709
-0.062790 -0.044233 0.056688
-0.054322 -0.044554 -0.056111
-0.053880 -0.044450 0.056663
-0.046481 -0.040254 0.056696
-0.047491 -0.042163 -0.056159
-0.042918 -0.044431 0.056655
-0.036168 -0.044183 0.056670
-0.030667 -0.040910 -0.056174
-0.026464 -0.044486 -0.056134
-0.024218 -0.044506 0.056633
-0.016754 -0.044529 -0.056135
-0.014851 -0.041364 0.056678
-0.011528 -0.040380 -0.056188
-0.005915 -0.043402 -0.056183
-0.003830 -0.042438 0.056673
0.000132 -0.039882 -0.056197
0.014571 -0.043330 0.056664
0.013004 -0.042000 -0.056200
0.018283 -0.040851 -0.056206
0.018827 -0.039690 0.056650
0.025026 -0.043783 -0.056202
0.033146 -0.044557 -0.056162
0.031108 -0.040854 0.056646
0.035592 -0.044335 0.056603
0.040011 -0.039695 -0.056224
0.042202 -0.044277 0.056598
0.045645 -0.043224 -0.056218
0.048052 -0.044304 0.056594
0.053620 -0.042641 0.056636
0.052102 -0.040398 -0.056230
0.059901 -0.043370 0.056634
0.064572 -0.039907 -0.056240
0.067522 -0.044169 0.056591
0.074852 -0.040056 -0.056246
0.076120 -0.042411 0.056520
0.080306 -0.043796 -0.055589
0.089545 -0.040944 0.051917
0.095111 -0.042182 -0.046211
0.091517 -0.040642 -0.050072
0.094975 -0.044165 0.046813
-0.144430 -0.036437 -0.016448
-0.144430 -0.036524 -0.026233
-0.144220 -0.039317 0.033185
-0.144400 -0.038459 0.012961
-0.143250 -0.037886 -0.037959
-0.144420 -0.036004 -0.004080
-0.144430 -0.039335 -0.021195
-0.141490 -0.037389 0.042836
-0.144400 -0.036442 0.018376
-0.144330 -0.037509 -0.031709
-0.144410 -0.038875 0.006746
-0.139890 -0.036610 -0.044957
-0.144390 -0.038942 0.027025
-0.136450 -0.039063 -0.049001
-0.132330 -0.035699 -0.052234
-0.129020 -0.038492 0.054526
-0.122860 -0.036950 -0.055777
-0.119020 -0.037261 0.056715
-0.112350 -0.035627 0.056726
-0.112140 -0.037291 -0.056130
-0.105200 -0.039137 -0.056129
-0.104900 -0.035041 0.056720
-0.099452 -0.038076 -0.056136
-0.099163 -0.039057 0.056727
-0.090941 -0.036510 -0.056146
-0.090104 -0.037520 0.056717
-0.085066 -0.036150 -0.056151
-0.079242 -0.036232 -0.056155
-0.074332 -0.038036 0.056708
-0.073047 -0.034822 -0.056163
-0.064798 -0.036495 0.056697
-0.068433 -0.037908 -0.056157
-0.062646 -0.038951 -0.056158
-0.059053 -0.035798 0.056691
-0.052704 -0.037978 0.056693
-0.052828 -0.038881 -0.056165
-0.043580 -0.038352 -0.056172
-0.035480 -0.038391 -0.056178
-0.037894 -0.038330 0.056684
-0.026884 -0.038700 0.056678
-0.026483 -0.034968 -0.056193
-0.019761 -0.037426 -0.056191
-0.020833 -0.039340 0.056676
-0.015837 -0.035673 0.056662
-0.009584 -0.038562 0.056666
-0.004082 -0.036468 -0.056204
0.004056 -0.038379 0.056657
0.006538 -0.036693 -0.056210
0.013343 -0.035999 0.056644
0.012366 -0.034770 -0.056220
0.026719 -0.037303 -0.056222
0.026196 -0.038451 0.056642
0.032439 -0.037739 -0.056225
0.039316 -0.038478 0.056633
0.046565 -0.037543 0.056626
0.048397 -0.034947 -0.056243
0.055937 -0.035074 -0.056248
0.056704 -0.036780 0.056617
0.066422 -0.035180 0.056606
0.074074 -0.036652 0.056605
0.080330 -0.037604 -0.055599
0.081775 -0.038147 0.055584
0.086673 -0.039542 -0.053292
0.091341 -0.034827 -0.050258
0.091878 -0.034772 0.050108
-0.144410 -0.030925 0.008626
-0.142050 -0.031732 -0.041148
-0.144430 -0.031761 -0.012952
-0.144240 -0.030262 -0.032892
-0.143080 -0.030634 0.039068
-0.144440 -0.030715 -0.025208
-0.144400 -0.031961 0.022653
-0.144420 -0.030437 -0.005063
-0.144170 -0.030033 0.033825
-0.144420 -0.032846 0.002970
-0.144410 -0.030628 0.015072
-0.144400 -0.033560 0.029153
-0.135080 -0.033768 0.050876
-0.138800 -0.029860 -0.046543
-0.138970 -0.033993 0.046809
-0.135190 -0.031414 -0.050246
-0.130080 -0.033137 0.054021
-0.124970 -0.033859 0.055890
-0.119400 -0.031750 0.056670
-0.118000 -0.034010 -0.056135
-0.110450 -0.030268 -0.056151
-0.099124 -0.033454 0.056711
-0.083362 -0.033375 0.056701
-0.077441 -0.030551 -0.056172
-0.077281 -0.033388 0.056696
-0.069592 -0.033177 0.056691
-0.065252 -0.033438 -0.056172
-0.056317 -0.030101 -0.056187
-0.058367 -0.030255 0.056675
-0.051421 -0.033201 -0.056182
-0.047981 -0.032957 0.056676
-0.046105 -0.031478 -0.056190
-0.040026 -0.031962 -0.056193
-0.038732 -0.031210 0.056665
-0.031834 -0.034395 -0.056191
-0.032048 -0.034608 0.056670
-0.025072 -0.030436 0.056653
-0.019721 -0.031877 0.056654
-0.020227 -0.030909 -0.056209
-0.010141 -0.031820 0.056647
-0.012666 -0.032638 -0.056209
-0.007028 -0.030419 -0.056219
-0.002229 -0.034241 0.056649
0.005337 -0.030180 0.056632
0.000824 -0.032583 -0.056218
0.007142 -0.030388 -0.056229
0.018746 -0.034082 -0.056226
0.019149 -0.031925 0.056628
0.026219 -0.031757 0.056623
0.032099 -0.031650 0.056619
0.035283 -0.031288 -0.056245
0.040695 -0.033523 -0.056242
0.042091 -0.033765 0.056618
0.046557 -0.030247 0.056605
0.051360 -0.032753 0.056609
0.059837 -0.029972 0.056595
0.063835 -0.032831 -0.056260
0.070416 -0.034310 -0.056260
0.075308 -0.030444 0.056556
0.080379 -0.032198 0.055938
0.076743 -0.031245 -0.056109
0.081862 -0.029674 -0.055209
0.084757 -0.034277 -0.054199
0.087398 -0.032825 0.053315
0.095293 -0.032440 0.046349
-0.144430 -0.024880 -0.004855
-0.144440 -0.027237 -0.019264
-0.143770 -0.024824 0.036516
-0.144420 -0.025513 0.001029
-0.144430 -0.024979 -0.011496
-0.143720 -0.025490 -0.036302
-0.144410 -0.026459 0.019331
-0.140400 -0.028852 0.044756
-0.144410 -0.025512 0.029585
-0.141520 -0.025508 -0.042327
-0.132010 -0.027248 -0.052491
-0.132560 -0.026665 0.052634
-0.127080 -0.028922 -0.054753
-0.127310 -0.027141 0.055242
-0.119770 -0.026323 0.056625
-0.121820 -0.029159 -0.055891
-0.115060 -0.027282 -0.056156
-0.109930 -0.029167 0.056706
-0.105060 -0.029008 -0.056158
-0.101020 -0.025144 0.056689
-0.100370 -0.025687 -0.056171
-0.094586 -0.029537 -0.056163
-0.094847 -0.029003 0.056696
-0.086852 -0.025176 -0.056181
-0.086647 -0.026791 0.056684
-0.080310 -0.025390 -0.056185
-0.074210 -0.028952 0.056682
-0.067122 -0.026986 -0.056189
-0.061110 -0.027268 -0.056192
-0.064154 -0.027251 0.056670
-0.055791 -0.025273 0.056659
-0.046266 -0.027828 0.056660
-0.048997 -0.024717 -0.056208
-0.040108 -0.024702 0.056647
-0.038542 -0.026107 -0.056211
-0.031142 -0.025924 -0.056216
-0.030724 -0.029016 0.056653
-0.025609 -0.029187 -0.056210
-0.018573 -0.025441 -0.056226
-0.013777 -0.025429 0.056631
-0.013024 -0.024679 -0.056232
-0.001371 -0.027037 -0.056233
-0.004375 -0.028035 0.056633
0.011044 -0.026867 0.056619
0.017462 -0.025265 0.056610
0.015679 -0.027762 -0.056242
0.021971 -0.029654 -0.056241
0.026332 -0.025016 0.056603
0.028949 -0.026887 -0.056253
0.034207 -0.025365 -0.056261
0.034793 -0.026012 0.056601
0.040488 -0.026555 -0.056262
0.041116 -0.028344 0.056603
0.045352 -0.024894 0.056590
0.048691 -0.029205 -0.056260
0.055351 -0.028920 -0.056265
0.058786 -0.024742 -0.056279
0.055723 -0.025634 0.056586
0.064714 -0.027110 0.056584
0.064587 -0.025217 -0.056282
0.069880 -0.028130 -0.056277
0.070125 -0.027897 0.056583
0.075182 -0.025018 0.056551
0.080873 -0.026673 0.055782
0.087362 -0.027341 0.053319
0.087113 -0.028860 -0.053115
0.092929 -0.026467 0.049023
0.091563 -0.027524 -0.050051
-0.139780 -0.019987 -0.045186
-0.144420 -0.023537 0.013533
-0.144440 -0.020413 -0.019095
-0.144410 -0.019942 0.029616
-0.144450 -0.022747 -0.025565
-0.144420 -0.023194 0.007669
-0.141890 -0.023852 0.041971
-0.144410 -0.023838 0.024404
-0.144430 -0.020075 -0.002430
-0.144380 -0.023084 -0.031393
-0.138150 -0.022947 0.047847
-0.134980 -0.020365 -0.050431
-0.137750 -0.024276 -0.047752
-0.131930 -0.020655 0.053056
-0.124480 -0.023299 -0.055471
-0.122310 -0.021509 0.056392
-0.118950 -0.021349 -0.056167
-0.116760 -0.020774 0.056687
-0.108460 -0.022263 -0.056175
-0.108250 -0.021461 0.056683
-0.103310 -0.020446 -0.056184
-0.095431 -0.023185 0.056679
-0.095527 -0.022615 -0.056183
-0.090637 -0.019671 -0.056194
-0.079538 -0.024340 0.056672
-0.083184 -0.020678 -0.056196
-0.070604 -0.021637 -0.056202
-0.071936 -0.021827 0.056660
-0.066359 -0.021181 0.056654
-0.059906 -0.021231 0.056650
-0.063890 -0.022136 -0.056205
-0.056321 -0.022783 -0.056208
-0.043876 -0.021981 -0.056219
-0.035632 -0.021100 0.056634
-0.029402 -0.021170 0.056630
-0.024498 -0.020717 -0.056235
-0.020210 -0.023237 0.056629
-0.005066 -0.022592 -0.056243
0.001072 -0.024634 0.056619
0.002203 -0.021100 -0.056252
0.008245 -0.023437 -0.056250
0.008439 -0.022078 0.056607
0.017084 -0.022488 -0.056258
0.019437 -0.019699 0.056593
0.022986 -0.024192 -0.056257
0.036047 -0.019678 0.056582
0.042397 -0.019896 0.056578
0.045565 -0.023605 -0.056274
0.049508 -0.020419 0.056575
0.051436 -0.024246 -0.056276
0.058728 -0.020520 0.056569
0.055762 -0.020028 -0.056291
0.065538 -0.021086 0.056566
0.074976 -0.024667 -0.056281
0.071637 -0.019739 0.056558
0.078332 -0.020057 -0.056003
0.079818 -0.020841 0.056046
0.083106 -0.023925 -0.054893
0.087955 -0.021362 -0.052668
0.089966 -0.022482 0.051554
0.094791 -0.023008 -0.046692
-0.144450 -0.015656 -0.014597
-0.144420 -0.014974 0.023612
-0.144420 -0.019250 0.019307
-0.143380 -0.016197 -0.037648
-0.144430 -0.018046 0.003408
-0.144440 -0.019046 -0.009872
-0.144430 -0.018157 0.011065
-0.144450 -0.017859 -0.028071
-0.143700 -0.018632 0.036766
-0.141390 -0.017227 0.043034
-0.137610 -0.015108 0.048374
-0.130430 -0.018353 -0.053337
-0.125390 -0.016865 0.055731
-0.110940 -0.015106 0.056667
-0.114510 -0.016605 -0.056187
-0.099972 -0.016048 -0.056199
-0.102000 -0.018923 0.056672
-0.095674 -0.016936 0.056662
-0.087933 -0.018143 0.056660
-0.085384 -0.015691 -0.056209
-0.077352 -0.017630 0.056651
-0.075547 -0.018032 -0.056209
-0.066360 -0.014744 -0.056225
-0.069381 -0.015127 0.056639
-0.063881 -0.015811 0.056637
-0.053852 -0.019503 0.056641
-0.047089 -0.019519 0.056637
-0.048557 -0.019181 -0.056224
-0.042583 -0.015754 -0.056238
-0.038948 -0.014745 0.056618
-0.037090 -0.018407 -0.056234
-0.032118 -0.014795 0.056613
-0.028943 -0.015833 -0.056247
-0.020583 -0.015145 -0.056254
-0.020777 -0.015953 0.056609
-0.015194 -0.018631 0.056613
-0.014640 -0.018409 -0.056249
-0.009957 -0.016061 0.056602
-0.007023 -0.014980 -0.056264
-0.005283 -0.019592 0.056609
-0.001444 -0.014727 -0.056268
0.002254 -0.016360 0.056595
0.009988 -0.016701 -0.056270
0.011254 -0.017020 0.056591
0.016312 -0.015141 0.056582
0.019949 -0.017639 -0.056274
0.027331 -0.019054 -0.056275
0.028856 -0.018769 0.056584
0.034680 -0.018846 -0.056280
0.045412 -0.015093 0.056562
0.042390 -0.018833 -0.056285
0.049441 -0.019106 -0.056289
0.053963 -0.015605 0.056558
0.061773 -0.015973 0.056554
0.061090 -0.018683 -0.056298
0.069031 -0.019638 -0.056301
0.083830 -0.017699 -0.054669
0.080692 -0.014915 0.055798
0.085934 -0.018947 0.053956
0.092375 -0.018725 -0.049255
0.091170 -0.016461 0.050686
-0.144440 -0.014482 -0.003609
-0.144420 -0.010534 0.029615
-0.144240 -0.013305 -0.033121
-0.144430 -0.012928 0.013305
-0.144460 -0.010411 -0.026894
-0.144450 -0.010115 -0.020925
-0.144440 -0.012430 0.002079
-0.144450 -0.011599 -0.010372
-0.141230 -0.010950 0.043373
-0.144430 -0.012618 0.007616
-0.137960 -0.014416 -0.047582
-0.135760 -0.010053 0.050209
-0.133870 -0.012687 -0.051238
-0.130860 -0.014534 0.053608
-0.124880 -0.012920 -0.055395
-0.125420 -0.009761 0.055701
-0.119450 -0.011971 0.056613
-0.118400 -0.012457 -0.056197
-0.111170 -0.012274 -0.056202
-0.104570 -0.013883 0.056659
-0.103930 -0.012156 -0.056207
-0.098839 -0.011625 0.056649
-0.097764 -0.009780 -0.056218
-0.092427 -0.013545 -0.056211
-0.090089 -0.012933 0.056646
-0.084182 -0.012371 0.056641
-0.079874 -0.013189 -0.056220
-0.074451 -0.012687 0.056635
-0.073186 -0.012544 -0.056226
-0.066612 -0.010418 0.056624
-0.059922 -0.014647 -0.056229
-0.060738 -0.009906 0.056618
-0.056114 -0.013900 0.056627
-0.052629 -0.014073 -0.056236
-0.048034 -0.013545 0.056620
-0.042353 -0.009821 0.056606
-0.036796 -0.012395 -0.056251
-0.026419 -0.013573 0.056606
-0.021593 -0.010039 0.056592
-0.014961 -0.011738 0.056593
-0.011288 -0.010116 -0.056275
-0.002849 -0.013522 0.056590
0.002227 -0.009939 0.056576
0.004345 -0.013497 -0.056275
0.007349 -0.012233 0.056579
0.016125 -0.013815 -0.056282
0.025174 -0.012170 -0.056293
0.023972 -0.014528 0.056575
0.029739 -0.012161 0.056564
0.035221 -0.009871 -0.056306
0.039661 -0.014300 0.056564
0.041822 -0.010160 -0.056310
0.047075 -0.013086 -0.056305
0.053025 -0.013856 -0.056307
0.054297 -0.009734 0.056541
0.060377 -0.009802 0.056537
0.058575 -0.013880 -0.056310
0.065826 -0.014630 -0.056313
0.069327 -0.010031 0.056532
0.074422 -0.014599 0.056542
0.073885 -0.013258 -0.056322
0.089118 -0.013890 -0.051873
0.091874 -0.010886 0.050019
0.092937 -0.010168 -0.048715
-0.143300 -0.009466 0.038259
-0.144450 -0.008042 -0.015930
-0.140060 -0.005993 0.045210
-0.142620 -0.009194 -0.040041
-0.144130 -0.007334 -0.034492
-0.144440 -0.006333 -0.000157
-0.144440 -0.006816 0.007616
-0.144450 -0.008713 -0.005560
-0.144430 -0.006917 0.020614
-0.139490 -0.009497 -0.045645
-0.134390 -0.004945 -0.050906
-0.130990 -0.008861 0.053542
-0.129520 -0.007242 -0.053799
-0.113720 -0.006728 -0.056216
-0.112030 -0.009600 0.056652
-0.105870 -0.006820 0.056639
-0.102520 -0.006714 -0.056224
-0.099018 -0.004848 0.056629
-0.091675 -0.005100 0.056625
-0.094474 -0.004829 -0.056234
-0.089733 -0.007455 -0.056230
-0.086171 -0.005268 0.056622
-0.083419 -0.007763 -0.056233
-0.075230 -0.006913 -0.056241
-0.065485 -0.008827 -0.056242
-0.068897 -0.004751 0.056609
-0.055819 -0.007060 0.056607
-0.056560 -0.008626 -0.056249
-0.048958 -0.008781 -0.056253
-0.049155 -0.006450 0.056601
-0.043482 -0.007017 -0.056262
-0.034594 -0.008663 0.056597
-0.028546 -0.007004 0.056588
-0.028740 -0.008979 -0.056266
-0.018902 -0.006646 -0.056280
-0.016757 -0.005576 0.056576
-0.008934 -0.008699 0.056580
-0.001567 -0.006103 0.056568
-0.002070 -0.008892 -0.056284
0.012196 -0.009307 0.056568
0.011621 -0.009626 -0.056291
0.018206 -0.008605 0.056562
0.017950 -0.008600 -0.056298
0.024747 -0.005454 -0.056312
0.025473 -0.006316 0.056550
0.031232 -0.004970 0.056543
0.030847 -0.005692 -0.056315
0.036507 -0.009628 0.056553
0.042535 -0.008095 0.056544
0.048983 -0.006294 0.056535
0.050418 -0.006862 -0.056325
0.057459 -0.007853 -0.056327
0.064943 -0.005979 0.056523
0.069211 -0.009597 -0.056330
0.081391 -0.009347 -0.055387
0.081844 -0.008120 0.055468
0.088390 -0.005612 -0.052397
0.087523 -0.008592 0.053176
0.094517 -0.006153 0.047344
-0.144450 -0.001446 0.004972
-0.143210 -0.003004 0.038598
-0.143080 -0.003193 -0.038831
-0.144430 -0.003617 0.028832
-0.144450 -0.001975 -0.006099
-0.144460 -0.003043 -0.018558
-0.144430 -0.000639 0.023250
-0.144470 -0.003633 -0.029051
-0.144190 -0.001194 -0.033935
-0.144440 -0.001847 0.011469
-0.144440 -0.002015 0.017431
-0.144460 -0.002689 -0.011628
-0.138000 -0.001197 0.047955
-0.138090 -0.001118 -0.047500
-0.134030 -0.004620 0.051552
-0.127540 -0.004082 0.055116
-0.129510 -0.000286 -0.053825
-0.123340 -0.003272 -0.055834
-0.121440 -0.004536 0.056413
-0.115680 -0.004309 0.056639
-0.109970 -0.002331 0.056629
-0.107320 -0.001063 -0.056237
-0.103580 -0.001437 0.056622
-0.089781 -0.001030 -0.056248
-0.081371 -0.000828 -0.056255
-0.079878 -0.003915 0.056614
-0.072120 -0.000731 -0.056261
-0.074493 -0.003570 0.056609
-0.062110 -0.001794 0.056596
-0.062600 -0.003623 -0.056259
-0.056573 -0.001711 -0.056269
-0.050106 -0.002687 -0.056270
-0.042088 -0.000395 -0.056282
-0.043900 -0.003425 0.056588
-0.038188 -0.004659 0.056588
-0.035007 -0.001860 -0.056282
-0.028085 -0.003479 -0.056282
-0.022083 -0.000077 0.056564
-0.022488 -0.000815 -0.056294
-0.009851 -0.001837 0.056561
-0.010665 -0.004075 -0.056292
-0.003408 -0.001060 -0.056306
-0.002713 -0.000544 0.056553
0.004926 -0.004569 -0.056301
0.004982 -0.004667 0.056559
0.011265 -0.003444 -0.056309
0.011188 -0.000686 0.056544
0.015711 -0.003585 0.056549
0.021093 -0.001493 -0.056321
0.023108 -0.000962 0.056537
0.031471 0.000271 -0.056333
0.036876 -0.004242 -0.056324
0.037320 -0.003364 0.056534
0.046033 -0.001210 -0.056338
0.054669 -0.001568 0.056517
0.052811 -0.000041 -0.056346
0.064827 -0.000521 0.056508
0.060945 -0.003316 -0.056342
0.066785 -0.003923 -0.056344
0.073070 -0.003384 0.056510
0.073106 -0.004349 -0.056347
0.078686 -0.004511 -0.056015
0.085009 -0.003774 0.054333
0.083685 -0.002975 -0.054772
0.092088 -0.002497 -0.049579
0.090837 -0.003817 0.050880
-0.144460 0.002853 -0.015923
-0.143150 0.003009 0.038850
-0.144450 0.004350 0.011417
-0.144470 0.001996 -0.026944
-0.144450 0.001199 -0.000897
-0.144440 0.004128 0.020489
-0.143960 0.004412 -0.035590
-0.140660 0.003906 -0.044027
-0.144290 0.000534 0.032661
-0.144470 0.004608 -0.021349
-0.140440 0.002686 0.044655
-0.144450 0.004968 0.003358
-0.134840 0.002477 -0.050615
-0.129870 0.003864 0.054025
-0.124900 0.002794 -0.055439
-0.123510 0.001905 0.056186
-0.116920 0.003851 0.056616
-0.115100 0.002839 -0.056243
-0.106780 0.004887 0.056606
-0.109090 0.004751 -0.056252
-0.102400 0.003619 -0.056253
-0.097893 0.001923 0.056609
-0.096890 0.000653 -0.056248
-0.091260 0.001817 0.056605
-0.084826 0.003985 0.056594
-0.076512 0.003316 -0.056270
-0.079003 0.001852 0.056597
-0.068572 0.003640 0.056585
-0.064103 0.004450 -0.056281
-0.063102 0.004606 0.056578
-0.057865 0.003601 -0.056283
-0.057781 0.002477 0.056581
-0.051663 0.003032 -0.056285
-0.052772 0.000436 0.056583
-0.044713 0.002058 0.056573
-0.038734 0.000868 0.056573
-0.030524 0.000987 0.056567
-0.030321 0.002299 -0.056298
-0.014681 0.001926 -0.056307
-0.012757 0.003717 0.056547
-0.006537 0.003879 0.056543
-0.009150 0.001093 -0.056308
0.002815 0.001624 0.056543
0.002366 0.005312 -0.056328
0.007090 0.001566 -0.056320
0.015636 0.004901 -0.056336
0.017385 0.001878 0.056532
0.027975 0.002404 0.056524
0.027247 0.003864 -0.056340
0.033313 0.003425 0.056517
0.037200 0.001737 -0.056341
0.042636 0.001072 0.056518
0.048005 0.002053 0.056511
0.062698 0.003520 -0.056363
0.061973 0.004136 0.056496
0.069920 0.001585 -0.056362
0.069834 0.002585 0.056495
0.079645 0.001172 0.056023
0.077837 0.004931 -0.056115
0.084739 0.003435 -0.054296
0.085262 0.003128 0.054194
0.089323 0.001955 -0.051760
0.094664 0.003511 -0.046906
-0.140830 0.009467 -0.043801
-0.144460 0.009621 0.007010
-0.144480 0.007020 -0.029506
-0.144460 0.007068 -0.009848
-0.144450 0.008236 0.015399
-0.144400 0.006374 0.031534
-0.144460 0.006964 -0.001746
-0.139740 0.009413 0.045645
-0.144440 0.007810 0.025894
-0.142930 0.010044 0.039670
-0.137080 0.007169 -0.048542
-0.137030 0.005848 0.048914
-0.132620 0.009214 -0.052197
-0.128830 0.009995 0.054497
-0.127280 0.010269 -0.054823
-0.118380 0.008316 -0.056256
-0.111780 0.007104 0.056603
-0.104130 0.009449 -0.056269
-0.101740 0.009070 0.056591
-0.093402 0.006834 0.056592
-0.092686 0.008877 -0.056275
-0.087345 0.005591 -0.056269
-0.084345 0.009730 0.056578
-0.081345 0.005879 -0.056274
-0.076434 0.009803 0.056572
-0.077429 0.010005 -0.056288
-0.070458 0.007856 -0.056287
-0.060513 0.010110 0.056561
-0.054752 0.008254 0.056562
-0.049991 0.008821 -0.056303
-0.049341 0.005417 0.056567
-0.042325 0.006384 -0.056301
-0.044457 0.009349 0.056552
-0.035078 0.005359 0.056557
-0.034836 0.007225 -0.056309
-0.026396 0.006894 -0.056313
-0.025259 0.006239 0.056548
-0.018259 0.005737 0.056545
-0.018075 0.006132 -0.056317
-0.012089 0.009786 -0.056331
-0.005898 0.009330 -0.056334
-0.001099 0.006181 0.056532
0.004660 0.007279 0.056525
0.010149 0.007408 0.056521
0.008114 0.007177 -0.056337
0.018731 0.010080 -0.056353
0.019138 0.008690 0.056512
0.021916 0.005649 -0.056342
0.023901 0.006055 0.056516
0.031784 0.007685 -0.056354
0.038140 0.006842 0.056504
0.038881 0.010314 -0.056367
0.044600 0.007090 0.056499
0.046186 0.005751 -0.056358
0.055384 0.007002 -0.056368
0.050638 0.008368 0.056492
0.056338 0.008922 0.056486
0.062757 0.010143 0.056478
0.067224 0.007217 -0.056377
0.069627 0.009488 0.056476
0.074749 0.007740 0.056477
0.084394 0.008809 -0.054472
0.080959 0.007343 0.055654
0.089998 0.005618 0.051433
0.095319 0.009534 -0.045984
0.091787 0.008233 -0.049897
0.092522 0.010064 0.049289
-0.144450 0.013055 -0.031150
-0.143510 0.010734 -0.037323
-0.144480 0.012711 -0.025011
-0.144160 0.011422 0.034230
-0.144470 0.010403 -0.018984
-0.141220 0.015122 -0.043171
-0.144450 0.011337 0.020595
-0.144470 0.011281 -0.013667
-0.144470 0.011245 -0.006229
-0.138380 0.013012 -0.047270
-0.136460 0.011549 0.049467
-0.123080 0.013837 -0.055907
-0.123070 0.012137 0.056227
-0.116540 0.010743 0.056596
-0.112180 0.011563 -0.056270
-0.106380 0.013585 0.056581
-0.107210 0.014122 -0.056280
-0.096712 0.013147 -0.056284
-0.097598 0.013143 0.056577
-0.091818 0.014660 0.056569
-0.086685 0.011748 -0.056287
-0.079859 0.014591 0.056561
-0.068708 0.011504 0.056562
-0.067758 0.014654 -0.056308
-0.062214 0.014520 -0.056311
-0.057787 0.010910 -0.056304
-0.056238 0.015108 0.056544
-0.046778 0.014862 -0.056323
-0.049295 0.012918 0.056545
-0.039791 0.012444 -0.056320
-0.039244 0.011035 0.056544
-0.030342 0.013346 -0.056329
-0.033564 0.010792 0.056541
-0.028034 0.010950 0.056537
-0.023948 0.015172 0.056522
-0.021114 0.014887 -0.056340
-0.020944 0.010454 0.056533
-0.015064 0.010423 0.056530
-0.009534 0.011193 0.056524
0.002900 0.011165 -0.056345
0.000903 0.013455 0.056510
0.008107 0.014662 -0.056359
0.012999 0.012349 -0.056355
0.014395 0.011972 0.056505
0.022103 0.013359 0.056496
0.024488 0.013510 -0.056366
0.029175 0.011996 0.056496
0.032197 0.013894 -0.056372
0.035984 0.012787 0.056489
0.040832 0.015262 0.056478
0.043837 0.014716 -0.056383
0.049040 0.011566 -0.056377
0.046932 0.015263 0.056474
0.052422 0.014493 0.056473
0.059320 0.011161 -0.056383
0.072700 0.011195 -0.056392
0.071322 0.015008 0.056459
0.079471 0.010722 -0.055952
0.077944 0.013048 0.056200
0.084884 0.011428 0.054340
0.089978 0.015231 0.051416
0.086069 0.013906 -0.053701
-0.140920 0.016239 0.043957
-0.144460 0.015837 0.014274
-0.144470 0.016208 -0.000724
-0.144450 0.019560 0.030676
-0.143710 0.017772 0.036755
-0.144450 0.016716 0.025635
-0.144480 0.017869 -0.019561
-0.144460 0.016547 0.005581
-0.144470 0.016482 -0.009341
-0.144490 0.019142 -0.025451
-0.144470 0.018774 -0.030925
-0.134870 0.015774 -0.050642
-0.137790 0.018543 0.048138
-0.132490 0.017980 0.052576
-0.127290 0.015761 0.055139
-0.129400 0.020005 -0.053945
-0.123910 0.019875 0.056025
-0.118060 0.020302 0.056570
-0.118600 0.017737 -0.056283
-0.112680 0.017406 -0.056286
-0.113080 0.017093 0.056576
-0.106490 0.020231 -0.056298
-0.102140 0.015946 -0.056289
-0.098815 0.019130 0.056560
-0.090117 0.016834 -0.056299
-0.085287 0.016420 0.056559
-0.081867 0.015484 -0.056301
-0.078942 0.020318 -0.056317
-0.073924 0.016972 -0.056311
-0.073716 0.016441 0.056551
-0.068700 0.018725 0.056541
-0.061723 0.017521 0.056540
-0.052239 0.016709 -0.056324
-0.041511 0.017891 0.056526
-0.041107 0.018188 -0.056336
-0.035255 0.015730 -0.056333
-0.036319 0.015718 0.056528
-0.029032 0.018405 0.056516
-0.026236 0.016857 -0.056342
-0.016788 0.019039 -0.056355
-0.015713 0.019783 0.056503
-0.010686 0.017393 -0.056354
-0.004525 0.015692 -0.056353
-0.004830 0.016838 0.056504
0.004027 0.019898 0.056490
0.007021 0.015376 0.056501
0.008891 0.020128 -0.056375
0.018634 0.016720 -0.056371
0.015909 0.017575 0.056488
0.024318 0.019203 0.056478
0.024662 0.019425 -0.056383
0.031652 0.019360 -0.056388
0.033459 0.017910 0.056476
0.037825 0.016576 -0.056384
0.044286 0.020325 0.056462
0.055036 0.015463 -0.056392
0.058811 0.015874 0.056465
0.064231 0.015592 0.056462
0.062263 0.018682 -0.056406
0.068625 0.015910 -0.056402
0.075353 0.017911 -0.056366
0.079617 0.019018 0.055982
0.086093 0.019710 -0.053707
0.094122 0.018883 0.047652
0.091459 0.016188 -0.050238
-0.140730 0.022297 0.044219
-0.141510 0.022757 -0.042572
-0.144150 0.024408 0.034520
-0.144480 0.022731 -0.016024
-0.144460 0.020889 0.019773
-0.144480 0.022106 -0.004970
-0.144470 0.024879 0.010014
-0.144490 0.024671 -0.026635
-0.143560 0.020723 -0.037220
-0.135710 0.023695 0.050202
-0.138320 0.021641 -0.047355
-0.134110 0.022747 -0.051195
-0.129650 0.023702 0.054088
-0.123640 0.020716 -0.055833
-0.118820 0.024557 -0.056302
-0.112910 0.024175 -0.056305
-0.113120 0.023065 0.056559
-0.105340 0.021161 0.056559
-0.101410 0.024695 -0.056314
-0.096437 0.022374 -0.056311
-0.090909 0.021387 0.056549
-0.085036 0.020628 -0.056314
-0.077209 0.021069 0.056540
-0.061281 0.021077 -0.056331
-0.062800 0.024183 0.056522
-0.051962 0.023431 0.056517
-0.053003 0.024727 -0.056347
-0.045681 0.024564 -0.056351
-0.046692 0.021700 0.056518
-0.039243 0.024269 -0.056355
-0.034135 0.021851 0.056509
-0.033511 0.021977 -0.056352
-0.026742 0.023486 -0.056361
-0.021144 0.020705 0.056504
-0.021121 0.022313 -0.056361
-0.010793 0.024568 -0.056374
-0.008188 0.024755 0.056484
-0.001417 0.024068 0.056481
-0.000479 0.020514 -0.056370
0.013077 0.024402 -0.056390
0.018278 0.022837 -0.056389
0.016063 0.023976 0.056470
0.038716 0.020564 0.056465
0.036378 0.023312 -0.056402
0.042218 0.023259 -0.056406
0.048791 0.020379 -0.056402
0.051782 0.025126 0.056443
0.055139 0.022523 -0.056412
0.057044 0.023224 0.056445
0.063053 0.023374 0.056440
0.066489 0.022178 -0.056419
0.068036 0.020371 0.056446
0.074216 0.020456 0.056441
0.079440 0.021527 -0.055990
0.080241 0.024970 0.055794
0.086191 0.023798 0.053694
0.092574 0.021656 -0.049139
0.091270 0.022512 0.050474
-0.144360 0.028823 -0.032352
-0.144480 0.026349 -0.010132
-0.144460 0.026465 0.028425
-0.140840 0.030108 0.044047
-0.144470 0.025873 0.004090
-0.144480 0.028655 -0.004290
-0.144470 0.029282 0.021195
-0.143070 0.029457 0.039165
-0.144490 0.028624 -0.016720
-0.143450 0.026356 -0.037659
-0.137690 0.028730 0.048209
-0.137910 0.028642 -0.047800
-0.132020 0.028493 -0.052688
-0.127450 0.025457 -0.054824
-0.127300 0.030106 0.055098
-0.121250 0.029824 -0.056116
-0.118590 0.025896 0.056554
-0.110700 0.028746 0.056541
-0.107570 0.026293 -0.056315
-0.102560 0.028516 0.056536
-0.097494 0.025893 0.056540
-0.088949 0.029925 0.056523
-0.088828 0.025843 -0.056326
-0.084163 0.029904 -0.056341
-0.081273 0.025365 0.056531
-0.080265 0.025905 -0.056332
-0.074318 0.025869 0.056525
-0.073554 0.028004 -0.056342
-0.068360 0.026049 -0.056340
-0.066891 0.029439 0.056510
-0.063178 0.029338 -0.056353
-0.056412 0.026672 0.056511
-0.056912 0.028848 -0.056356
-0.044942 0.028090 0.056499
-0.039330 0.027053 0.056498
-0.028672 0.029005 0.056485
-0.026278 0.029398 -0.056378
-0.022579 0.026070 0.056490
-0.020337 0.028282 -0.056379
-0.015383 0.030010 0.056474
-0.001575 0.025981 -0.056385
0.004205 0.026477 -0.056390
0.009612 0.029192 -0.056401
0.010991 0.025812 0.056468
0.018073 0.028351 -0.056404
0.021768 0.028628 0.056453
0.029741 0.025845 0.056455
0.027975 0.026113 -0.056405
0.033173 0.028210 -0.056414
0.036720 0.026339 0.056449
0.042198 0.028532 0.056439
0.048305 0.026557 -0.056419
0.052351 0.030198 -0.056433
0.055938 0.029010 0.056429
0.063214 0.027172 -0.056431
0.062688 0.029162 0.056424
0.068818 0.028365 0.056422
0.070815 0.025720 -0.056432
0.074417 0.029429 0.056415
0.077851 0.030115 -0.056184
0.082876 0.026393 -0.055085
0.088568 0.026058 -0.052341
0.089813 0.030092 0.051473
0.094754 0.026206 0.046861
-0.144330 0.034569 -0.032807
-0.143110 0.032023 -0.038971
-0.144470 0.032905 0.014482
-0.144080 0.033115 0.035305
-0.144480 0.031176 0.007916
-0.144500 0.031069 -0.026085
-0.144500 0.034389 -0.019057
-0.144490 0.034971 -0.011377
-0.144480 0.032777 0.001303
-0.144490 0.034457 -0.005625
-0.136000 0.035135 0.049879
-0.139500 0.034747 -0.045814
-0.135750 0.033809 -0.049976
-0.132210 0.030479 0.052750
-0.127580 0.031713 -0.054811
-0.122270 0.033767 0.056244
-0.116410 0.031314 0.056537
-0.112930 0.032014 -0.056328
-0.102350 0.034618 0.056518
-0.101800 0.031165 -0.056333
-0.095912 0.032931 -0.056342
-0.094445 0.032956 0.056518
-0.090721 0.031296 -0.056340
-0.080566 0.032640 0.056510
-0.074999 0.035115 0.056499
-0.077650 0.034959 -0.056360
-0.070290 0.032347 -0.056357
-0.059927 0.033131 0.056494
-0.059516 0.034008 -0.056369
-0.053205 0.034794 -0.056375
-0.049733 0.031401 0.056493
-0.048105 0.032039 -0.056371
-0.044837 0.033756 0.056482
-0.038210 0.031009 -0.056375
-0.039387 0.033461 0.056480
-0.031871 0.032066 -0.056382
-0.033506 0.032277 0.056479
-0.023667 0.033487 0.056469
-0.016652 0.032821 -0.056394
-0.006984 0.031024 0.056465
-0.005721 0.031982 -0.056399
0.000199 0.032048 -0.056403
-0.001224 0.030414 0.056463
0.004696 0.030518 0.056459
0.009774 0.032761 0.056449
0.005618 0.033243 -0.056410
0.014079 0.032382 -0.056413
0.016862 0.034228 0.056440
0.022461 0.035294 0.056433
0.023259 0.031931 -0.056418
0.030708 0.033129 -0.056427
0.035964 0.032407 0.056432
0.041861 0.030540 -0.056427
0.047635 0.031939 0.056426
0.048177 0.034406 -0.056442
0.056012 0.034777 0.056412
0.061922 0.034863 0.056408
0.060939 0.032139 -0.056444
0.066958 0.032675 -0.056449
0.072388 0.032691 -0.056453
0.085101 0.031730 -0.054195
0.082585 0.030463 0.055147
0.092397 0.034794 0.049318
0.092413 0.032721 -0.049311
-0.144500 0.039917 -0.005717
-0.140830 0.036913 0.044057
-0.144480 0.036878 0.018982
-0.144510 0.039831 -0.021869
-0.144490 0.037567 0.004627
-0.144470 0.035446 0.025492
-0.144510 0.037444 -0.027675
-0.143420 0.038023 0.037870
-0.143380 0.037656 -0.037997
-0.144480 0.037133 0.010317
-0.129940 0.038924 -0.053757
-0.128050 0.035697 0.054802
-0.124540 0.038444 -0.055647
-0.119050 0.037878 -0.056333
-0.113100 0.037007 0.056519
-0.113270 0.037503 -0.056343
-0.107430 0.039779 -0.056354
-0.107770 0.039742 0.056507
-0.093958 0.038143 -0.056358
-0.093754 0.040096 0.056497
-0.086430 0.038424 0.056497
-0.084956 0.037442 -0.056362
-0.081148 0.039469 0.056490
-0.079221 0.040228 -0.056374
-0.069756 0.037981 0.056487
-0.072757 0.037304 -0.056370
-0.066193 0.035841 -0.056370
-0.057956 0.038572 0.056477
-0.052924 0.036588 0.056480
-0.047171 0.038480 -0.056390
-0.042033 0.039229 0.056465
-0.042184 0.035335 -0.056384
-0.031572 0.038689 0.056460
-0.025074 0.040296 0.056451
-0.022866 0.037025 -0.056402
-0.018910 0.036492 0.056457
-0.013072 0.038458 0.056448
-0.009867 0.037688 -0.056413
-0.000670 0.036980 0.056444
-0.002799 0.039875 -0.056424
0.002763 0.038270 -0.056423
0.004750 0.036536 0.056441
0.014163 0.037932 -0.056429
0.016957 0.039808 0.056424
0.021124 0.037319 -0.056432
0.026422 0.038844 -0.056440
0.028870 0.036650 0.056425
0.033717 0.039455 0.056414
0.037624 0.037276 -0.056443
0.039198 0.038520 0.056413
0.042995 0.036081 -0.056443
0.045997 0.039837 0.056405
0.056163 0.038084 -0.056458
0.068549 0.038080 0.056395
0.075060 0.036267 0.056385
0.071512 0.038690 -0.056470
0.076925 0.035686 -0.056280
0.083307 0.038231 0.054924
0.082433 0.038514 -0.055233
0.089005 0.038418 0.052010
0.092067 0.038170 -0.049667
-0.144500 0.042493 -0.010517
-0.141750 0.041545 -0.042169
-0.144340 0.040747 0.032496
-0.144440 0.043729 0.026489
-0.144450 0.043676 0.011301
-0.144460 0.043013 -0.031400
-0.140630 0.044654 0.044215
-0.144480 0.042002 0.016985
-0.143620 0.043960 0.037073
-0.144500 0.042588 -0.015980
-0.144440 0.043843 -0.000241
-0.137250 0.041572 -0.048510
-0.136680 0.041392 0.049192
-0.131750 0.045125 -0.052755
-0.130550 0.040841 0.053629
-0.124910 0.040533 0.055706
-0.126960 0.043764 -0.054955
-0.116050 0.043491 -0.056325
-0.119350 0.041060 0.056471
-0.105820 0.045031 -0.056201
-0.100580 0.041710 0.056497
-0.099956 0.041757 -0.056364
-0.094455 0.043703 -0.056322
-0.085162 0.043752 -0.056325
-0.087199 0.044073 0.056431
-0.077432 0.043963 0.056435
-0.072343 0.042905 -0.056386
-0.063220 0.040807 0.056475
-0.062055 0.043595 -0.056356
-0.055021 0.043722 -0.056351
-0.054334 0.043896 0.056430
-0.049162 0.043678 -0.056359
-0.047799 0.041803 0.056461
-0.040344 0.045307 -0.056227
-0.036938 0.043974 0.056408
-0.034910 0.041032 -0.056405
-0.030158 0.044120 0.056393
-0.027810 0.040570 -0.056409
-0.020812 0.042667 -0.056420
-0.014470 0.040763 -0.056418
-0.008013 0.043740 -0.056385
-0.005654 0.040365 0.056437
-0.000379 0.045050 0.056291
0.004972 0.044016 0.056380
0.007726 0.045096 -0.056282
0.013297 0.043591 -0.056414
0.010705 0.041212 0.056424
0.019017 0.043857 -0.056395
0.024196 0.040455 0.056417
0.032706 0.044531 -0.056348
0.038652 0.044040 0.056357
0.039308 0.042587 -0.056459
0.044591 0.045045 0.056261
0.046430 0.040734 -0.056459
0.050614 0.042862 0.056393
0.052079 0.041660 -0.056465
0.061473 0.043963 0.056352
0.064290 0.040692 -0.056471
0.067956 0.044916 -0.056343
0.072232 0.044263 0.056314
0.076008 0.043034 -0.056380
0.078324 0.042429 0.056076
0.088939 0.044458 0.051963
0.087803 0.040726 -0.052907
0.093212 0.044445 -0.048441
0.092940 0.041673 0.048748
-0.144190 0.046656 0.021723
-0.143510 0.049936 0.014657
-0.144170 0.046967 -0.005909
-0.142870 0.049308 -0.037268
-0.143920 0.048373 0.031082
-0.144130 0.047411 0.005945
-0.143660 0.049356 -0.030638
-0.143530 0.049847 -0.016684
-0.143730 0.049074 -0.024596
-0.139550 0.045578 -0.045580
-0.135780 0.048351 -0.049201
-0.135870 0.047504 0.049484
-0.128950 0.049082 0.053555
-0.124240 0.045963 0.055650
-0.120960 0.046757 -0.055871
-0.114660 0.048894 -0.055625
-0.116520 0.045853 0.056286
-0.110990 0.045738 0.056292
-0.108990 0.049380 -0.055501
-0.105810 0.050051 0.055506
-0.100130 0.048288 -0.055797
-0.098417 0.049729 0.055592
-0.092719 0.047536 0.056115
-0.088165 0.049982 -0.055360
-0.087912 0.050219 0.055454
-0.081420 0.049876 0.055541
-0.081893 0.048607 -0.055730
-0.075632 0.048893 -0.055662
-0.070526 0.045899 0.056255
-0.062667 0.049047 -0.055634
-0.064094 0.047635 0.056096
-0.058382 0.049130 0.055737
-0.053131 0.048856 -0.055692
-0.048307 0.048041 0.056024
-0.045330 0.047763 -0.055988
-0.041402 0.048228 0.055969
-0.034044 0.050244 0.055428
-0.032066 0.046986 -0.056092
-0.026255 0.046292 -0.056155
-0.028144 0.049430 0.055646
-0.024279 0.045706 0.056245
-0.014898 0.048925 -0.055709
-0.015370 0.046095 0.056208
-0.011124 0.050217 0.055423
-0.006481 0.046953 0.056119
-0.008148 0.049272 -0.055625
-0.002655 0.045796 -0.056215
0.002303 0.048452 -0.055850
0.008898 0.047989 0.056016
0.015722 0.048966 -0.055728
0.016119 0.046846 0.056114
0.024446 0.045463 -0.056264
0.021247 0.048950 0.055755
0.026751 0.045477 0.056231
0.032788 0.048073 0.055990
0.039685 0.050288 0.055379
0.045952 0.049386 -0.055645
0.049547 0.048709 0.055807
0.053011 0.050234 -0.055427
0.060134 0.047679 -0.056103
0.055898 0.047816 0.056005
0.062556 0.049652 0.055545
0.066790 0.046088 0.056153
0.076267 0.048776 0.055649
0.083380 0.045740 0.054703
0.085547 0.045761 -0.053809
0.095370 0.048535 0.045047
-0.143250 0.050885 0.000040
-0.140050 0.055097 -0.038545
-0.142070 0.053935 0.024016
-0.141590 0.054961 0.029660
-0.141490 0.051739 0.039241
-0.141500 0.055118 0.003969
-0.142730 0.052500 0.008616
-0.143200 0.051082 -0.011323
-0.141590 0.054924 -0.004440
-0.141440 0.055277 0.017790
-0.138690 0.050789 0.045226
-0.138760 0.052514 -0.043852
-0.130630 0.054203 -0.050555
-0.131920 0.053321 0.050454
-0.125070 0.050998 -0.054203
-0.123770 0.054227 0.053416
-0.119120 0.052653 -0.054449
-0.116790 0.051459 0.055130
-0.109090 0.054776 -0.053495
-0.109470 0.055162 0.053524
-0.104250 0.052328 -0.054633
-0.098593 0.054696 -0.053540
-0.092838 0.054242 -0.053761
-0.093581 0.053071 0.054510
-0.079350 0.053324 -0.054198
-0.073160 0.054380 0.053892
-0.073371 0.054241 -0.053779
-0.065110 0.053509 0.054289
-0.068461 0.050492 -0.055244
-0.061112 0.054354 -0.053741
-0.045620 0.053528 -0.054141
-0.049061 0.053166 0.054450
-0.039750 0.052373 -0.054684
-0.042808 0.053252 0.054415
-0.027562 0.054047 -0.053924
-0.024188 0.053351 0.054353
-0.022260 0.051309 -0.055071
-0.018508 0.053147 0.054449
-0.014432 0.055052 -0.053472
-0.008180 0.054765 0.053688
-0.000697 0.052196 0.054880
-0.001372 0.054935 -0.053543
0.009110 0.051541 -0.055038
0.014618 0.054170 -0.053914
0.017411 0.053712 0.054184
0.025380 0.052488 -0.054703
0.026525 0.051124 0.055165
0.030921 0.050982 -0.055208
0.036301 0.050738 -0.055277
0.052831 0.054007 0.054039
0.059511 0.054014 0.054035
0.064148 0.055201 -0.053494
0.068564 0.051496 0.055046
0.069981 0.050581 -0.055349
0.075099 0.052759 -0.054605
0.073761 0.053829 0.054116
0.079601 0.053444 0.053783
0.081992 0.050627 -0.054188
0.087594 0.050469 -0.051856
0.088291 0.051484 0.050943
0.094266 0.053488 -0.043989
0.095003 0.054056 0.042313
0.091906 0.050994 -0.048165
-0.140290 0.057176 0.009788
-0.140140 0.056917 0.034496
-0.140530 0.056774 -0.015023
-0.141380 0.055333 -0.025570
-0.140450 0.056910 -0.009553
-0.141140 0.055652 -0.032922
-0.138070 0.060185 0.026133
-0.138950 0.059018 -0.021267
-0.135470 0.058974 0.042415
-0.135910 0.059536 -0.040534
-0.138800 0.059282 -0.002362
-0.137950 0.060079 -0.031939
-0.138290 0.059947 0.020010
-0.134230 0.056351 -0.046339
-0.127910 0.057154 0.050341
-0.128920 0.058992 -0.048009
-0.122840 0.056276 -0.052280
-0.119710 0.057677 0.051914
-0.115050 0.055952 -0.052925
-0.109780 0.059693 0.050571
-0.104280 0.057094 0.052405
-0.104000 0.058418 -0.051229
-0.098800 0.056631 0.052733
-0.090179 0.060216 -0.049805
-0.087377 0.056632 0.052735
-0.081423 0.057217 0.052320
-0.083853 0.056674 -0.052468
-0.075465 0.058607 -0.051136
-0.072926 0.059840 0.050476
-0.067768 0.057141 -0.052166
-0.067815 0.058069 0.051718
-0.061529 0.057646 0.052025
-0.054541 0.056386 0.052914
-0.054546 0.056403 -0.052699
-0.042305 0.058404 0.051490
-0.039045 0.060207 -0.049891
-0.035243 0.056743 -0.052489
-0.033912 0.056436 0.052870
-0.028325 0.059756 -0.050358
-0.027405 0.057880 0.051852
-0.020466 0.058715 0.051265
-0.022803 0.056936 -0.052370
-0.017614 0.058935 -0.050981
-0.012177 0.059283 0.050868
-0.004897 0.059440 0.050762
-0.008513 0.057151 -0.052242
0.002226 0.058404 -0.051378
0.010286 0.058132 -0.051579
0.006329 0.055488 0.053346
0.013387 0.057053 0.052437
0.019474 0.059195 0.050927
0.024278 0.055886 0.053153
0.020577 0.056649 -0.052625
0.033977 0.056352 -0.052851
0.032286 0.057361 0.052223
0.039547 0.056879 -0.052494
0.042167 0.056583 0.052779
0.048936 0.057278 0.052283
0.048387 0.056026 -0.053091
0.055083 0.059610 0.050642
0.056456 0.057176 -0.052313
0.064095 0.059799 -0.050474
0.063443 0.059349 0.050827
0.068637 0.056640 0.052731
0.071096 0.057993 -0.051762
0.075284 0.058762 0.051191
0.080596 0.058767 -0.050319
0.090024 0.056204 0.046838
0.086380 0.055633 -0.049945
0.087278 0.060057 -0.045631
0.085721 0.059521 0.047282
0.094813 0.059332 0.006082
0.092128 0.058622 0.041823
0.095412 0.058348 -0.027247
0.095099 0.059018 0.028913
0.092453 0.059137 -0.040301
0.093976 0.059634 -0.035062
-0.136180 0.061829 0.033952
-0.135780 0.062425 0.000811
-0.136360 0.061814 -0.013077
-0.136720 0.061502 0.007375
-0.137020 0.061169 -0.007712
-0.137750 0.060478 0.013300
-0.134400 0.063441 -0.028863
-0.132930 0.064589 0.022480
-0.132140 0.065102 0.005592
-0.134250 0.062942 -0.035418
-0.132000 0.065175 -0.007184
-0.132170 0.063866 0.038291
-0.134470 0.063503 0.017419
-0.133060 0.064477 0.011102
-0.130990 0.060577 0.045363
-0.133190 0.064310 -0.022516
-0.129200 0.062403 -0.043825
-0.124740 0.061510 0.047726
-0.123010 0.060535 -0.048932
-0.123830 0.063946 -0.044642
-0.118480 0.063648 -0.045939
-0.119140 0.063452 0.046587
-0.115370 0.060366 0.049943
-0.113390 0.060563 -0.049420
-0.111920 0.063251 0.046913
-0.107710 0.061813 -0.048184
-0.104790 0.063318 0.046838
-0.101690 0.062150 -0.047861
-0.096310 0.062065 -0.047957
-0.098852 0.062347 0.047957
-0.095405 0.065130 0.044236
-0.093045 0.061445 0.048865
-0.089149 0.064381 -0.044966
-0.088227 0.063195 0.047027
-0.084488 0.061264 -0.048770
-0.081720 0.063520 0.046552
-0.074718 0.065088 -0.043993
-0.078136 0.062183 -0.047867
-0.071758 0.061859 -0.048200
-0.074456 0.063577 0.046477
-0.062400 0.060514 -0.049553
-0.064174 0.061674 0.048645
-0.059626 0.064390 -0.045013
-0.056992 0.061482 0.048831
-0.056271 0.060761 -0.049316
-0.050686 0.060616 -0.049464
-0.050348 0.060790 0.049539
-0.045817 0.062517 -0.047589
-0.043833 0.063140 0.047138
-0.037479 0.060564 0.049771
-0.031552 0.062295 0.048032
-0.033546 0.061787 -0.048329
-0.028076 0.063920 -0.045748
-0.024421 0.061824 0.048508
-0.018866 0.063929 -0.045744
-0.016347 0.065170 0.044243
-0.016511 0.061772 0.048563
-0.011746 0.062250 -0.047912
-0.003095 0.060654 -0.049505
-0.003056 0.064578 -0.044853
0.002520 0.061213 0.049132
0.001844 0.062625 -0.047561
0.002703 0.064950 0.044571
0.009123 0.065145 0.044287
0.008294 0.062210 -0.047985
0.009721 0.060901 0.049448
0.015039 0.061754 0.048592
0.016214 0.061707 -0.048492
0.025321 0.060577 0.049779
0.021596 0.063455 0.046733
0.021714 0.062846 -0.047367
0.030487 0.062946 0.047399
0.027285 0.060424 -0.049794
0.025984 0.064898 -0.044473
0.033064 0.061834 -0.048398
0.034104 0.065208 -0.044045
0.035938 0.062882 0.047465
0.038484 0.062341 -0.047905
0.040911 0.061052 0.049307
0.044844 0.064124 -0.045604
0.047925 0.060916 -0.049330
0.048975 0.064000 0.045973
0.054944 0.062438 -0.047830
0.057985 0.064109 0.045827
0.058044 0.065292 -0.043970
0.063944 0.063892 -0.045970
0.067118 0.062594 0.047765
0.074758 0.062851 0.047499
0.074924 0.062498 -0.047793
0.080231 0.060361 0.049103
0.081945 0.063371 0.044983
0.081055 0.062679 -0.046220
0.089490 0.064199 -0.021212
0.086974 0.063067 0.041853
0.086539 0.064919 -0.037585
0.090152 0.063895 0.025932
0.090173 0.063444 -0.033690
0.089571 0.064247 0.009587
0.090116 0.063740 -0.027970
0.091826 0.062460 -0.000844
0.092087 0.062152 -0.013961
0.092158 0.062086 0.032652
0.092912 0.061454 0.021386
0.092392 0.061873 -0.006744
-0.131640 0.065504 0.030514
-0.131360 0.065506 -0.017590
-0.131080 0.065682 -0.001828
-0.128160 0.066988 -0.025172
-0.126760 0.066520 0.037815
-0.127550 0.067279 -0.010923
-0.126880 0.066576 -0.036711
-0.128420 0.066956 0.009148
-0.128500 0.066931 0.014617
-0.127460 0.067338 0.002540
-0.125550 0.067907 0.022539
-0.128890 0.066631 -0.030667
-0.119800 0.068808 0.024205
-0.119580 0.068687 -0.024980
-0.121100 0.068595 -0.011156
-0.123850 0.068297 -0.002704
-0.122760 0.068490 0.005136
-0.122740 0.068561 0.029873
-0.123950 0.068202 -0.028696
-0.122880 0.068505 0.013921
-0.123880 0.068243 -0.018022
-0.122620 0.065628 0.042651
-0.119630 0.068802 0.018734
-0.114910 0.068890 0.026790
-0.115010 0.066103 -0.041877
-0.118090 0.068560 0.034933
-0.116670 0.068830 0.006422
-0.118090 0.068803 -0.002497
-0.116840 0.067136 0.040162
-0.115560 0.068791 -0.007516
-0.118750 0.067954 -0.036670
-0.115750 0.068754 -0.020463
-0.115510 0.068849 0.012819
-0.112260 0.068782 -0.011985
-0.113960 0.068664 -0.031561
-0.113550 0.068873 0.020493
-0.112860 0.068740 -0.026261
-0.113490 0.068820 0.001751
-0.110710 0.067861 -0.037049
-0.110890 0.068843 0.008956
-0.112290 0.068808 0.032019
-0.105930 0.068641 -0.032001
-0.106960 0.068796 -0.008888
-0.108820 0.068815 -0.001733
-0.108540 0.068771 -0.017087
-0.108300 0.067997 0.037357
-0.108690 0.065919 -0.042275
-0.105270 0.067523 -0.038322
-0.107470 0.068755 -0.023143
-0.105410 0.068849 0.009277
-0.106880 0.068904 0.028977
-0.109000 0.068860 0.014336
-0.108260 0.068887 0.023339
-0.106350 0.066084 0.042452
-0.099614 0.068885 0.019677
-0.103450 0.068866 0.014424
-0.102140 0.068828 0.031975
-0.101140 0.068788 -0.013792
-0.101100 0.068828 0.000246
-0.100470 0.067232 0.039982
-0.101950 0.068759 -0.023655
-0.099944 0.068855 0.009312
-0.100240 0.068904 0.026439
-0.101190 0.068811 -0.005654
-0.101440 0.065614 -0.042942
-0.095571 0.067432 -0.038700
-0.097093 0.068803 -0.009846
-0.099027 0.068689 -0.031451
-0.094807 0.068864 0.031633
-0.095201 0.068784 -0.017350
-0.096429 0.068842 0.003411
-0.094903 0.068881 0.016703
-0.095725 0.068764 -0.023991
-0.094223 0.068866 0.010960
-0.090048 0.068698 -0.031457
-0.091614 0.068805 -0.011078
-0.090169 0.068919 0.028230
-0.093878 0.068031 0.037265
-0.093178 0.068900 0.022615
-0.089562 0.067964 -0.036780
-0.093424 0.068825 -0.003612
-0.085986 0.068913 0.024566
-0.088953 0.068892 0.018423
-0.086863 0.068789 -0.018243
-0.088713 0.068842 0.000940
-0.089367 0.068765 -0.025976
-0.088068 0.068215 0.036572
-0.085685 0.068822 -0.007211
-0.086223 0.068876 0.011751
-0.085511 0.066334 -0.041453
-0.089178 0.066379 0.041848
-0.089298 0.068860 0.007313
-0.083099 0.068886 0.031482
-0.083610 0.068859 0.005065
-0.082055 0.068624 -0.032399
-0.082184 0.068894 0.016674
-0.082772 0.068843 -0.000832
-0.080396 0.067346 -0.039103
-0.084095 0.068774 -0.024555
-0.080040 0.068926 0.026950
-0.080468 0.068822 -0.009012
-0.080710 0.068877 0.010034
-0.078862 0.068807 -0.014799
-0.075564 0.068792 -0.021408
-0.079017 0.067502 0.039321
-0.078683 0.068776 -0.025958
-0.075646 0.068455 -0.034369
-0.078723 0.068910 0.020837
-0.077035 0.068854 0.000834
-0.075230 0.068840 -0.004798
-0.077989 0.068678 0.034012
-0.071699 0.068713 0.033674
-0.074487 0.068880 0.008899
-0.073328 0.068897 0.014435
-0.073550 0.068815 -0.013889
-0.072649 0.068919 0.022104
-0.070472 0.068936 0.027232
-0.072645 0.067384 -0.038978
-0.072079 0.068868 0.004053
-0.071456 0.067579 0.039050
-0.066333 0.068810 -0.018290
-0.065401 0.068630 -0.032557
-0.068518 0.065506 -0.043280
-0.068996 0.068845 -0.005076
-0.069330 0.065375 0.043898
-0.064801 0.068071 0.037220
-0.069175 0.068783 -0.026635
-0.067138 0.068927 0.022788
-0.066836 0.068868 0.002280
-0.067088 0.068905 0.014982
-0.066111 0.068893 0.031590
-0.067299 0.068826 -0.012443
-0.061068 0.068836 -0.010899
-0.064081 0.068886 0.007393
-0.059967 0.068800 -0.023931
-0.061059 0.068920 0.018257
-0.063641 0.065451 0.043804
-0.060955 0.067821 -0.037432
-0.062225 0.068854 -0.004435
-0.061926 0.068903 0.012719
-0.057905 0.068795 0.032845
-0.056687 0.066760 0.041058
-0.054806 0.068919 0.015675
-0.056656 0.068824 -0.016841
-0.059345 0.068874 0.001676
-0.057773 0.068947 0.026513
-0.059005 0.068719 -0.031627
-0.058467 0.068891 0.007218
-0.056491 0.068850 -0.007843
-0.051400 0.066479 -0.041246
-0.052368 0.068426 -0.034986
-0.051888 0.068909 0.011013
-0.054091 0.068870 -0.001796
-0.054251 0.068808 -0.023178
-0.053344 0.068891 0.005338
-0.050627 0.068213 0.036700
-0.050650 0.068945 0.023356
-0.052225 0.068838 -0.013317
-0.049011 0.068823 -0.019965
-0.045911 0.068846 -0.012889
-0.049379 0.068859 -0.007053
-0.044731 0.068506 -0.034133
-0.049177 0.068798 -0.028537
-0.046635 0.068887 0.001786
-0.046017 0.068932 0.017258
-0.045652 0.065781 -0.042754
-0.049299 0.068962 0.028669
-0.048207 0.065685 0.043399
-0.040354 0.067791 -0.037624
-0.043223 0.068832 -0.018713
-0.043578 0.068809 -0.026488
-0.043896 0.068906 0.007297
-0.043962 0.068963 0.027173
-0.043704 0.068869 -0.005764
-0.041232 0.068924 0.012676
-0.042876 0.068597 0.035294
-0.040518 0.068942 0.018756
-0.040539 0.066070 0.042574
-0.037398 0.068817 -0.026205
-0.036290 0.068980 0.030528
-0.036331 0.068742 -0.031705
-0.034971 0.068933 0.013572
-0.034997 0.068952 0.020126
-0.039418 0.068901 0.004055
-0.034670 0.066305 0.042090
-0.036631 0.068845 -0.016640
-0.038316 0.065859 -0.042604
-0.035771 0.068890 -0.001303
-0.038287 0.068862 -0.009994
-0.032617 0.068868 -0.009790
-0.033456 0.068409 0.036027
-0.031816 0.068915 0.006361
-0.031051 0.068853 -0.015655
-0.032125 0.068833 -0.022416
-0.032414 0.067839 -0.037497
-0.032796 0.065894 -0.042550
-0.029809 0.068910 0.031753
-0.029440 0.068901 0.000402
-0.025049 0.068866 -0.013406
-0.026307 0.068830 -0.025584
-0.026195 0.067623 -0.038321
-0.025206 0.068476 0.035787
-0.029275 0.068966 0.023236
-0.028871 0.068760 -0.031568
-0.028015 0.068882 -0.006550
-0.029321 0.068940 0.014026
-0.028469 0.066083 0.042565
-0.020357 0.068966 0.020064
-0.022269 0.066089 0.042575
-0.023384 0.068848 -0.020186
-0.022866 0.068883 -0.008204
-0.024000 0.068906 0.000407
-0.020909 0.068958 0.031346
-0.023566 0.068925 0.006639
-0.024300 0.068951 0.016043
-0.019515 0.067488 -0.038827
-0.021633 0.068981 0.025660
-0.021209 0.068827 -0.028135
-0.015279 0.068836 -0.027337
-0.019473 0.068594 -0.033533
-0.019268 0.068919 0.003136
-0.017464 0.068896 -0.005532
-0.017888 0.068876 -0.012164
-0.015754 0.068984 0.024458
-0.019181 0.068950 0.013967
-0.017803 0.068858 -0.018767
-0.015594 0.068940 0.009088
-0.010095 0.068986 0.023387
-0.011852 0.068910 -0.002686
-0.014436 0.066627 -0.041045
-0.012668 0.068831 0.032906
