ply
format ascii 1.0
element vertex 153
property float x
property float y
property float z
end_header
0.117530 -0.016735 -0.006467
0.118910 -0.016925 0.002284
0.123890 -0.017623 0.001419
0.124440 -0.017486 -0.003033
0.133680 -0.017363 0.000403
0.136300 -0.017132 -0.003480
0.138630 -0.017374 0.004205
0.139480 -0.017865 -0.000152
0.140660 -0.016708 -0.005460
0.144100 -0.017467 0.000314
0.143180 -0.017011 0.004575
0.148060 -0.016697 0.003254
0.122190 -0.013455 -0.005666
0.119990 -0.015921 -0.002886
0.118750 -0.011765 -0.011708
0.118630 -0.012595 0.011614
0.125950 -0.014828 -0.009569
0.125250 -0.015807 0.008647
0.127660 -0.014697 -0.000870
0.127960 -0.011659 0.009345
0.129030 -0.015204 0.003285
0.132900 -0.015910 0.006757
0.130090 -0.016308 -0.004391
0.133690 -0.015139 -0.008116
0.135690 -0.011680 0.013367
0.136880 -0.015283 0.009259
0.140000 -0.012947 0.012610
0.141970 -0.015561 0.008613
0.139260 -0.014596 -0.009851
0.146650 -0.012704 -0.011117
0.144940 -0.016579 -0.004671
0.149590 -0.014926 -0.005265
0.149570 -0.012242 0.002667
0.149580 -0.015157 -0.000585
0.148350 -0.012505 0.011850
0.149560 -0.014653 0.007074
0.123300 -0.011344 0.009743
0.124520 -0.009111 0.015773
0.124680 -0.010001 -0.014421
0.129060 -0.009385 -0.012736
0.129020 -0.008238 0.013395
0.133250 -0.007699 -0.015089
0.134090 -0.011340 -0.012736
0.136440 -0.006743 0.016525
0.138870 -0.008570 -0.015326
0.141220 -0.011505 -0.013020
0.140660 -0.009321 0.015477
0.144500 -0.007588 -0.015219
0.146310 -0.009339 0.014771
0.149590 -0.006823 -0.005488
0.149580 -0.008765 -0.001098
0.149600 -0.009419 -0.009455
0.149570 -0.009693 0.008637
0.149560 -0.007395 0.012359
0.119160 -0.004159 -0.015412
0.123930 -0.001671 -0.015165
0.124370 -0.005897 -0.016494
0.123870 -0.004586 0.017443
0.132410 -0.003358 -0.016491
0.132970 -0.003767 0.017178
0.138830 -0.004372 -0.016993
0.140180 -0.004608 0.017621
0.145140 -0.005668 0.016668
0.143130 -0.002622 -0.016884
0.149570 -0.002618 0.010268
0.149610 -0.005939 -0.015119
0.149560 -0.004834 0.016268
0.149570 -0.005606 0.005270
0.149590 -0.003579 -0.002237
0.149600 -0.005087 -0.010829
0.119260 0.001176 0.016369
0.118870 0.002568 -0.015747
0.126970 -0.001200 0.016123
0.125230 0.002711 0.017951
0.126530 0.001959 -0.017387
0.128910 -0.001258 -0.014381
0.132240 0.001406 -0.016739
0.132290 0.001105 0.017470
0.136820 0.000585 -0.017300
0.136430 0.003206 0.017620
0.140520 -0.000191 0.018183
0.147810 -0.000694 -0.016656
0.147450 -0.001068 0.017385
0.149590 0.001600 -0.000739
0.149580 0.001705 0.008636
0.149610 -0.000240 -0.010329
0.149570 0.001611 0.013501
0.149600 0.000327 -0.004818
0.149580 -0.000528 0.004669
0.120070 0.007653 -0.013554
0.120160 0.006777 0.014525
0.127030 0.008223 -0.015326
0.123760 0.004436 -0.013836
0.124400 0.007049 0.016712
0.131140 0.006656 0.016008
0.132300 0.006029 -0.015705
0.141130 0.005450 0.017195
0.140490 0.003773 -0.017003
0.145340 0.004499 -0.016410
0.149590 0.003797 0.003657
0.149620 0.005850 -0.015313
0.149600 0.006124 -0.001406
0.149610 0.004253 -0.010762
0.149570 0.007068 0.013655
0.147930 0.003982 0.016961
0.121470 0.011434 -0.009551
0.122750 0.010628 0.010770
0.124940 0.012466 -0.012586
0.126580 0.013119 0.012546
0.126980 0.008813 0.013113
0.131300 0.013156 0.011201
0.132220 0.011905 -0.012109
0.136510 0.010082 -0.014043
0.135690 0.008922 0.015526
0.140630 0.008705 -0.015189
0.138680 0.013058 -0.011833
0.140000 0.009845 0.015188
0.142980 0.011681 -0.012694
0.145690 0.008467 0.015474
0.147600 0.009389 -0.013874
0.149580 0.009095 0.009399
0.149590 0.009342 0.004990
0.149620 0.012636 -0.010298
0.149270 0.013274 0.010744
0.149610 0.012405 -0.004761
0.149610 0.008419 -0.007716
0.149600 0.010320 -0.000277
0.120320 0.013619 0.008670
0.119950 0.014705 -0.006615
0.121820 0.014450 0.004185
0.126810 0.014977 -0.009460
0.123930 0.017537 -0.001544
0.127000 0.015249 0.008523
0.125980 0.017496 0.004194
0.123930 0.015238 -0.005243
0.129370 0.016911 0.001135
0.132660 0.016569 0.005270
0.129560 0.016463 -0.004010
0.133870 0.017368 0.001062
0.136030 0.016895 -0.004623
0.137890 0.016818 0.006019
0.135180 0.015039 -0.008674
0.134950 0.015305 0.008885
0.141090 0.016836 -0.005153
0.141330 0.017659 0.001433
0.139100 0.014209 0.011107
0.147450 0.016278 -0.004829
0.143120 0.016845 0.005342
0.145340 0.017322 -0.000126
0.143440 0.013454 0.011452
0.144960 0.015011 -0.008446
0.149600 0.014611 0.000595
0.149120 0.016131 0.005507
