ply
format ascii 1.0
element vertex 1773
property float x
property float y
property float z
end_header
0.217520 0.350440 0.008250
0.243630 0.266350 0.031668
0.158440 0.241000 0.018963
0.195590 0.273130 0.002919
0.099073 0.297330 0.017853
0.195230 0.391300 0.019848
0.225690 0.339460 0.008912
0.244870 0.302980 0.018375
0.205180 0.258530 0.010524
0.140490 0.323680 0.002530
0.216720 0.333200 0.005133
0.108250 0.358700 0.019130
0.238680 0.362720 0.022764
0.225690 0.374830 0.023409
0.228160 0.308480 0.005706
0.140110 0.363180 0.007761
0.205580 0.246380 0.018325
0.175520 0.337750 0.001527
0.136780 0.305800 0.000348
0.225310 0.261490 0.020141
0.180220 0.274600 0.003611
0.133940 0.348230 0.002861
0.195690 0.283500 0.003324
0.082112 0.319540 0.030782
0.124280 0.288090 0.006899
0.227440 0.295460 0.009216
0.152220 0.280870 0.003241
0.247360 0.303770 0.020204
0.229370 0.348680 0.010702
0.132510 0.319050 0.003098
0.083765 0.323980 0.030806
0.213830 0.318390 0.001366
0.192010 0.391440 0.021475
0.134080 0.338070 0.001419
0.122520 0.332940 0.003516
0.194120 0.352410 0.001460
0.254740 0.281400 0.033784
0.194410 0.245300 0.017898
0.198900 0.276140 0.005009
0.152300 0.392320 0.021661
0.192070 0.241620 0.020352
0.236650 0.303510 0.012827
0.107980 0.314760 0.010719
0.244010 0.361930 0.029831
0.231620 0.334580 0.008637
0.164330 0.249810 0.010085
0.207070 0.247390 0.020524
0.132450 0.235520 0.033029
0.102040 0.309880 0.011775
0.224380 0.348570 0.008237
0.220580 0.291160 0.004952
0.129990 0.325360 0.001198
0.212650 0.246060 0.024225
0.119980 0.367790 0.016831
0.140140 0.238540 0.025529
0.234080 0.331350 0.011847
0.251520 0.301040 0.022335
0.220480 0.351060 0.009552
0.119140 0.307990 0.006158
0.132020 0.265550 0.008405
0.138290 0.342250 0.003563
0.224580 0.243150 0.034412
0.225170 0.299010 0.007880
0.211900 0.241530 0.025809
0.160690 0.249720 0.010352
0.189510 0.367100 0.004561
0.168340 0.270540 0.001893
0.132910 0.365820 0.010413
0.218240 0.341770 0.004410
0.220330 0.386690 0.029491
0.244800 0.360340 0.027429
0.196480 0.402140 0.034684
0.113990 0.264240 0.017675
0.239890 0.299610 0.015478
0.197860 0.364960 0.007601
0.243850 0.290440 0.020256
0.192430 0.257390 0.010253
0.243990 0.330720 0.018104
0.252060 0.329530 0.022563
0.224670 0.320640 0.006703
0.108050 0.374190 0.029047
0.141900 0.377860 0.011395
0.143470 0.241120 0.019931
0.200330 0.257020 0.012206
0.110450 0.339890 0.011602
0.178870 0.233450 0.022974
0.216310 0.290580 0.006096
0.188370 0.321780 0.000195
0.192160 0.375700 0.008560
0.102020 0.274530 0.020926
0.221860 0.313220 0.003420
0.132600 0.290560 0.004413
0.150100 0.297840 0.000218
0.157800 0.270590 0.004680
0.147240 0.350310 0.003553
0.234150 0.323350 0.008514
0.217490 0.345620 0.004916
0.194970 0.335770 0.000062
0.156180 0.287570 0.000110
0.244180 0.340250 0.020316
0.085191 0.330190 0.027673
0.188490 0.278810 0.003390
0.211390 0.395140 0.031005
0.176170 0.390580 0.018346
0.186210 0.272300 0.004431
0.158640 0.270570 0.002249
0.187550 0.269060 0.005348
0.185860 0.377730 0.008725
0.203940 0.239610 0.025443
0.201100 0.313750 0.002412
0.218080 0.271370 0.011701
0.173700 0.402990 0.028570
0.228310 0.374870 0.022957
0.206870 0.250170 0.018437
0.238470 0.289140 0.014095
0.132020 0.378860 0.015409
0.103150 0.304170 0.011546
0.214890 0.238760 0.033023
0.117770 0.247760 0.029017
0.254170 0.315220 0.026281
0.178890 0.279080 0.002947
0.180010 0.263420 0.006418
0.221750 0.253280 0.023153
0.115700 0.377140 0.025278
0.183260 0.316860 0.000197
0.222640 0.269540 0.014405
0.165000 0.253830 0.010257
0.173820 0.357670 0.003560
0.225810 0.381670 0.028694
0.214780 0.346000 0.004082
0.180620 0.238820 0.017903
0.120930 0.350830 0.009670
0.149420 0.338010 0.000082
0.095026 0.361580 0.032763
0.104570 0.307150 0.012617
0.241550 0.301750 0.013890
0.231070 0.382900 0.034624
0.171100 0.236250 0.020237
0.204210 0.335530 0.000704
0.216370 0.245620 0.026576
0.176780 0.327460 0.001520
0.222360 0.387000 0.031138
0.162830 0.245570 0.015079
0.141500 0.236440 0.025165
0.102450 0.351930 0.020486
0.148900 0.358180 0.002451
0.089832 0.349010 0.028203
0.256390 0.308430 0.028827
0.111060 0.309770 0.009201
0.210370 0.286300 0.005184
0.205440 0.280740 0.002892
0.228780 0.368080 0.020953
0.096796 0.360430 0.027647
0.138290 0.309380 0.002624
0.154380 0.357880 0.001833
0.158490 0.311120 0.000217
0.159410 0.352010 0.000627
0.123970 0.254280 0.020045
0.124390 0.258420 0.015008
0.112140 0.262290 0.020060
0.204390 0.321360 0.002612
0.244640 0.300570 0.018714
0.124310 0.349480 0.005698
0.247750 0.314450 0.020106
0.135570 0.241120 0.022959
0.140930 0.342210 0.003301
0.108930 0.276320 0.014969
0.083025 0.332950 0.031481
0.191270 0.259440 0.009141
0.107460 0.364460 0.019901
0.117840 0.242560 0.032784
0.157780 0.342880 0.000237
0.230560 0.309560 0.009106
0.196550 0.253760 0.010417
0.231420 0.251480 0.030177
0.231520 0.297800 0.008493
0.122600 0.341550 0.007081
0.134880 0.341060 0.001596
0.126570 0.253420 0.017260
0.194460 0.259580 0.009522
0.144430 0.378280 0.010858
0.118800 0.377240 0.023197
0.108210 0.289640 0.013250
0.149200 0.260650 0.008756
0.185890 0.266620 0.003558
0.131570 0.348600 0.003459
0.215740 0.376380 0.018435
0.218650 0.287010 0.007482
0.164760 0.314360 0.001524
0.231130 0.283420 0.011475
0.154440 0.370130 0.007881
0.102600 0.336560 0.015831
0.169570 0.247900 0.013560
0.201630 0.381150 0.016258
0.197290 0.372950 0.010588
0.246880 0.346120 0.021874
0.179410 0.344910 0.001756
0.243240 0.280020 0.021208
0.136800 0.317400 0.002681
0.190920 0.231840 0.027494
0.169870 0.326790 0.001526
0.157800 0.356470 0.001334
0.157590 0.377890 0.008594
0.221920 0.250410 0.022963
0.206560 0.354200 0.006233
0.095359 0.283860 0.024333
0.134710 0.383050 0.017322
0.213180 0.255620 0.017199
0.213320 0.308750 0.003732
0.241290 0.340540 0.018057
0.239670 0.279920 0.020648
0.229340 0.330010 0.009333
0.154440 0.395560 0.021887
0.126970 0.298300 0.002286
0.139560 0.288960 0.001067
0.150940 0.240970 0.020614
0.170980 0.266490 0.002930
0.214900 0.314100 0.003991
0.123610 0.311720 0.004749
0.196680 0.381200 0.012417
0.169760 0.274430 0.003473
0.094793 0.289170 0.021029
0.154110 0.299140 0.000215
0.126980 0.289160 0.005946
0.127200 0.392140 0.031889
0.192870 0.247460 0.013773
0.239080 0.316450 0.011365
0.116940 0.311330 0.006788
0.183960 0.400980 0.026690
0.150670 0.311270 0.001536
0.120490 0.268000 0.014510
0.142380 0.244730 0.019449
0.194100 0.364620 0.006748
0.142540 0.383340 0.014424
0.227030 0.347830 0.011591
0.123870 0.377860 0.020412
0.140130 0.381200 0.016297
0.219470 0.247450 0.026535
0.210640 0.262860 0.012254
0.223890 0.248820 0.025827
0.228420 0.385550 0.034643
0.209780 0.301330 0.003446
0.231300 0.323090 0.009469
0.194770 0.357330 0.004877
0.140420 0.230930 0.034586
0.202080 0.260200 0.008763
0.172900 0.395840 0.020650
0.234370 0.286070 0.014783
0.130920 0.250730 0.017382
0.105840 0.283700 0.014262
0.126620 0.352550 0.005740
0.085112 0.314630 0.029130
0.104420 0.343930 0.013695
0.115900 0.318760 0.004832
0.256280 0.339430 0.030548
0.188020 0.249650 0.013807
0.187360 0.396830 0.023106
0.091325 0.277660 0.031989
0.129210 0.236030 0.034632
0.233120 0.302950 0.008598
0.152570 0.385180 0.016113
0.176560 0.346450 0.000076
0.106980 0.272320 0.020301
0.253540 0.293300 0.029019
0.120000 0.332030 0.006566
0.245020 0.323150 0.015513
0.138660 0.241890 0.023080
0.128440 0.261530 0.011499
0.123920 0.321880 0.002301
0.143930 0.374990 0.011660
0.114270 0.283590 0.009566
0.198930 0.243010 0.018399
0.207510 0.297400 0.003393
0.229790 0.356440 0.015812
0.117260 0.386340 0.031807
0.184470 0.352090 0.003100
0.205940 0.232250 0.032497
0.234120 0.353160 0.014979
0.219890 0.311580 0.005200
0.093450 0.361770 0.034736
0.239910 0.364700 0.025060
0.208860 0.254580 0.013988
0.098727 0.260740 0.033079
0.120720 0.257080 0.020230
0.090305 0.306420 0.023507
0.220790 0.244150 0.028427
0.161110 0.319560 0.000220
0.143260 0.301340 0.000089
0.092021 0.340500 0.023171
0.124070 0.389470 0.028601
0.153460 0.294980 0.000213
0.098523 0.370510 0.032467
0.214680 0.281310 0.007323
0.146330 0.291540 0.000276
0.191550 0.280670 0.003376
0.193040 0.372760 0.007272
0.222920 0.309150 0.003742
0.146220 0.355990 0.004717
0.174370 0.232840 0.025937
0.178020 0.403120 0.028758
0.195350 0.385830 0.017671
0.163510 0.371050 0.004926
0.180660 0.402060 0.027378
0.240230 0.373680 0.032370
0.187850 0.354580 0.003586
0.144190 0.313530 0.001543
0.166180 0.397190 0.024282
0.222140 0.298560 0.006774
0.134990 0.232640 0.034680
0.233330 0.277530 0.014835
0.144660 0.297450 0.000127
0.177260 0.335060 0.000214
0.184840 0.400970 0.029220
0.129080 0.264120 0.010140
0.210330 0.345450 0.002818
0.250810 0.292820 0.026143
0.135820 0.254080 0.015600
0.229520 0.293010 0.008152
0.145360 0.238720 0.021729
0.206680 0.395130 0.030067
0.128930 0.266700 0.011469
0.100870 0.288910 0.015890
0.170490 0.349160 0.000214
0.168350 0.284670 0.000061
0.241770 0.328430 0.016097
0.107360 0.369880 0.023796
0.255350 0.295350 0.028242
0.135060 0.384880 0.020820
0.176090 0.377580 0.010140
0.196090 0.280720 0.003771
0.109060 0.329750 0.008570
0.190400 0.389680 0.017390
0.147790 0.358690 0.005131
0.178990 0.253990 0.010176
0.170100 0.270030 0.004393
0.167130 0.315640 0.001523
0.124790 0.319190 0.004495
0.108730 0.284710 0.012123
0.101780 0.295100 0.016390
0.090931 0.280930 0.030243
0.169040 0.394700 0.021840
0.106850 0.277070 0.016096
0.143220 0.245550 0.016293
0.104740 0.355600 0.020369
0.097682 0.333410 0.016447
0.155710 0.399810 0.026005
0.092041 0.329760 0.020400
0.172200 0.303090 0.001510
0.189560 0.233040 0.025751
0.164380 0.249430 0.012657
0.105740 0.313220 0.009567
0.105420 0.305390 0.010050
0.120390 0.247270 0.025546
0.252320 0.277040 0.032828
0.111010 0.250820 0.030149
0.188330 0.351300 0.003222
0.101370 0.323140 0.014556
0.114250 0.347590 0.011791
0.125230 0.373510 0.017067
0.153590 0.242510 0.016479
0.156870 0.348420 0.002743
0.189990 0.241030 0.018076
0.125160 0.245690 0.026656
0.239910 0.293400 0.016631
0.215460 0.366830 0.011011
0.093007 0.299300 0.020161
0.217040 0.287060 0.004552
0.193650 0.229530 0.031455
0.192860 0.271360 0.002973
0.254310 0.285320 0.030409
0.165180 0.358440 0.003724
0.153290 0.367760 0.007095
0.234620 0.302610 0.011805
0.249830 0.287450 0.024365
0.194350 0.377440 0.012166
0.203010 0.377280 0.014376
0.236380 0.342490 0.015000
0.238540 0.375170 0.034434
0.225420 0.344330 0.007636
0.227040 0.302660 0.008217
0.246290 0.313730 0.016568
0.220070 0.300040 0.005983
0.121200 0.319440 0.003063
0.137350 0.231690 0.034669
0.205060 0.256310 0.011629
0.108170 0.271820 0.017333
0.222070 0.263380 0.017194
0.181100 0.265710 0.005831
0.110560 0.305000 0.009820
0.217640 0.362680 0.012524
0.254800 0.289840 0.031719
0.253870 0.352010 0.034616
0.142470 0.385960 0.018634
0.210790 0.376780 0.014487
0.175760 0.291200 0.000189
0.094445 0.325500 0.017453
0.256170 0.337240 0.031902
0.133740 0.267270 0.007240
0.192320 0.338910 0.000086
0.097470 0.365340 0.032443
0.172810 0.230550 0.028573
0.104830 0.348040 0.017238
0.087688 0.279890 0.034748
0.185770 0.277840 0.000947
0.099480 0.352800 0.023264
0.129920 0.273720 0.008674
0.169740 0.389770 0.017670
0.132780 0.383780 0.020974
0.256700 0.342400 0.032143
0.121980 0.293870 0.006555
0.135250 0.284290 0.002404
0.237690 0.332660 0.011777
0.120030 0.331260 0.004120
0.252910 0.287500 0.027803
0.193850 0.257820 0.007875
0.189400 0.237500 0.023402
0.243370 0.276850 0.022870
0.239730 0.288860 0.017331
0.093916 0.293120 0.023168
0.233570 0.380390 0.034627
0.202520 0.305100 0.002580
0.222860 0.272700 0.013141
0.207400 0.372400 0.010808
0.205650 0.254200 0.013085
0.130960 0.387070 0.024568
0.130460 0.373150 0.012448
0.145320 0.242840 0.020333
0.090349 0.353920 0.033051
0.096034 0.344860 0.020465
0.103910 0.260200 0.030240
0.157950 0.352010 0.003084
0.193010 0.253020 0.012637
0.204260 0.297930 0.000572
0.204520 0.251520 0.016660
0.113100 0.356950 0.015322
0.118820 0.313700 0.006168
0.206100 0.258750 0.013019
0.171080 0.389230 0.014966
0.239190 0.332490 0.015084
0.171540 0.371230 0.007358
0.191060 0.256990 0.007918
0.091313 0.291650 0.026077
0.207430 0.382800 0.017293
0.219950 0.389740 0.030461
0.251250 0.338830 0.026617
0.211710 0.265980 0.008945
0.217110 0.268860 0.012346
0.105190 0.286350 0.016056
0.134280 0.233320 0.032109
0.157880 0.373770 0.008957
0.171910 0.283760 0.000110
0.133190 0.243890 0.024074
0.139410 0.259330 0.011629
0.240210 0.360780 0.023117
0.217620 0.310370 0.002197
0.130320 0.258100 0.015098
0.137640 0.286620 0.001663
0.182470 0.404990 0.031304
0.139800 0.247320 0.016122
0.183540 0.349440 0.002751
0.170840 0.258360 0.005794
0.120900 0.240800 0.034686
0.219440 0.348270 0.008473
0.129610 0.304490 0.003764
0.179410 0.392300 0.017454
0.143210 0.255660 0.012378
0.258640 0.301370 0.030435
0.233370 0.319220 0.010481
0.095251 0.293280 0.019551
0.191070 0.326950 0.001506
0.130780 0.358170 0.006150
0.195610 0.298380 0.001328
0.223170 0.371260 0.017207
0.133220 0.251790 0.017967
0.114100 0.260970 0.021922
0.169030 0.362000 0.002111
0.143960 0.343250 0.000703
0.088911 0.304590 0.022720
0.139070 0.397210 0.028140
0.201330 0.251720 0.015410
0.134560 0.309560 0.000460
0.102100 0.355560 0.020083
0.248920 0.339450 0.022108
0.090804 0.351600 0.030942
0.111270 0.320770 0.009109
0.142760 0.371860 0.008204
0.183140 0.254550 0.008076
0.147880 0.241140 0.021140
0.227140 0.355160 0.011483
0.085679 0.345830 0.034078
0.109080 0.308710 0.010172
0.186990 0.388100 0.017695
0.161160 0.261620 0.004767
0.239400 0.341860 0.014616
0.182470 0.342580 0.000213
0.145940 0.386930 0.018668
0.236250 0.320570 0.012033
0.114090 0.273550 0.015109
0.157750 0.301170 0.000212
0.117970 0.249310 0.025323
0.163580 0.311680 0.001524
0.252050 0.355160 0.034099
0.087894 0.294840 0.028931
0.085057 0.292730 0.030928
0.081049 0.315070 0.032226
0.235880 0.330130 0.010345
0.084426 0.320100 0.029927
0.102650 0.319050 0.013759
0.153600 0.276540 0.001318
0.088319 0.291130 0.029560
0.140360 0.380540 0.013476
0.105840 0.378170 0.034647
0.116970 0.259380 0.018778
0.207370 0.341940 0.001754
0.102440 0.290190 0.014501
0.191290 0.369150 0.005526
0.161620 0.236610 0.019898
0.219480 0.261270 0.014631
0.132960 0.262320 0.012017
0.206390 0.390540 0.023061
0.115590 0.243900 0.034653
0.245120 0.336440 0.020248
0.225320 0.258700 0.021870
0.206500 0.263030 0.008643
0.218850 0.392050 0.034689
0.107000 0.265160 0.023952
0.180860 0.249670 0.010364
0.129250 0.374390 0.015977
0.132600 0.314240 0.000680
0.221370 0.345070 0.006136
0.131860 0.323590 0.000881
0.146530 0.358440 0.002875
0.128650 0.256440 0.014372
0.207350 0.282390 0.005327
0.213950 0.306220 0.001614
0.227530 0.261630 0.021374
0.126190 0.267410 0.009975
0.196530 0.244170 0.016943
0.129000 0.286650 0.005789
0.151070 0.363690 0.003574
0.157400 0.252440 0.011655
0.199560 0.260440 0.010397
0.248120 0.278620 0.028814
0.199400 0.238880 0.022317
0.137570 0.245850 0.018121
0.108440 0.304040 0.010950
0.216080 0.336040 0.002894
0.175050 0.306530 -0.000026
0.215030 0.248290 0.023505
0.209880 0.291430 0.004417
0.225540 0.357720 0.013766
0.216930 0.321320 0.002051
0.239990 0.367910 0.029268
0.097043 0.300030 0.016589
0.135780 0.257930 0.011087
0.135260 0.247140 0.020469
0.088947 0.334320 0.027006
0.140560 0.384360 0.015820
0.155100 0.277620 0.003429
0.260810 0.327720 0.033979
0.211350 0.235390 0.034583
0.248040 0.360660 0.031414
0.233480 0.355130 0.017605
0.216080 0.317580 0.001861
0.210500 0.359620 0.008778
0.242020 0.370940 0.031455
0.180670 0.362510 0.002428
0.215980 0.363090 0.009651
0.159370 0.385200 0.012536
0.253680 0.295030 0.026387
0.149160 0.289170 0.000254
0.136860 0.357820 0.004341
0.249720 0.347780 0.027584
0.195030 0.394550 0.022891
0.144300 0.356010 0.002570
0.126600 0.373600 0.014095
0.140810 0.373800 0.011973
0.242650 0.272920 0.026652
0.110820 0.381590 0.031038
0.172660 0.243630 0.014109
0.187190 0.233710 0.026591
0.218960 0.384040 0.023780
0.097700 0.354070 0.025399
0.111290 0.283710 0.011078
0.124840 0.285450 0.007227
0.102730 0.321440 0.011371
0.209030 0.357340 0.005343
0.138630 0.369580 0.010606
0.212870 0.393660 0.032524
0.195610 0.344210 0.002957
0.245770 0.274580 0.026522
0.106080 0.309080 0.009358
0.170880 0.393170 0.020507
0.093184 0.270350 0.033172
0.211500 0.382140 0.020830
0.208270 0.238670 0.028848
0.139520 0.400080 0.031759
0.086552 0.315550 0.025188
0.190760 0.250510 0.011394
0.161750 0.226860 0.031092
0.200250 0.262260 0.007438
0.232340 0.274420 0.017662
0.156030 0.269260 0.002781
0.156830 0.395670 0.021382
0.126480 0.265450 0.013022
0.104290 0.263220 0.027452
0.212950 0.384620 0.023538
0.252430 0.348250 0.028597
0.170710 0.330140 0.000217
0.223310 0.292070 0.005707
0.165990 0.379520 0.008746
0.122130 0.327110 0.003163
0.095233 0.344040 0.023325
0.129030 0.247300 0.023227
0.170450 0.227370 0.032635
0.165460 0.320180 0.001527
0.192240 0.297370 0.001488
0.231450 0.293620 0.011372
0.235670 0.338440 0.013849
0.242300 0.304650 0.013874
0.137150 0.249720 0.017815
0.239000 0.353500 0.020900
0.252150 0.323210 0.021886
0.205330 0.335010 0.003202
0.126480 0.377400 0.016673
0.193280 0.352210 0.003725
0.223920 0.353000 0.009182
0.143260 0.397480 0.029404
0.161660 0.366370 0.005900
0.197730 0.329740 0.000027
0.252940 0.333900 0.027020
0.233400 0.336330 0.009878
0.249900 0.356420 0.030720
0.200890 0.347620 0.003938
0.140670 0.364070 0.005584
0.201480 0.395040 0.025298
0.211150 0.380330 0.017058
0.183760 0.369090 0.004740
0.109700 0.292510 0.009554
0.180180 0.394000 0.021193
0.131230 0.363010 0.009980
0.238320 0.337640 0.013101
0.162610 0.400770 0.025887
0.128340 0.263910 0.012885
0.197380 0.230880 0.030988
0.175410 0.303300 0.000197
0.104560 0.267180 0.024670
0.206420 0.266350 0.009566
0.163810 0.255520 0.007078
0.220670 0.371430 0.015832
0.180690 0.398270 0.023039
0.183840 0.277400 0.003337
0.100050 0.332670 0.014532
0.197220 0.264790 0.005748
0.135860 0.396720 0.031396
0.206820 0.377970 0.016144
0.222670 0.257140 0.021149
0.102690 0.292280 0.016281
0.210140 0.391550 0.028478
0.081310 0.308620 0.034114
0.086075 0.303830 0.026010
0.135400 0.351300 0.005594
0.095438 0.359760 0.031040
0.083841 0.318220 0.028422
0.141680 0.256160 0.010231
0.213440 0.346320 0.006152
0.194900 0.337620 0.002549
0.179420 0.365310 0.005532
0.226030 0.315870 0.007235
0.240990 0.258910 0.032219
0.168560 0.256880 0.008765
0.248210 0.361830 0.034253
0.142350 0.391670 0.021275
0.162460 0.230280 0.026624
0.151550 0.243510 0.018442
0.118320 0.266130 0.014200
0.203910 0.358680 0.006664
0.093519 0.346960 0.025703
0.166040 0.339910 0.000227
0.174150 0.300310 0.000196
0.112330 0.319560 0.006254
0.114250 0.358900 0.012975
0.166770 0.238460 0.020535
0.202440 0.242460 0.019997
0.118180 0.338030 0.005531
0.153990 0.334200 0.001546
0.148340 0.384520 0.014102
0.214240 0.389560 0.026574
0.170930 0.386830 0.015593
0.167320 0.261000 0.004753
0.244980 0.352730 0.025509
0.258680 0.322890 0.031727
0.212170 0.315430 0.003445
0.095582 0.355530 0.026028
0.238470 0.296590 0.015066
0.182740 0.235170 0.023930
0.152960 0.374440 0.009901
0.154180 0.253210 0.011710
0.125250 0.328780 0.004788
0.204020 0.375210 0.011252
0.244520 0.345860 0.019564
0.174970 0.405810 0.034671
0.096438 0.363560 0.030184
0.193330 0.315400 0.000187
0.117380 0.290160 0.008885
0.091571 0.344960 0.027270
0.123630 0.380690 0.020439
0.182750 0.303780 0.000190
0.137300 0.344200 0.001599
0.123350 0.279430 0.008977
0.154640 0.262380 0.007522
0.122960 0.344660 0.005203
0.191410 0.358050 0.004632
0.133570 0.290760 0.001815
0.213720 0.262080 0.011430
0.224890 0.247440 0.027799
0.114410 0.340650 0.009937
0.083518 0.293980 0.034614
0.213010 0.349490 0.006625
0.155370 0.379390 0.012069
0.213100 0.303840 0.001570
0.124430 0.249490 0.021335
0.242000 0.299450 0.016943
0.090634 0.289130 0.027577
0.219140 0.380290 0.020588
0.171970 0.383770 0.013570
0.163380 0.353380 0.000665
0.198630 0.271800 0.006111
0.224890 0.267690 0.014120
0.156120 0.385440 0.015634
0.204760 0.289300 0.001311
0.146730 0.344000 0.002910
0.196270 0.247360 0.016784
0.200360 0.378540 0.011888
0.182960 0.323360 0.001512
0.195740 0.358460 0.002939
0.099734 0.344850 0.017280
0.196210 0.363970 0.004566
0.129300 0.260760 0.013901
0.190010 0.402070 0.032323
0.160320 0.398750 0.025843
0.113870 0.368390 0.020626
0.130090 0.358640 0.008860
0.154330 0.377950 0.009054
0.110350 0.273890 0.017286
0.120080 0.306930 0.003583
0.260030 0.319460 0.031298
0.232080 0.348580 0.014438
0.110700 0.364100 0.019963
0.111710 0.288830 0.011690
0.156790 0.230880 0.029043
0.204070 0.339030 0.000931
0.254140 0.323950 0.026245
0.240000 0.282350 0.017565
0.183150 0.263230 0.004411
0.212080 0.388510 0.026564
0.241830 0.268670 0.026004
0.227090 0.266560 0.018205
0.178710 0.389950 0.017818
0.193430 0.299950 0.000178
0.116620 0.388510 0.034062
0.103870 0.360720 0.023426
0.119570 0.383710 0.025312
0.230240 0.286010 0.012591
0.150860 0.254260 0.011623
0.147660 0.393850 0.024291
0.116960 0.290970 0.006505
0.112780 0.354880 0.012445
0.238930 0.271320 0.021813
0.222750 0.335560 0.004893
0.099322 0.365430 0.030331
0.125080 0.318900 0.002042
0.223960 0.289510 0.008835
0.185940 0.398230 0.026503
0.199330 0.328830 0.002471
0.228560 0.246360 0.034587
0.196970 0.247860 0.014243
0.096261 0.271460 0.028110
0.092171 0.317340 0.019378
0.144240 0.400640 0.033092
0.086762 0.321000 0.027239
0.218630 0.245520 0.027980
0.119480 0.262780 0.017618
0.166460 0.265330 0.003288
0.209810 0.240330 0.025808
0.090952 0.324980 0.020588
0.088737 0.310980 0.022754
0.254080 0.317760 0.023889
0.127800 0.318240 0.003831
0.090951 0.314580 0.022883
0.143830 0.267500 0.007346
0.226370 0.246250 0.032611
0.220490 0.314730 0.005382
0.100300 0.267620 0.026226
0.218170 0.378720 0.018828
0.145760 0.398090 0.029339
0.157930 0.387200 0.014177
0.124120 0.355330 0.009780
0.253430 0.338230 0.028855
0.091073 0.286860 0.025480
0.136500 0.303520 0.002819
0.184370 0.254200 0.010748
0.187980 0.235880 0.022281
0.115110 0.347760 0.009043
0.246960 0.308530 0.017134
0.182080 0.257150 0.009070
0.155140 0.260660 0.005759
0.228520 0.275680 0.014875
0.210380 0.267830 0.010182
0.168980 0.405870 0.034750
0.234930 0.327820 0.011795
0.241610 0.324250 0.015392
0.083845 0.297440 0.030873
0.146370 0.375980 0.009148
0.141850 0.296160 0.000307
0.247840 0.292770 0.023242
0.124730 0.283450 0.005288
0.192400 0.291650 0.000112
0.141080 0.389610 0.019633
0.128950 0.327590 0.003934
0.185430 0.342890 0.002466
0.219940 0.357050 0.008796
0.185500 0.237570 0.020049
0.168360 0.281780 0.002637
0.141160 0.398960 0.029699
0.120720 0.380190 0.023915
0.118570 0.346280 0.009554
0.164900 0.398860 0.025978
0.100890 0.298890 0.013979
0.128400 0.248560 0.020164
0.200530 0.373980 0.009583
0.146440 0.347430 0.003271
0.160350 0.303180 0.000211
0.141130 0.292920 0.000526
0.130110 0.376220 0.014462
0.181450 0.374050 0.008784
0.178160 0.405870 0.034728
0.139990 0.349360 0.001984
0.132260 0.396910 0.031805
0.148360 0.389940 0.020573
0.228330 0.364500 0.018578
0.181370 0.236380 0.020133
0.126120 0.384840 0.022755
0.210130 0.327220 0.003392
0.215070 0.275530 0.009137
0.178930 0.319570 0.000203
0.213590 0.265570 0.012254
0.161310 0.271450 0.004298
0.198460 0.346000 0.003403
0.181780 0.389170 0.017480
0.141720 0.355860 0.002926
0.152970 0.383220 0.014699
0.230690 0.359590 0.017476
0.126500 0.242440 0.029120
0.201180 0.397700 0.030525
0.198750 0.391660 0.023393
0.140780 0.361390 0.004642
0.187770 0.382390 0.011658
0.103400 0.353970 0.018343
0.215530 0.350600 0.005268
0.097097 0.312750 0.017571
0.145240 0.361990 0.004017
0.098382 0.342530 0.020185
0.094498 0.346460 0.022337
0.120140 0.320980 0.005770
0.203750 0.340560 0.003398
0.173850 0.372700 0.005571
0.085009 0.298470 0.028978
0.136420 0.354930 0.006156
0.216650 0.318550 0.004376
0.182350 0.226980 0.030893
0.121110 0.376290 0.021023
0.154470 0.233870 0.026421
0.087578 0.336060 0.029050
0.230180 0.366450 0.018508
0.126660 0.242700 0.026486
0.258120 0.318790 0.028716
0.134210 0.248890 0.017333
0.168700 0.266640 0.005267
0.182630 0.242640 0.017528
0.146870 0.295680 0.000087
0.198110 0.278780 0.004357
0.147990 0.335900 0.000072
0.109550 0.300700 0.008490
0.198840 0.367070 0.006151
0.095303 0.333670 0.020747
0.095620 0.364880 0.034302
0.114720 0.260370 0.019593
0.234020 0.259590 0.027565
0.224280 0.368790 0.018719
0.184100 0.339960 0.000210
0.098859 0.348430 0.019329
0.259220 0.305690 0.032459
0.163160 0.247820 0.011273
0.092639 0.349900 0.027998
0.139300 0.390770 0.023627
0.233830 0.284630 0.012623
0.132010 0.374850 0.015279
0.180250 0.292620 0.000186
0.130350 0.354370 0.007571
0.242760 0.269300 0.028834
0.252710 0.281970 0.031748
0.152250 0.246250 0.016323
0.155960 0.296520 0.001522
0.184060 0.396670 0.024415
0.150870 0.229120 0.031018
0.249060 0.302030 0.019749
0.130150 0.332440 0.001564
0.231050 0.364030 0.019903
0.241640 0.263710 0.031120
0.133880 0.337010 0.003735
0.192470 0.232650 0.029318
0.095997 0.331510 0.017400
0.112120 0.383850 0.034220
0.110470 0.317580 0.009499
0.161920 0.377000 0.007616
0.119490 0.328400 0.006428
0.227060 0.277110 0.011256
0.095073 0.328460 0.019802
0.171390 0.246180 0.012304
0.162850 0.265020 0.005863
0.217890 0.254450 0.017619
0.210940 0.298360 0.003860
0.156050 0.254900 0.010594
0.191110 0.403610 0.034715
0.197270 0.286220 0.003214
0.108060 0.332130 0.009425
0.244690 0.276820 0.026442
0.228360 0.331320 0.006677
0.109270 0.373970 0.025588
0.092466 0.289230 0.025522
0.171510 0.270240 0.001956
0.172170 0.369780 0.004409
0.173180 0.305540 0.001511
0.182080 0.405290 0.033960
0.258000 0.311640 0.028553
0.129180 0.385370 0.023998
0.173130 0.348400 0.002581
0.242090 0.364710 0.029518
0.161170 0.383910 0.011430
0.221420 0.255530 0.019065
0.226260 0.291870 0.006872
0.162370 0.326890 0.001534
0.241510 0.283770 0.020376
0.144810 0.264890 0.005672
0.117170 0.274460 0.013165
0.229500 0.272050 0.016751
0.106000 0.258440 0.027662
0.112490 0.377130 0.025531
0.165660 0.391470 0.019091
0.174870 0.369210 0.004186
0.198490 0.343540 0.000766
0.101060 0.284970 0.019327
0.228130 0.282390 0.012581
0.090899 0.341880 0.024808
0.179700 0.263470 0.004004
0.184320 0.243050 0.015236
0.189810 0.349410 0.003097
0.237590 0.287900 0.016100
0.152310 0.316650 0.000227
0.151560 0.370030 0.005773
0.146240 0.229990 0.031512
0.120670 0.361900 0.013665
0.237220 0.350900 0.016214
0.191490 0.384830 0.016283
0.213600 0.374650 0.016498
0.241700 0.362930 0.025824
0.142130 0.283260 0.003875
0.091286 0.308770 0.020240
0.213060 0.259090 0.015033
0.207870 0.347900 0.002773
0.169500 0.307810 0.000205
0.160610 0.344770 0.000063
0.201970 0.256930 0.010393
0.199110 0.397210 0.029278
0.156660 0.389690 0.016247
0.124670 0.392290 0.031519
0.100800 0.327510 0.015400
0.093031 0.277340 0.027930
0.215590 0.388840 0.028908
0.211030 0.276310 0.005334
0.175520 0.269070 0.002210
0.213390 0.333970 0.004404
0.187300 0.403190 0.030595
0.185340 0.263400 0.006939
0.200220 0.249590 0.013994
0.223600 0.316590 0.006327
0.139010 0.231760 0.031746
0.088281 0.349760 0.032772
0.195640 0.294020 0.000146
0.112940 0.295390 0.009904
0.127160 0.337650 0.002782
0.253770 0.322070 0.023528
0.250250 0.314030 0.020021
0.207520 0.360090 0.008062
0.135330 0.244860 0.022203
0.249060 0.350520 0.028299
0.137750 0.280460 0.002666
0.178280 0.354820 0.000847
0.238720 0.274830 0.022215
0.129360 0.295130 0.002145
0.208640 0.388810 0.024980
0.194110 0.324520 0.001502
0.220060 0.301300 0.003504
0.200080 0.370330 0.010158
0.217240 0.370480 0.015887
0.235990 0.305620 0.009778
0.227450 0.249230 0.028534
0.198130 0.361140 0.006390
0.190720 0.350750 0.000919
0.149920 0.373810 0.009990
0.172950 0.268230 0.002397
0.181360 0.225880 0.034024
0.178390 0.361910 0.004558
0.095259 0.316540 0.016760
0.114610 0.379900 0.026061
0.103710 0.270860 0.021287
0.194200 0.238120 0.021725
0.178560 0.323360 0.001516
0.150860 0.334610 0.001549
0.091445 0.331530 0.023725
0.206740 0.286420 0.002066
0.181340 0.281470 0.002729
0.118040 0.258690 0.020867
0.087727 0.312980 0.023824
0.125940 0.360750 0.011034
0.228770 0.342110 0.010867
0.245460 0.310290 0.018200
0.228370 0.372350 0.023543
0.231910 0.354320 0.014035
0.101110 0.339730 0.017432
0.148910 0.237080 0.022379
0.117720 0.280930 0.008642
0.239050 0.269230 0.025238
0.226350 0.374040 0.021013
0.194170 0.282360 0.000956
0.123970 0.271330 0.011620
0.114800 0.288740 0.007974
0.209260 0.305640 0.000828
0.143000 0.309030 0.001542
0.215150 0.333290 0.002327
0.165320 0.285720 0.000026
0.187850 0.398360 0.024929
0.164600 0.263860 0.003741
0.136050 0.239510 0.026527
0.171330 0.241410 0.018074
0.149630 0.292720 0.000090
0.105430 0.367730 0.025912
0.168890 0.299420 0.000201
0.243150 0.316300 0.014153
0.260810 0.309920 0.032943
0.191680 0.323010 0.000193
0.112090 0.271630 0.017016
0.170140 0.277510 0.000651
0.190280 0.354890 0.003908
0.229200 0.279830 0.013886
0.158810 0.361170 0.004669
0.107980 0.326740 0.008695
0.211090 0.260600 0.013545
0.135150 0.235520 0.028927
0.140060 0.278590 0.004953
0.127040 0.355650 0.008881
0.117380 0.368680 0.016398
0.213070 0.368800 0.013174
0.138900 0.244810 0.020632
0.162970 0.238890 0.020185
0.113030 0.351230 0.011159
0.250280 0.304980 0.022456
0.112530 0.266080 0.019771
0.228720 0.328540 0.006492
0.209760 0.321870 0.000750
0.147440 0.239170 0.023074
0.254840 0.340750 0.029121
0.092087 0.357880 0.031440
0.181510 0.351100 0.000460
0.166990 0.248820 0.013017
0.162690 0.242000 0.015280
0.132110 0.296430 0.001472
0.121100 0.243990 0.030809
0.094529 0.320930 0.017378
0.203610 0.323930 0.002610
0.160600 0.299480 0.001519
0.228090 0.382860 0.029534
0.115110 0.385440 0.030624
0.144840 0.371480 0.009888
0.109100 0.279190 0.016185
0.207130 0.386030 0.021887
0.157410 0.383240 0.011625
0.191780 0.250950 0.013633
0.154570 0.361480 0.005024
0.205760 0.266860 0.006831
0.135640 0.370680 0.011906
0.131250 0.299870 0.003676
0.082312 0.299290 0.034493
0.207760 0.367850 0.008631
0.212650 0.295290 0.002132
0.130820 0.269500 0.009812
0.244770 0.285170 0.019979
0.121180 0.387940 0.028762
0.135570 0.278840 0.005870
0.165910 0.375790 0.009267
0.132730 0.248250 0.020730
0.164780 0.273010 0.001373
0.124100 0.383080 0.024546
0.174880 0.256900 0.008746
0.133420 0.390460 0.026355
0.080851 0.320530 0.034754
0.198440 0.389630 0.019087
0.193960 0.329990 0.000195
0.233460 0.327640 0.008623
0.161250 0.387330 0.013652
0.111020 0.327790 0.009742
0.105040 0.347090 0.014438
0.163320 0.239900 0.017025
0.225590 0.312490 0.004690
0.186320 0.367860 0.004527
0.096946 0.266060 0.030972
0.127760 0.335820 0.004769
0.093733 0.313190 0.020353
0.104860 0.309550 0.012434
0.206670 0.244040 0.023024
0.145830 0.399700 0.031295
0.175650 0.225900 0.034610
0.187050 0.351250 0.000727
0.211980 0.239830 0.027550
0.197110 0.229750 0.034500
0.235670 0.361160 0.019437
0.153960 0.364610 0.005996
0.224820 0.259600 0.018664
0.218780 0.335730 0.003563
0.115810 0.357270 0.011523
0.181730 0.386960 0.013627
0.158660 0.268060 0.002923
0.113810 0.382670 0.029208
0.148850 0.230050 0.032763
0.128890 0.379740 0.017361
0.165520 0.330100 0.001533
0.124210 0.242760 0.027871
0.117390 0.317910 0.006615
0.169600 0.239760 0.019448
0.231850 0.343920 0.010558
0.217190 0.277070 0.009337
0.098457 0.269850 0.029063
0.203230 0.337360 0.003117
0.170350 0.398940 0.026058
0.226620 0.325600 0.007715
0.197820 0.282650 0.001269
0.117670 0.363780 0.013641
0.182590 0.248750 0.013497
0.259690 0.331890 0.033823
0.193270 0.401880 0.030964
0.082844 0.296500 0.033512
0.243780 0.325860 0.014674
0.166750 0.234680 0.024083
0.131130 0.263920 0.011738
0.254460 0.343260 0.031768
0.151130 0.227980 0.033981
0.141550 0.375340 0.010201
0.210600 0.371720 0.011411
0.259380 0.327230 0.030418
0.249390 0.331520 0.022839
0.246570 0.363250 0.031447
0.227210 0.384300 0.032323
0.138360 0.298610 0.002869
0.211140 0.293110 0.002084
0.213790 0.242710 0.027999
0.178520 0.294930 0.000189
0.188480 0.251180 0.010658
0.147160 0.260750 0.006695
0.130040 0.288320 0.002879
0.129690 0.240920 0.026519
0.168870 0.338390 0.000223
0.117810 0.293160 0.008121
0.100500 0.362030 0.027152
0.209290 0.314890 0.003054
0.132570 0.393600 0.027698
0.234150 0.350400 0.014015
0.174430 0.281630 0.002639
0.169360 0.261900 0.006765
0.150680 0.352340 0.001160
0.124340 0.255820 0.016515
0.159410 0.367910 0.004159
0.179180 0.380710 0.009397
0.170600 0.352840 0.002901
0.227930 0.336770 0.009524
0.173930 0.399320 0.026503
0.176760 0.388690 0.014578
0.128280 0.313390 0.003724
0.115890 0.333310 0.005892
0.114220 0.367900 0.017814
0.239130 0.302260 0.014479
0.239280 0.320490 0.011486
0.216880 0.380930 0.020022
0.102040 0.367480 0.028763
0.098098 0.310790 0.014532
0.251250 0.298660 0.024975
0.256420 0.295370 0.031896
0.101230 0.260770 0.030009
0.178460 0.373530 0.008267
0.120750 0.384340 0.027544
0.237060 0.291680 0.014999
0.145820 0.397700 0.026615
0.239170 0.258040 0.033562
0.234800 0.252590 0.034575
0.225930 0.370620 0.020772
0.250610 0.293610 0.023390
0.202630 0.384960 0.019173
0.176520 0.246850 0.011836
0.164400 0.278050 0.003035
0.226430 0.276370 0.013491
0.221380 0.345760 0.008639
0.238550 0.257550 0.031181
0.180330 0.402900 0.030719
0.230630 0.358970 0.014898
0.153800 0.272950 0.004414
0.242940 0.310470 0.016327
0.122710 0.276610 0.007818
0.119750 0.366070 0.013751
0.206050 0.332020 0.003081
0.208880 0.280550 0.006050
0.248350 0.295270 0.023093
0.218730 0.388610 0.028303
0.211570 0.289040 0.002701
0.108890 0.349050 0.015102
0.131960 0.356230 0.005272
0.187710 0.378680 0.011860
0.179980 0.247500 0.011474
0.186730 0.242670 0.016051
0.141360 0.356440 0.005520
0.188050 0.328300 0.000199
0.158170 0.378120 0.010981
0.127860 0.317710 0.001422
0.167570 0.276830 0.003149
0.161770 0.362410 0.004761
0.233950 0.371870 0.027343
0.219000 0.257760 0.016312
0.116720 0.271800 0.012159
0.084944 0.291060 0.033921
0.113700 0.364640 0.016185
0.228050 0.283150 0.009968
0.114230 0.304660 0.008243
0.136900 0.334870 0.003179
0.184210 0.326530 0.001513
0.236540 0.272450 0.021537
0.138150 0.397190 0.030709
0.140160 0.336510 0.002904
0.254720 0.290800 0.029018
0.186960 0.370180 0.005482
0.111400 0.277870 0.012904
0.202750 0.349250 0.002091
0.118660 0.350750 0.008262
0.226070 0.364730 0.017418
0.119220 0.250670 0.023196
0.220570 0.381970 0.022722
0.208900 0.371520 0.013141
0.220950 0.361370 0.011018
0.124340 0.368710 0.012770
0.127090 0.388350 0.027894
0.178530 0.228600 0.028687
0.189240 0.230860 0.030427
0.107990 0.284990 0.014824
0.170540 0.252310 0.008645
0.229590 0.355820 0.013136
0.129670 0.253340 0.016012
0.184550 0.384470 0.012434
0.173210 0.360320 0.004127
0.175120 0.265850 0.005500
0.131480 0.256470 0.013346
0.226590 0.290570 0.009687
0.110880 0.378890 0.028380
0.207870 0.308590 0.000539
0.200540 0.237540 0.023997
0.174440 0.260470 0.004954
0.161130 0.352270 0.003003
0.147650 0.279070 0.003894
0.197160 0.369680 0.009169
0.154290 0.238500 0.021964
0.121600 0.312530 0.002935
0.214880 0.297290 0.002336
0.107350 0.267100 0.022363
0.183000 0.360030 0.004417
0.175290 0.395290 0.020107
0.124920 0.358190 0.008140
0.103350 0.282340 0.016435
0.209370 0.362140 0.009259
0.181830 0.330240 0.000206
0.134250 0.342310 0.004248
0.244540 0.294250 0.019991
0.228820 0.300630 0.009215
0.203000 0.311390 0.000105
0.152450 0.239080 0.019576
0.108560 0.297890 0.011739
0.160140 0.354800 0.003374
0.149210 0.387100 0.015769
0.164860 0.347210 0.002548
0.103370 0.341810 0.016270
0.143020 0.259530 0.008238
0.084247 0.335750 0.030863
0.144550 0.262830 0.008820
0.142780 0.288120 0.000829
0.155580 0.316780 0.000223
0.235790 0.363790 0.023141
0.176710 0.345870 0.002463
0.135980 0.250260 0.015597
0.091177 0.337250 0.023140
0.099777 0.270930 0.027124
0.133590 0.321240 0.000561
0.198190 0.305710 0.001487
0.233960 0.306720 0.010869
0.226330 0.288320 0.007774
0.101180 0.264440 0.029454
0.141170 0.263410 0.009405
0.247620 0.352510 0.025728
0.099949 0.372290 0.033337
0.199260 0.237040 0.026470
0.204650 0.344230 0.003990
0.109460 0.367440 0.022871
0.157230 0.312760 0.001530
0.172640 0.346150 0.001793
0.097243 0.316150 0.015145
0.129230 0.322500 0.001195
0.211930 0.315660 0.001015
0.123320 0.337440 0.003774
0.187110 0.275820 0.003737
0.184510 0.364900 0.005807
0.197830 0.394230 0.025601
0.217020 0.243260 0.029295
0.177750 0.396150 0.023257
0.149330 0.327270 0.000236
0.163440 0.379090 0.008533
0.185190 0.375380 0.009885
0.093478 0.281920 0.024817
0.119080 0.312250 0.003710
0.095314 0.307170 0.019026
0.140690 0.250550 0.016031
0.116330 0.305630 0.004971
0.149710 0.350930 0.003456
0.201650 0.371970 0.011238
0.209730 0.255420 0.016104
0.238330 0.293000 0.013294
0.208220 0.305110 0.003111
0.109010 0.303690 0.008368
0.175230 0.382220 0.012646
0.171330 0.374860 0.008807
0.180770 0.253310 0.008367
0.091184 0.354220 0.030009
0.232790 0.366010 0.022212
0.092310 0.320610 0.019245
0.232950 0.288580 0.010876
0.150970 0.376420 0.008743
0.256940 0.322590 0.027187
0.171650 0.278050 0.002978
0.206620 0.357550 0.007101
0.110500 0.258780 0.025997
0.096939 0.349510 0.023805
0.143880 0.251290 0.014453
0.232470 0.260370 0.025684
0.250280 0.316750 0.022361
0.141470 0.401190 0.033736
0.083473 0.330030 0.029859
0.111420 0.347870 0.010987
0.098328 0.338710 0.017081
0.188260 0.230760 0.027959
0.225470 0.273920 0.011390
0.148220 0.382250 0.014909
0.160210 0.368750 0.006760
0.220570 0.383620 0.026571
0.106210 0.365700 0.023918
0.103620 0.375020 0.031647
0.106580 0.331380 0.012508
0.191100 0.341430 0.000141
0.160930 0.400350 0.027685
0.160240 0.394860 0.019739
0.181390 0.371520 0.007798
0.247110 0.322990 0.017255
0.225240 0.378970 0.023754
0.235430 0.264360 0.022637
0.087015 0.282880 0.034063
0.234260 0.317230 0.008565
0.235270 0.342320 0.011877
0.181370 0.371310 0.005345
0.200810 0.359150 0.003894
0.232230 0.316470 0.009923
0.146830 0.264390 0.007810
0.205790 0.243930 0.020385
0.088542 0.352360 0.031860
0.141300 0.267140 0.005601
0.110580 0.269750 0.016445
0.191960 0.394920 0.022457
0.198250 0.279940 0.001762
0.114480 0.307620 0.007851
0.231220 0.264900 0.019342
0.248460 0.326420 0.020770
0.114310 0.315820 0.005464
0.167220 0.256650 0.006518
0.131270 0.396900 0.034725
0.137420 0.379310 0.016097
0.125950 0.282180 0.007489
0.258620 0.316150 0.029390
0.169620 0.259260 0.007805
0.151080 0.283580 0.003001
0.210640 0.308590 0.003306
0.175980 0.273220 0.001295
0.132950 0.352050 0.006287
0.177670 0.360060 0.001734
0.151990 0.355060 0.001508
0.123460 0.306400 0.002619
0.157370 0.371410 0.005699
0.166470 0.396560 0.021358
0.113350 0.292920 0.007665
0.145230 0.392620 0.021441
0.085249 0.322710 0.028983
0.165190 0.380550 0.011662
0.187060 0.332440 0.001513
0.119290 0.388130 0.032538
0.183580 0.353840 0.000901
0.194340 0.388240 0.019396
0.202190 0.288810 0.003435
0.082525 0.313490 0.030210
0.227720 0.350880 0.012849
0.166530 0.335370 0.001535
0.201640 0.247690 0.015730
0.234290 0.370050 0.023851
0.125560 0.261830 0.015047
0.234540 0.270610 0.020833
0.128030 0.244630 0.026056
0.223100 0.359650 0.011195
0.103040 0.371150 0.028472
0.150910 0.366770 0.006962
0.126120 0.345480 0.004279
0.248550 0.329380 0.021505
0.192030 0.265340 0.004538
0.086370 0.322580 0.025408
0.133320 0.235210 0.030544
0.097260 0.280830 0.024198
0.214500 0.268630 0.009004
0.211480 0.351530 0.006771
0.121960 0.351530 0.007042
0.149170 0.378410 0.010118
0.103370 0.288070 0.016582
0.202420 0.237410 0.026986
0.206080 0.349940 0.005214
0.215740 0.357910 0.009996
0.229170 0.287070 0.009377
0.136150 0.289190 0.001497
0.177730 0.271480 0.001741
0.155850 0.268600 0.005371
0.207680 0.385030 0.019017
0.245270 0.297220 0.017625
0.201550 0.364370 0.005759
0.119320 0.327810 0.004053
0.121880 0.254520 0.018741
0.218990 0.298440 0.003414
0.241470 0.319290 0.015296
0.207190 0.263070 0.011143
0.192570 0.398920 0.029244
0.136110 0.256820 0.013896
0.096153 0.302820 0.019029
0.236420 0.352480 0.018616
0.205480 0.375580 0.014219
0.203410 0.255030 0.014138
0.236170 0.300640 0.010647
0.179160 0.396260 0.021060
0.215860 0.369040 0.014484
0.098800 0.302450 0.014759
0.156610 0.292350 0.000208
0.207260 0.369290 0.011512
0.198630 0.249090 0.016074
0.248680 0.271150 0.034325
0.122340 0.251120 0.023279
0.234650 0.346930 0.015423
0.231490 0.371030 0.024787
0.107200 0.367220 0.021992
0.185420 0.245940 0.013455
0.124290 0.316110 0.002215
0.090523 0.284370 0.029111
0.171190 0.262630 0.004109
0.197180 0.321250 0.000187
0.153660 0.356250 0.003945
0.126110 0.341170 0.005984
0.186700 0.240780 0.019886
0.247590 0.286460 0.022310
0.147090 0.266920 0.004522
0.205800 0.269480 0.008195
0.106310 0.371000 0.027849
0.202780 0.301480 0.002660
0.198400 0.240430 0.020596
0.189650 0.393670 0.020686
0.239730 0.272430 0.024247
0.125300 0.369650 0.015098
0.189470 0.271100 0.002526
0.114580 0.310870 0.005354
0.117360 0.343680 0.009430
0.236390 0.260190 0.026726
0.167040 0.404950 0.033499
0.136510 0.358520 0.007011
0.158490 0.392540 0.020478
0.130690 0.236060 0.031339
0.205370 0.399780 0.033189
0.169680 0.364960 0.002884
0.100040 0.312520 0.013151
0.195700 0.277320 0.001985
0.093664 0.335610 0.020354
0.175960 0.257500 0.006129
0.151540 0.256300 0.008154
0.160710 0.363160 0.002645
0.218960 0.304340 0.002941
0.113530 0.250410 0.030387
0.126840 0.343490 0.006145
0.206680 0.338990 0.001294
0.171790 0.311720 0.001516
0.232210 0.342570 0.012688
0.102760 0.273320 0.023190
0.191490 0.363070 0.005896
0.126160 0.247380 0.024566
0.148050 0.375150 0.010866
0.112210 0.345600 0.012250
0.101480 0.358480 0.024355
0.103780 0.326210 0.013319
0.151080 0.402440 0.033050
0.160970 0.357010 0.001265
0.144110 0.369440 0.006833
0.204420 0.366380 0.009540
0.242000 0.348550 0.021003
0.222440 0.265540 0.013973
0.174040 0.317680 0.001517
0.151570 0.380070 0.013048
0.182880 0.245850 0.015384
0.115090 0.325410 0.007750
0.209530 0.393590 0.030187
0.214790 0.325350 0.004183
0.149990 0.238740 0.020530
0.155490 0.347820 0.000345
0.097975 0.263670 0.031385
0.227430 0.332750 0.008782
0.145400 0.244790 0.018745
0.237380 0.276170 0.020566
0.099118 0.326470 0.014024
0.132920 0.285290 0.002674
0.217090 0.240170 0.032861
0.164100 0.367050 0.005909
0.108570 0.311610 0.010424
0.215020 0.278730 0.005768
0.141090 0.308880 0.000059
0.241340 0.274730 0.024483
0.242570 0.262210 0.033223
0.159400 0.277160 0.000934
0.236010 0.264250 0.025408
0.226370 0.246800 0.029822
0.121100 0.298210 0.003965
0.230090 0.383430 0.031997
0.199610 0.253740 0.011337
0.122350 0.330770 0.005771
0.225800 0.305420 0.005097
0.122150 0.388670 0.031229
0.220650 0.374820 0.017822
0.203900 0.244540 0.018958
0.172870 0.267360 0.005045
0.112160 0.249290 0.032770
0.112450 0.341950 0.008739
0.086107 0.300900 0.029123
0.241780 0.342870 0.018947
0.223520 0.381340 0.026564
0.158160 0.284040 0.002644
0.208570 0.242540 0.022925
0.104390 0.303070 0.013344
0.137360 0.238390 0.024605
0.135600 0.368390 0.010842
0.240430 0.264010 0.027286
0.160350 0.279120 0.003042
0.217820 0.374550 0.018313
0.127830 0.275390 0.008817
0.162640 0.358890 0.001571
0.203650 0.235810 0.029123
0.222880 0.357340 0.012476
0.117570 0.374760 0.020018
0.167110 0.388370 0.014357
0.132150 0.252300 0.015726
0.158510 0.397770 0.022956
0.142200 0.392000 0.023923
0.172120 0.238580 0.020431
0.098027 0.263340 0.033799
0.235230 0.309180 0.009073
0.224620 0.317630 0.004310
0.114640 0.279240 0.010670
0.133230 0.362250 0.006656
0.144670 0.294030 0.002656
0.147040 0.234280 0.025915
0.138450 0.251780 0.016077
0.122640 0.260160 0.017339
0.216350 0.270270 0.009087
0.199690 0.324690 0.000186
0.099739 0.349460 0.021418
0.118300 0.354630 0.009448
0.245190 0.359780 0.029765
0.104340 0.293700 0.014893
0.220680 0.367990 0.016359
0.219170 0.252870 0.019345
0.107840 0.313560 0.008431
0.125830 0.390000 0.030300
0.153270 0.273890 0.001860
0.135720 0.291060 0.003763
0.165630 0.268500 0.004733
0.147150 0.315600 0.001542
0.224160 0.354200 0.012009
0.209880 0.271440 0.008764
0.157470 0.227930 0.032498
0.183660 0.240810 0.019207
0.161320 0.244870 0.013260
0.164710 0.236980 0.019531
0.155140 0.240320 0.020230
0.088441 0.323880 0.023062
0.146640 0.364750 0.004630
0.127070 0.302640 0.002019
0.091047 0.274060 0.033981
0.220970 0.325300 0.005756
0.179090 0.384770 0.014159
0.199920 0.290880 0.003020
0.157180 0.231810 0.025621
0.223020 0.350560 0.008148
0.246370 0.318470 0.016637
0.167740 0.380220 0.011465
0.102470 0.276510 0.019569
0.133950 0.287650 0.002084
0.216250 0.250530 0.019889
0.152260 0.340990 0.000096
0.205560 0.394820 0.026823
0.114150 0.384170 0.032592
0.143940 0.304050 0.000227
0.176580 0.365300 0.002981
0.102730 0.344250 0.017176
0.122150 0.363500 0.011373
0.207970 0.352160 0.006097
0.133930 0.395120 0.030820
0.129620 0.390190 0.025989
0.178030 0.359180 0.003960
0.198620 0.264400 0.008519
0.111580 0.352320 0.014613
0.130630 0.329930 0.003713
0.130570 0.344630 0.002949
0.232540 0.314090 0.007721
0.154570 0.236080 0.024172
0.175230 0.376850 0.007421
0.216410 0.385990 0.026540
0.228500 0.299200 0.006884
0.203590 0.361570 0.007569
0.203960 0.248170 0.016356
0.120050 0.334090 0.004373
0.193330 0.274710 0.002223
0.126260 0.247800 0.021861
0.122160 0.382210 0.022467
0.225790 0.306360 0.007369
0.182620 0.284250 0.000186
0.243290 0.354720 0.022755
0.183600 0.336680 0.000208
0.107080 0.355000 0.018430
0.134140 0.295720 0.003568
0.204870 0.231820 0.034604
0.219890 0.318940 0.002820
0.234080 0.277950 0.017468
0.123870 0.365520 0.013844
0.210860 0.348360 0.003518
0.085810 0.338210 0.031944
0.196930 0.396650 0.025729
0.121000 0.338820 0.004716
0.185350 0.372910 0.008732
0.243910 0.351640 0.021773
0.163070 0.334910 0.000227
0.117350 0.325850 0.006934
0.244910 0.334560 0.017364
0.245740 0.271520 0.028377
0.156910 0.236350 0.023326
0.161810 0.256760 0.008980
0.101660 0.371040 0.031958
0.216650 0.275680 0.007275
0.205330 0.348030 0.002300
0.125240 0.336720 0.005534
0.229600 0.296030 0.010166
0.245370 0.298320 0.019784
0.138720 0.291880 0.000881
0.118070 0.386240 0.028872
0.240600 0.352140 0.019200
0.184090 0.311360 0.001504
0.199360 0.385920 0.018607
0.145460 0.311120 0.001541
0.232800 0.257860 0.025708
0.146790 0.241350 0.018902
0.230300 0.381070 0.029931
0.127610 0.239410 0.031752
0.174600 0.253440 0.008086
0.162350 0.331490 0.000226
0.211710 0.337220 0.004446
0.224540 0.294800 0.005704
0.149460 0.368520 0.005409
0.128900 0.353950 0.005490
0.175000 0.225990 0.032251
0.097777 0.313440 0.014762
0.208520 0.273800 0.005335
0.112540 0.316480 0.008530
0.173250 0.404340 0.032670
0.137270 0.252380 0.013799
0.092014 0.306200 0.019519
0.189340 0.383200 0.014781
0.145180 0.284490 0.003344
0.117300 0.266890 0.016661
0.101790 0.264830 0.026343
0.222960 0.314020 0.006132
0.138840 0.355990 0.003484
0.189830 0.379690 0.012766
0.115050 0.258590 0.022908
0.195920 0.349270 0.001095
0.187960 0.341810 0.000065
0.152150 0.277870 0.003622
0.199660 0.315510 0.001492
0.123910 0.375050 0.018637
0.159030 0.331930 0.000229
0.248470 0.305880 0.020704
0.181800 0.360260 0.002011
0.108550 0.377870 0.031904
0.143800 0.389100 0.020883
0.189440 0.300290 0.000182
0.140940 0.322940 0.000076
0.192020 0.387840 0.018569
0.165310 0.389400 0.017415
0.247040 0.284010 0.024770
0.171550 0.234340 0.024410
0.212680 0.312520 0.003513
0.245760 0.338970 0.018999
0.161090 0.283420 0.002632
0.159050 0.229190 0.030296
0.127220 0.278380 0.005771
0.217060 0.301290 0.005005
0.158800 0.403040 0.028856
0.086340 0.340440 0.029769
0.186680 0.256530 0.009938
0.123490 0.263300 0.013015
0.194090 0.254980 0.009336
0.082562 0.316180 0.030164
0.250560 0.345070 0.025420
0.187980 0.238670 0.019637
0.086263 0.333140 0.027363
0.200820 0.274190 0.005812
0.198040 0.275440 0.002680
0.148400 0.307560 0.001536
0.214370 0.238840 0.030327
0.185260 0.230780 0.029263
0.166450 0.240140 0.016818
0.198510 0.246520 0.017793
0.219010 0.307220 0.002728
0.178730 0.236030 0.020447
0.207220 0.311020 0.002773
0.200360 0.265540 0.006110
0.140600 0.393160 0.025433
0.135910 0.353960 0.003681
0.113980 0.283270 0.012166
0.234650 0.357760 0.019547
0.167490 0.274960 0.001005
0.156670 0.289100 0.002193
0.239950 0.303820 0.012417
0.119940 0.386730 0.030458
0.192420 0.335270 0.001510
0.167900 0.346350 0.002470
0.137830 0.293620 0.003271
0.225560 0.357360 0.011327
0.249830 0.358330 0.034188
0.141140 0.240780 0.020854
0.254640 0.347870 0.033611
0.225460 0.261870 0.017692
0.119980 0.379200 0.021430
0.127090 0.290660 0.003309
0.191320 0.262920 0.005358
0.116430 0.262720 0.017123
0.124390 0.342820 0.004345
