ply
format ascii 1.0
element vertex 1773
property float x
property float y
property float z
end_header
0.486550 0.461370 0.011587
0.430510 0.496400 0.050786
0.489220 0.592560 0.058259
0.460460 0.574530 0.057347
0.499080 0.591060 0.053934
0.458140 0.542450 0.016664
0.581420 0.467150 0.029099
0.440270 0.556230 0.056183
0.470900 0.551040 0.016638
0.563250 0.495110 0.010166
0.583870 0.561200 0.051276
0.579020 0.489420 0.016369
0.497370 0.450750 0.010903
0.542860 0.449240 0.018147
0.446240 0.562270 0.050920
0.565250 0.432380 0.057940
0.545930 0.574030 0.023720
0.508210 0.459050 0.009611
0.484710 0.532250 0.007905
0.466220 0.551370 0.019353
0.449060 0.516480 0.019920
0.521500 0.546060 0.007960
0.441630 0.543860 0.042421
0.452010 0.454980 0.035598
0.461220 0.488580 0.012828
0.560020 0.564430 0.023018
0.505270 0.448410 0.011011
0.452220 0.465060 0.029864
0.501640 0.542100 0.004801
0.488730 0.534960 0.007829
0.560870 0.464510 0.013098
0.463760 0.441590 0.045192
0.500130 0.588690 0.046736
0.559510 0.577250 0.039931
0.472670 0.568880 0.024626
0.478460 0.515030 0.004755
0.447760 0.548190 0.036763
0.598210 0.533790 0.049311
0.572320 0.551550 0.027396
0.444700 0.506090 0.019465
0.441840 0.459260 0.056526
0.499600 0.586820 0.035735
0.500790 0.576350 0.024986
0.467350 0.542780 0.011282
0.539760 0.548620 0.006751
0.556790 0.430190 0.049837
0.515930 0.530810 0.007556
0.594820 0.493450 0.034550
0.534500 0.474570 0.007743
0.487700 0.450200 0.016740
0.583080 0.529550 0.021223
0.549740 0.530090 0.008238
0.535980 0.573160 0.023530
0.549980 0.563310 0.020317
0.519530 0.539700 0.004641
0.570870 0.486540 0.011489
0.567390 0.435640 0.052457
0.485650 0.426420 0.044753
0.557280 0.541670 0.009071
0.573120 0.542980 0.018018
0.466660 0.576580 0.049280
0.436960 0.485620 0.033888
0.487120 0.492250 0.003626
0.534860 0.590220 0.053323
0.551360 0.451860 0.015519
0.488730 0.523480 0.000362
0.578450 0.555680 0.039658
0.488080 0.432690 0.036981
0.467020 0.579590 0.056385
0.537920 0.435640 0.024652
0.569220 0.577140 0.054057
0.598520 0.502450 0.041010
0.458610 0.450290 0.038385
0.436300 0.521740 0.031772
0.485540 0.477700 0.005154
0.511360 0.510570 0.003748
0.546770 0.454760 0.012235
0.536190 0.477770 0.007632
0.506410 0.595940 0.054988
0.526340 0.455510 0.011228
0.431460 0.526520 0.052487
0.482030 0.578300 0.030671
0.574090 0.441290 0.053054
0.427720 0.486850 0.055788
0.549850 0.584030 0.042049
0.449300 0.520690 0.020168
0.487300 0.519410 0.000234
0.536390 0.429930 0.032590
0.516430 0.588570 0.043163
0.507840 0.428020 0.037612
0.542540 0.472200 0.005703
0.535130 0.427080 0.044359
0.588640 0.539630 0.041154
0.503200 0.573510 0.017371
0.582680 0.512140 0.021439
0.588220 0.494810 0.029210
0.531550 0.431080 0.029197
0.564350 0.531460 0.012505
0.451340 0.548090 0.026318
0.550600 0.445010 0.025484
0.436550 0.547650 0.058546
0.466630 0.575400 0.039467
0.462220 0.579830 0.056616
0.580800 0.498630 0.016339
0.576130 0.538500 0.018730
0.529910 0.428450 0.032891
0.444980 0.557520 0.055549
0.449730 0.503810 0.014873
0.455220 0.439630 0.055226
0.526020 0.422590 0.043042
0.454530 0.567470 0.044233
0.461460 0.553600 0.019949
0.601130 0.513730 0.046292
0.501070 0.460050 0.006730
0.562380 0.457110 0.018443
0.528460 0.582610 0.032907
0.454850 0.489190 0.016650
0.556680 0.497700 0.005422
0.544130 0.434760 0.029272
0.537200 0.489180 0.007534
0.507390 0.446700 0.011972
0.557150 0.441270 0.029202
0.599690 0.502380 0.043727
0.436530 0.485970 0.041056
0.492620 0.462310 0.010016
0.496300 0.511540 0.007548
0.541160 0.588270 0.045118
0.474720 0.524750 0.008566
0.522370 0.539810 0.007589
0.603520 0.519300 0.057494
0.512370 0.445530 0.012503
0.536340 0.508660 0.003746
0.434150 0.535610 0.044898
0.543590 0.426910 0.050246
0.598490 0.484650 0.047325
0.576420 0.500340 0.016522
0.457790 0.536030 0.017697
0.555440 0.431100 0.045937
0.536030 0.592030 0.058507
0.589050 0.527560 0.033734
0.448420 0.455030 0.048943
0.476990 0.463220 0.010134
0.497130 0.474980 0.007641
0.506420 0.437210 0.019645
0.550400 0.431790 0.046595
0.576290 0.558630 0.040357
0.540320 0.421360 0.054466
0.469630 0.510990 0.008907
0.457520 0.459720 0.029126
0.491410 0.491110 0.002695
0.428950 0.503280 0.053049
0.538070 0.438590 0.021226
0.525000 0.472880 0.004679
0.592160 0.514360 0.034498
0.458240 0.569150 0.049275
0.517580 0.550480 0.008595
0.593380 0.481190 0.038399
0.529980 0.591210 0.052474
0.524790 0.518980 0.007550
0.529570 0.497950 0.003740
0.490870 0.422980 0.048997
0.553560 0.542160 0.008026
0.495590 0.458620 0.007759
0.447030 0.500490 0.021373
0.479710 0.582080 0.046311
0.492040 0.471860 0.008211
0.426510 0.503990 0.051314
0.539680 0.458190 0.012106
0.495940 0.535240 0.004662
0.596090 0.505140 0.035592
0.433770 0.501730 0.040390
0.563600 0.549120 0.018619
0.488050 0.456560 0.009830
0.453640 0.511060 0.015953
0.535900 0.524380 0.003424
0.451940 0.474270 0.020358
0.568150 0.552300 0.024123
0.470890 0.447420 0.028664
0.430460 0.480650 0.058543
0.458070 0.576180 0.056664
0.577980 0.447440 0.056394
0.580190 0.531900 0.023696
0.445050 0.532420 0.024409
0.538790 0.592550 0.054756
0.484250 0.433630 0.037639
0.466070 0.498990 0.010005
0.439380 0.469410 0.049335
0.561680 0.554540 0.016626
0.574930 0.454750 0.031398
0.483030 0.475090 0.005772
0.585780 0.550620 0.039233
0.593630 0.468540 0.058045
0.456840 0.521490 0.011388
0.557890 0.428520 0.056171
0.441240 0.546550 0.039345
0.593750 0.521050 0.040004
0.454240 0.445300 0.055256
0.518760 0.480370 0.007530
0.508610 0.591050 0.048386
0.555430 0.434470 0.046176
0.499990 0.427160 0.033942
0.502160 0.571450 0.015792
0.552320 0.555080 0.012317
0.507060 0.419090 0.051897
0.504350 0.573610 0.021276
0.512250 0.468900 0.007773
0.525890 0.568090 0.016422
0.449110 0.478780 0.025379
0.448610 0.509420 0.016059
0.468040 0.553650 0.015928
0.440540 0.465400 0.051514
0.509390 0.446760 0.015299
0.441760 0.539300 0.032310
0.466950 0.564110 0.029872
0.597280 0.475100 0.058535
0.497780 0.452310 0.013357
0.558270 0.435930 0.046063
0.559870 0.442910 0.029545
0.531390 0.555260 0.010677
0.437590 0.519050 0.035080
0.482730 0.587930 0.048384
0.558510 0.520050 0.005965
0.447480 0.455860 0.041530
0.482900 0.445140 0.018613
0.449360 0.566360 0.051372
0.514330 0.429440 0.028697
0.493620 0.532930 0.004652
0.590650 0.522520 0.029127
0.483730 0.464240 0.011236
0.488230 0.428690 0.045109
0.457060 0.491560 0.014840
0.469940 0.553430 0.018557
0.562600 0.570100 0.037851
0.444340 0.543210 0.036940
0.524770 0.577890 0.021281
0.575200 0.467940 0.026214
0.566790 0.531480 0.013651
0.454780 0.441730 0.058550
0.464020 0.562900 0.031457
0.487340 0.468810 0.009281
0.601540 0.495840 0.049822
0.454140 0.502470 0.015286
0.540910 0.551600 0.007783
0.537590 0.582340 0.037166
0.473310 0.433870 0.048148
0.579020 0.496450 0.018786
0.532620 0.550060 0.009274
0.452210 0.457690 0.032106
0.448460 0.516350 0.016569
0.503000 0.536400 0.007560
0.451530 0.560560 0.037662
0.461230 0.540560 0.013798
0.589880 0.548640 0.054814
0.543090 0.422050 0.058398
0.592250 0.545260 0.056920
0.598580 0.514010 0.040360
0.432280 0.488500 0.050272
0.562810 0.543350 0.015279
0.515190 0.568160 0.012473
0.590970 0.532830 0.032980
0.481010 0.431800 0.043556
0.456250 0.447860 0.038624
0.500310 0.527790 0.003758
0.495780 0.563390 0.014631
0.477610 0.433860 0.042311
0.508710 0.586630 0.032148
0.568780 0.466650 0.021026
0.481490 0.559210 0.016306
0.471520 0.486850 0.009478
0.480310 0.543750 0.007335
0.503750 0.482880 0.003734
0.460420 0.502940 0.008651
0.472010 0.543760 0.012826
0.493090 0.583440 0.032085
0.467260 0.514620 0.006540
0.603420 0.502080 0.054427
0.594240 0.542630 0.058232
0.539490 0.478820 0.007715
0.486870 0.440860 0.025575
0.566690 0.434060 0.054862
0.493930 0.559840 0.009903
0.602680 0.518790 0.053639
0.553980 0.573010 0.033535
0.498700 0.428530 0.031977
0.481420 0.569500 0.020602
0.529600 0.448570 0.011707
0.538630 0.570070 0.017307
0.553050 0.429600 0.046677
0.596840 0.472300 0.054482
0.593010 0.520520 0.032237
0.479450 0.502490 0.007629
0.505600 0.471580 0.004712
0.521410 0.583170 0.033110
0.519900 0.589650 0.038884
0.488420 0.440840 0.020582
0.591060 0.473890 0.038658
0.472730 0.496130 0.008495
0.488490 0.563310 0.016721
0.531720 0.530790 0.000237
0.463470 0.567860 0.038773
0.499800 0.510940 0.003749
0.522780 0.485140 0.003734
0.575510 0.533490 0.020074
0.587350 0.536650 0.030320
0.544660 0.554640 0.009727
0.544610 0.500950 0.000221
0.480000 0.566490 0.018510
0.473720 0.551300 0.015434
0.464340 0.577940 0.057342
0.575230 0.560990 0.042083
0.432060 0.525270 0.041684
0.466770 0.526880 0.007794
0.570690 0.478060 0.016930
0.578630 0.567170 0.051319
0.593290 0.476530 0.049384
0.485600 0.543450 0.009283
0.489980 0.506170 0.003747
0.547210 0.585170 0.050817
0.482110 0.551730 0.009192
0.583920 0.522840 0.020663
0.444460 0.475040 0.033894
0.567640 0.448550 0.030935
0.458490 0.564200 0.033546
0.436090 0.478620 0.038876
0.547260 0.582790 0.044763
0.476150 0.587490 0.056360
0.559010 0.550480 0.013005
0.566770 0.438340 0.045583
0.446660 0.494200 0.023012
0.585880 0.472290 0.036381
0.515630 0.581690 0.025194
0.520300 0.537480 0.002990
0.598720 0.520180 0.043472
0.487570 0.584070 0.035454
0.443250 0.511250 0.025807
0.587490 0.480960 0.034186
0.484060 0.535810 0.005322
0.580230 0.457760 0.043250
0.432120 0.480730 0.055505
0.530770 0.456130 0.011341
0.599090 0.481240 0.058574
0.575100 0.572850 0.054860
0.581160 0.537230 0.023004
0.604150 0.503940 0.056498
0.557830 0.519590 0.008790
0.435500 0.529190 0.044339
0.481440 0.440770 0.023454
0.518140 0.561910 0.012396
0.428150 0.526970 0.058560
0.515600 0.424230 0.037702
0.436860 0.550710 0.055426
0.474940 0.514180 0.005065
0.603760 0.497940 0.057698
0.463760 0.443940 0.034190
0.447180 0.452140 0.048270
0.444520 0.453320 0.051880
0.466240 0.473980 0.013930
0.456210 0.473140 0.021140
0.445560 0.461170 0.037420
0.518860 0.487950 0.003736
0.519260 0.445520 0.015782
0.473100 0.584340 0.051566
0.489470 0.513220 0.007549
0.597800 0.524020 0.043120
0.487200 0.498800 0.007542
0.569560 0.513580 0.012337
0.524210 0.435680 0.021355
0.448430 0.533910 0.021170
0.447120 0.531510 0.026263
0.587320 0.538070 0.037291
0.560800 0.579140 0.054168
0.497540 0.558820 0.011992
0.525140 0.458270 0.010133
0.470270 0.531640 0.007430
0.440660 0.515630 0.024782
0.482070 0.496420 0.007582
0.509640 0.578520 0.020958
0.523260 0.595430 0.054875
0.580770 0.560100 0.051294
0.456690 0.554630 0.030231
0.597540 0.524160 0.050831
0.461060 0.439330 0.045879
0.563020 0.518430 0.007059
0.577110 0.563780 0.042270
0.521750 0.595190 0.058535
0.428760 0.521390 0.057504
0.599840 0.501140 0.052907
0.509660 0.584300 0.033789
0.545700 0.539290 0.005784
0.503470 0.557840 0.007931
0.531550 0.585980 0.040213
0.527040 0.437250 0.024685
0.589740 0.479910 0.032638
0.516410 0.576800 0.019588
0.503290 0.588940 0.045733
0.502600 0.444530 0.017221
0.506250 0.570360 0.014350
0.451180 0.449670 0.044686
0.483760 0.581600 0.041002
0.548780 0.589850 0.057367
0.474440 0.429210 0.048593
0.588980 0.482300 0.030156
0.571830 0.551360 0.022137
0.498990 0.431210 0.027813
0.443890 0.507430 0.024778
0.529390 0.587650 0.036105
0.473570 0.480730 0.009736
0.557830 0.525130 0.009283
0.580730 0.503440 0.019890
0.425450 0.511420 0.056273
0.566070 0.460810 0.022253
0.479970 0.579280 0.033767
0.549180 0.458740 0.014413
0.453150 0.455280 0.039970
0.567540 0.453380 0.030595
0.551310 0.437280 0.030700
0.501350 0.468110 0.008087
0.480220 0.509720 0.007606
0.552570 0.584530 0.054117
0.541500 0.520620 0.007550
0.461380 0.454570 0.029893
0.440510 0.555170 0.053478
0.469680 0.572550 0.031566
0.545890 0.428140 0.041990
0.515050 0.595760 0.054246
0.581130 0.558550 0.049059
0.559520 0.541180 0.012985
0.576720 0.549790 0.025390
0.575500 0.522000 0.016966
0.506260 0.536520 0.000242
0.565680 0.568320 0.038273
0.505280 0.585090 0.036612
0.509080 0.582080 0.030382
0.540500 0.455800 0.010117
0.441670 0.501080 0.022667
0.558920 0.477140 0.011505
0.581370 0.562410 0.048046
0.459550 0.555950 0.023343
0.449720 0.458110 0.034899
0.519290 0.581270 0.029920
0.470960 0.462010 0.016862
0.594060 0.485720 0.043732
0.518450 0.476170 0.001729
0.469110 0.571350 0.036563
0.571800 0.569310 0.041524
0.513240 0.494810 0.007538
0.565500 0.438630 0.042885
0.466020 0.479840 0.009331
0.452590 0.554940 0.036190
0.470480 0.468310 0.010889
0.532600 0.509600 0.003746
0.582020 0.447910 0.058414
0.470240 0.551200 0.013414
0.442220 0.464030 0.048888
0.530350 0.477820 0.004605
0.587370 0.493770 0.023349
0.477380 0.578810 0.041775
0.434090 0.498910 0.040703
0.452740 0.459440 0.035241
0.502650 0.483720 0.007533
0.469720 0.435360 0.042166
0.456930 0.574350 0.054546
0.434520 0.491470 0.036231
0.547210 0.491710 0.007626
0.496310 0.523170 0.003756
0.466050 0.579460 0.047889
0.505590 0.479190 0.000212
0.488670 0.459260 0.008656
0.558150 0.446130 0.029420
0.462630 0.464150 0.017064
0.490100 0.494150 0.007539
0.557290 0.577240 0.044352
0.544070 0.429010 0.038436
0.481130 0.498480 0.004670
0.528480 0.581590 0.026130
0.555880 0.443600 0.025411
0.592430 0.511670 0.034240
0.503370 0.578340 0.026804
0.553860 0.466040 0.009761
0.496560 0.440950 0.017870
0.508610 0.546860 0.008048
0.455330 0.463130 0.023479
0.448240 0.471540 0.025809
0.429520 0.510460 0.044144
0.579640 0.535170 0.024824
0.448970 0.463520 0.035787
0.455630 0.528180 0.017133
0.584730 0.544730 0.038576
0.584090 0.509690 0.018698
0.479430 0.442000 0.028371
0.583060 0.476420 0.024801
0.447630 0.467910 0.028899
0.596150 0.488490 0.039008
0.486190 0.488490 0.004637
0.460750 0.565790 0.033022
0.506930 0.459210 0.006561
0.530240 0.558800 0.011930
0.491660 0.565970 0.017451
0.459530 0.480380 0.012424
0.598040 0.486970 0.044319
0.458460 0.454370 0.033603
0.478070 0.425590 0.053932
0.508440 0.462590 0.005729
0.594470 0.511040 0.032014
0.521450 0.489810 0.007535
0.469550 0.545850 0.011198
0.579840 0.552890 0.038060
0.473870 0.505280 0.008054
0.594370 0.524360 0.036044
0.539380 0.589620 0.046954
0.479980 0.527950 0.005116
0.520190 0.453630 0.008316
0.490950 0.432730 0.035201
0.566210 0.486220 0.012479
0.467220 0.446300 0.027840
0.483110 0.587370 0.055764
0.575780 0.460080 0.033326
0.550260 0.566250 0.018807
0.450070 0.490570 0.016437
0.465260 0.580160 0.058568
0.516160 0.473850 0.007530
0.473430 0.556230 0.014649
0.548560 0.426750 0.048123
0.535830 0.433130 0.032789
0.491160 0.424890 0.043953
0.561320 0.576920 0.049492
0.475640 0.562090 0.021055
0.543440 0.432210 0.032500
0.513310 0.586670 0.038631
0.482940 0.494250 0.004651
0.575360 0.444230 0.048980
0.494990 0.543590 0.005271
0.528110 0.583790 0.029300
0.537550 0.475060 0.007865
0.549910 0.429400 0.051968
0.556310 0.430770 0.057231
0.457790 0.557320 0.026180
0.561310 0.579680 0.047292
0.521230 0.435160 0.025734
0.443840 0.519530 0.021253
0.547380 0.461840 0.012461
0.524010 0.513360 0.003749
0.515210 0.533270 0.003760
0.547050 0.496810 0.004642
0.427240 0.526860 0.056012
0.434990 0.488610 0.036449
0.485370 0.572700 0.026415
0.581840 0.451120 0.057581
0.482290 0.568860 0.023922
0.576910 0.562580 0.047759
0.497480 0.580250 0.031142
0.544920 0.443640 0.019676
0.570610 0.449240 0.039747
0.484040 0.560380 0.016242
0.507990 0.537130 0.003234
0.491970 0.437910 0.022459
0.461340 0.514450 0.011724
0.563920 0.468010 0.013237
0.565140 0.445360 0.032232
0.466760 0.448330 0.025849
0.522150 0.440430 0.016417
0.458080 0.487980 0.011204
0.435890 0.467560 0.051949
0.559710 0.470100 0.010445
0.588460 0.477200 0.032043
0.487280 0.499300 0.000224
0.510070 0.444430 0.016947
0.591880 0.521880 0.036688
0.540610 0.503730 0.003743
0.505490 0.544110 0.004898
0.472690 0.466440 0.010669
0.573510 0.463890 0.027322
0.449890 0.472740 0.023213
0.565790 0.555490 0.020146
0.576500 0.494280 0.016945
0.513130 0.446740 0.015167
0.529750 0.569730 0.018425
0.577170 0.497660 0.017203
0.570870 0.525030 0.010898
0.488260 0.559340 0.010982
0.464430 0.450040 0.025857
0.576440 0.460590 0.028298
0.509870 0.429960 0.028341
0.500130 0.478670 0.004026
0.578140 0.496290 0.014352
0.504280 0.523970 0.007554
0.524920 0.528910 0.007555
0.464360 0.440000 0.047770
0.442370 0.550550 0.050336
0.495120 0.443670 0.016029
0.505960 0.590600 0.040865
0.441060 0.538740 0.039402
0.473300 0.518640 0.008459
0.451050 0.489920 0.019585
0.529380 0.594990 0.054706
0.442000 0.456280 0.051672
0.512800 0.428510 0.036038
0.543020 0.548650 0.007351
0.450670 0.483260 0.017544
0.472790 0.579730 0.048825
0.477220 0.479060 0.006188
0.533920 0.422650 0.056152
0.493340 0.422670 0.047584
0.437210 0.473290 0.049969
0.542680 0.492620 0.003592
0.531220 0.420610 0.051105
0.524520 0.587920 0.042842
0.458400 0.574440 0.051653
0.585060 0.474760 0.028158
0.441410 0.495230 0.029261
0.531580 0.501530 0.007540
0.523000 0.576450 0.019653
0.598520 0.485040 0.056377
0.470760 0.477320 0.008012
0.502790 0.423570 0.040859
0.534190 0.578560 0.024420
0.555540 0.538670 0.010853
0.567190 0.514410 0.011379
0.559700 0.443850 0.033779
0.458520 0.552580 0.021947
0.583660 0.531800 0.022797
0.498170 0.496180 0.007540
0.488770 0.589590 0.046745
0.430520 0.480700 0.050848
0.597570 0.500840 0.046581
0.521080 0.469920 0.007716
0.528350 0.522950 0.007552
0.452190 0.461470 0.028161
0.494840 0.468830 0.005406
0.567520 0.550420 0.018066
0.561110 0.549010 0.017056
0.554750 0.553640 0.012406
0.500210 0.456390 0.011154
0.479130 0.436170 0.030656
0.488930 0.573410 0.025227
0.513740 0.555750 0.006778
0.582640 0.531590 0.026143
0.470150 0.495240 0.006064
0.488600 0.516850 0.002224
0.497630 0.463370 0.006220
0.514020 0.464560 0.005332
0.599330 0.507710 0.050158
0.532060 0.475890 0.007613
0.595700 0.481430 0.043159
0.570580 0.483690 0.011883
0.480960 0.577600 0.036251
0.576750 0.565500 0.052946
0.508560 0.451440 0.012624
0.466050 0.580830 0.051523
0.576650 0.568650 0.049799
0.484780 0.435750 0.033654
0.593160 0.468560 0.047536
0.475470 0.576620 0.033103
0.469080 0.577150 0.039564
0.486600 0.528100 0.004704
0.483370 0.424900 0.050705
0.555560 0.494540 0.005411
0.477320 0.487170 0.008314
0.598810 0.493740 0.051219
0.528490 0.504930 0.007542
0.488500 0.489950 0.003206
0.478040 0.534440 0.009057
0.472180 0.565480 0.026514
0.444080 0.453110 0.058512
0.536740 0.484890 0.007531
0.556470 0.580030 0.041372
0.547520 0.452720 0.017305
0.580580 0.513740 0.019741
0.532080 0.560740 0.013147
0.454810 0.493930 0.015985
0.476420 0.437190 0.037838
0.573260 0.521090 0.015264
0.458410 0.520020 0.013629
0.482540 0.503600 0.007545
0.587790 0.471290 0.034214
0.506880 0.541350 0.004715
0.589250 0.482620 0.036176
0.514460 0.548280 0.008182
0.519010 0.553880 0.006394
0.562180 0.504310 0.009469
0.545850 0.544920 0.006836
0.464360 0.538450 0.011338
0.511840 0.422920 0.048775
0.584280 0.479920 0.029822
0.444090 0.522910 0.021864
0.478430 0.549600 0.012860
0.444810 0.496560 0.020208
0.595420 0.483600 0.040991
0.570500 0.559660 0.033425
0.548590 0.586970 0.057667
0.545700 0.483860 0.007828
0.523890 0.439580 0.021498
0.544910 0.589780 0.052507
0.441240 0.518680 0.029143
0.577290 0.559000 0.035824
0.429720 0.509110 0.051852
0.584570 0.552010 0.045507
0.540760 0.559940 0.010906
0.574170 0.458810 0.026958
0.594470 0.535310 0.041443
0.550330 0.496940 0.007674
0.485240 0.496070 0.003605
0.465720 0.577610 0.053419
0.522250 0.505560 0.003745
0.424980 0.503020 0.056062
0.491330 0.577010 0.023449
0.455930 0.454310 0.037091
0.592150 0.506170 0.034367
0.498770 0.563370 0.014249
0.561350 0.562820 0.026944
0.589340 0.535650 0.032590
0.600510 0.490000 0.047867
0.477350 0.524300 0.005152
0.579130 0.463840 0.028984
0.462160 0.441580 0.039928
0.431650 0.481800 0.047045
0.466430 0.450160 0.028914
0.579910 0.567640 0.058204
0.494620 0.487420 0.002301
0.495820 0.432400 0.033037
0.573140 0.494140 0.014770
0.523350 0.554220 0.009562
0.496860 0.583090 0.036030
0.496730 0.584710 0.039232
0.496850 0.496050 0.003742
0.480130 0.551970 0.013203
0.572880 0.471320 0.017762
0.506200 0.588550 0.036530
0.457230 0.507380 0.013545
0.510250 0.455050 0.007814
0.594220 0.530470 0.045391
0.459160 0.471870 0.019195
0.470080 0.575970 0.036487
0.575480 0.505140 0.012153
0.477510 0.459240 0.011823
0.511870 0.421580 0.052728
0.470070 0.568700 0.026751
0.551200 0.433700 0.036400
0.471780 0.580240 0.043113
0.535080 0.447160 0.016903
0.490340 0.507280 0.007546
0.557770 0.517110 0.005695
0.597840 0.478210 0.051513
0.537600 0.513130 0.007546
0.525770 0.503160 0.003743
0.443500 0.555280 0.055550
0.538240 0.492350 0.007535
0.468720 0.573680 0.034160
0.437030 0.495630 0.036188
0.462340 0.466920 0.019525
0.471370 0.507090 0.008498
0.558110 0.474250 0.011892
0.499570 0.575110 0.019575
0.434300 0.536560 0.054057
0.509390 0.512770 0.003749
0.561670 0.436520 0.040870
0.487580 0.504290 0.003651
0.567260 0.521600 0.008840
0.460660 0.452920 0.032398
0.527490 0.444650 0.017619
0.570930 0.536300 0.013978
0.475590 0.450680 0.018051
0.537620 0.465780 0.009313
0.500180 0.567640 0.016895
0.454780 0.556250 0.028717
0.523690 0.418700 0.052254
0.434830 0.539630 0.055700
0.474020 0.489640 0.005664
0.448010 0.553280 0.035482
0.486460 0.492510 0.007539
0.520740 0.433430 0.027873
0.581590 0.495490 0.021213
0.469120 0.560140 0.024107
0.476060 0.568400 0.022185
0.460390 0.440090 0.053914
0.431730 0.478390 0.048735
0.545640 0.431790 0.034878
0.528450 0.531050 0.003110
0.522550 0.589840 0.039707
0.462510 0.572610 0.040898
0.527490 0.502380 0.007541
0.556930 0.559250 0.020785
0.458380 0.465930 0.018938
0.571720 0.538590 0.019096
0.519090 0.556570 0.010244
0.452960 0.560160 0.034850
0.551030 0.429690 0.044126
0.594550 0.472720 0.056972
0.580510 0.546580 0.033109
0.447960 0.461240 0.039872
0.565290 0.573710 0.048193
0.574430 0.544820 0.024383
0.466460 0.496130 0.010062
0.592170 0.485370 0.039948
0.532370 0.483610 0.007531
0.559000 0.510590 0.008647
0.514810 0.482660 0.007532
0.546800 0.446420 0.022144
0.489550 0.440830 0.024604
0.531920 0.505310 0.007542
0.507850 0.474350 0.007535
0.469620 0.498120 0.006054
0.572200 0.540450 0.016324
0.462210 0.453570 0.024964
0.435650 0.506760 0.031261
0.505370 0.448900 0.014120
0.471690 0.564740 0.021672
0.522910 0.437200 0.019513
0.519740 0.580420 0.023853
0.522420 0.490900 0.003737
0.587070 0.505660 0.022129
0.600080 0.532310 0.054040
0.483780 0.432390 0.033903
0.471280 0.469920 0.013318
0.566930 0.491300 0.012011
0.466380 0.460000 0.020984
0.487040 0.549460 0.010432
0.547030 0.563260 0.015045
0.524540 0.430620 0.033186
0.590180 0.478450 0.040658
0.482030 0.585930 0.053113
0.444160 0.545010 0.032978
0.578440 0.512980 0.017784
0.487730 0.489250 0.007537
0.523920 0.590500 0.049227
0.584150 0.548020 0.040498
0.509750 0.591900 0.050729
0.578080 0.540800 0.021639
0.548640 0.527180 0.007938
0.588100 0.550310 0.043673
0.563460 0.451570 0.023754
0.581510 0.558510 0.041842
0.510510 0.518030 0.007550
0.518320 0.460900 0.009009
0.435760 0.540440 0.044929
0.530700 0.421790 0.047434
0.580110 0.542420 0.029650
0.497350 0.418460 0.055978
0.538250 0.460700 0.010878
0.436160 0.548570 0.053386
0.437440 0.482370 0.040655
0.533890 0.584000 0.031884
0.459670 0.571690 0.043642
0.508600 0.441000 0.016002
0.544270 0.507060 0.007542
0.586250 0.533430 0.031938
0.508750 0.504900 0.003745
0.466020 0.565840 0.032856
0.476840 0.489890 0.008181
0.564880 0.456430 0.020636
0.451800 0.444400 0.053203
0.463260 0.454670 0.027804
0.600100 0.511820 0.043260
0.526130 0.558110 0.007937
0.555170 0.571260 0.026907
0.522200 0.520370 0.007551
0.572090 0.566600 0.038063
0.575100 0.445990 0.044987
0.428600 0.483060 0.058169
0.450390 0.454950 0.038045
0.493810 0.474210 0.007848
0.497530 0.520700 0.003754
0.534410 0.522360 0.007551
0.457700 0.447850 0.043343
0.603290 0.495100 0.058148
0.562550 0.580220 0.050579
0.498130 0.443110 0.019517
0.469250 0.437670 0.045785
0.522360 0.585730 0.031818
0.529500 0.590100 0.049096
0.562340 0.529200 0.011245
0.448510 0.472380 0.029969
0.472960 0.435300 0.045573
0.542770 0.571290 0.019689
0.508610 0.499810 0.007541
0.443530 0.553660 0.044028
0.514660 0.441760 0.015075
0.496300 0.455660 0.008798
0.506580 0.485480 0.003736
0.550590 0.481470 0.005627
0.546970 0.580520 0.033403
0.495190 0.470850 0.008055
0.538630 0.481330 0.004670
0.511310 0.521410 0.007552
0.490570 0.516100 0.007550
0.571990 0.457160 0.025746
0.469500 0.438910 0.042946
0.446830 0.546020 0.030178
0.542930 0.456960 0.013431
0.592090 0.487280 0.032429
0.575700 0.445560 0.056091
0.457420 0.569640 0.051975
0.576280 0.542500 0.025110
0.552230 0.500950 0.007764
0.468960 0.476830 0.011956
0.580840 0.480640 0.025132
0.513620 0.555740 0.009855
0.498140 0.467990 0.005313
0.547010 0.426440 0.056339
0.585890 0.468600 0.033951
0.488730 0.478470 0.007801
0.582860 0.558610 0.044444
0.525160 0.508050 0.003746
0.577030 0.530610 0.020144
0.511980 0.588300 0.035219
0.559710 0.514810 0.009011
0.441960 0.545130 0.036509
0.518010 0.545440 0.004935
0.427720 0.499400 0.057603
0.498240 0.493050 0.007538
0.526630 0.420900 0.047613
0.511630 0.440780 0.016030
0.464740 0.447220 0.034324
0.510110 0.422380 0.042505
0.526260 0.469620 0.004905
0.438000 0.472450 0.041210
0.561660 0.448750 0.024979
0.540910 0.575710 0.028542
0.584170 0.537670 0.026730
0.579550 0.553420 0.032203
0.477740 0.570370 0.023375
0.570680 0.445450 0.039050
0.461840 0.436650 0.050902
0.431480 0.490450 0.043082
0.524130 0.464580 0.005513
0.489110 0.438160 0.028010
0.428220 0.497870 0.047541
0.598570 0.506650 0.040539
0.584170 0.497810 0.023803
0.463070 0.458650 0.024639
0.450590 0.474010 0.026381
0.448240 0.544210 0.026898
0.496020 0.461610 0.009855
0.558680 0.583540 0.058619
0.430590 0.483000 0.049309
0.541770 0.587690 0.052744
0.446490 0.450070 0.058421
0.527620 0.432490 0.031203
0.483960 0.583870 0.045560
0.531840 0.545600 0.008326
0.506050 0.442570 0.018650
0.548630 0.442500 0.022615
0.440210 0.461870 0.047976
0.503590 0.576540 0.024565
0.479890 0.449250 0.020988
0.585260 0.465050 0.036697
0.547480 0.498640 0.007566
0.557500 0.473510 0.008677
0.496380 0.482020 0.002490
0.440850 0.487080 0.032584
0.501320 0.523840 0.007554
0.561920 0.574130 0.044274
0.512960 0.456970 0.007119
0.593820 0.499850 0.032107
0.539510 0.486640 0.007532
0.522470 0.423560 0.046804
0.511500 0.498270 0.003742
0.577100 0.535740 0.018366
0.583730 0.495760 0.019213
0.498650 0.424830 0.046008
0.531200 0.443150 0.019517
0.481940 0.436600 0.033815
0.575850 0.463540 0.025326
0.572480 0.556910 0.032830
0.503980 0.454400 0.008266
0.524520 0.592950 0.057033
0.428580 0.494390 0.048471
0.466020 0.473430 0.010874
0.502510 0.594900 0.054151
0.478590 0.512320 0.007665
0.575200 0.477680 0.020374
0.564560 0.570680 0.041080
0.591500 0.467170 0.045853
0.571630 0.576480 0.056788
0.504600 0.518560 0.007551
0.556180 0.446210 0.027545
0.543930 0.493320 0.007535
0.464290 0.526130 0.008636
0.546700 0.563510 0.018862
0.569480 0.532940 0.012104
0.453050 0.558120 0.038937
0.506790 0.496080 0.007539
0.600580 0.481790 0.056274
0.465330 0.500930 0.007036
0.545970 0.514930 0.007546
0.509870 0.481320 0.007531
0.448190 0.563620 0.057827
0.445410 0.552510 0.046405
0.463720 0.571640 0.037610
0.503300 0.540140 0.007629
0.586700 0.453420 0.056828
0.574840 0.509610 0.015028
0.595940 0.540800 0.051345
0.506020 0.561790 0.012610
0.569860 0.563910 0.031638
0.439850 0.539070 0.042137
0.510920 0.529910 0.003758
0.557000 0.485170 0.006366
0.521230 0.585510 0.037311
0.540840 0.428150 0.037524
0.524110 0.423760 0.039587
0.466230 0.453200 0.021597
0.572550 0.558610 0.029262
0.544810 0.557650 0.011076
0.524540 0.489030 0.003736
0.595000 0.494100 0.041441
0.558840 0.555680 0.019288
0.522050 0.458890 0.006667
0.439520 0.516720 0.031589
0.571710 0.455160 0.032836
0.493950 0.434040 0.026312
0.459990 0.506580 0.012081
0.517220 0.575960 0.022947
0.531320 0.575850 0.024773
0.564390 0.440710 0.044959
0.532620 0.591650 0.055425
0.596390 0.470360 0.058207
0.436450 0.508410 0.035889
0.439990 0.458700 0.058544
0.435140 0.527220 0.036775
0.555710 0.514790 0.005268
0.582840 0.490080 0.019554
0.525130 0.482970 0.007531
0.482150 0.503400 0.004566
0.588930 0.466580 0.041404
0.518870 0.579280 0.027106
0.587470 0.527340 0.026003
0.463080 0.499170 0.011038
0.578430 0.511800 0.013962
0.583430 0.481200 0.023304
0.473910 0.550100 0.011338
0.517490 0.441420 0.019013
0.496450 0.430630 0.035605
0.463650 0.482260 0.013152
0.509660 0.573890 0.020501
0.564690 0.498470 0.007305
0.540870 0.493420 0.007536
0.571660 0.444300 0.042488
0.447100 0.507290 0.017251
0.495780 0.539700 0.007788
0.524210 0.424760 0.044666
0.513220 0.524240 0.007553
0.598760 0.489540 0.043947
0.435800 0.510580 0.037427
0.517460 0.535430 0.007559
0.450540 0.448780 0.047462
0.602380 0.491730 0.053084
0.477050 0.508040 0.007756
0.533020 0.437190 0.026195
0.586200 0.481490 0.031832
0.522200 0.536880 0.000586
0.453910 0.509440 0.012216
0.576160 0.478330 0.017085
0.590740 0.507180 0.026638
0.532070 0.566120 0.012779
0.562290 0.448320 0.031090
0.562630 0.581280 0.053389
0.576640 0.451040 0.038535
0.568030 0.478340 0.015240
0.446620 0.480520 0.022605
0.539700 0.545300 0.009069
0.454450 0.550400 0.024569
0.507050 0.428480 0.030870
0.451650 0.552250 0.034954
0.489840 0.422790 0.058445
0.564820 0.525540 0.011494
0.467630 0.530470 0.007947
0.458940 0.564600 0.039864
0.522390 0.570280 0.014241
0.532900 0.528310 0.000249
0.520300 0.592260 0.045097
0.554440 0.511390 0.005028
0.553940 0.576840 0.039482
0.582620 0.482420 0.026545
0.524210 0.519120 0.003752
0.515050 0.589530 0.038052
0.482590 0.534400 0.008294
0.470040 0.522080 0.006380
0.562830 0.507390 0.006568
0.502070 0.514220 0.003751
0.526190 0.586210 0.039316
0.575160 0.491950 0.016552
0.433290 0.523270 0.037754
0.520470 0.564040 0.013582
0.550870 0.438730 0.028424
0.434200 0.546050 0.054382
0.511400 0.594710 0.050258
0.562530 0.530190 0.008327
0.455780 0.440190 0.052581
0.439850 0.458020 0.054165
0.578920 0.518550 0.015312
0.435000 0.503810 0.032073
0.587000 0.467280 0.044083
0.567760 0.449350 0.035882
0.449050 0.450130 0.057607
0.517810 0.592560 0.054248
0.479700 0.537320 0.009111
0.518610 0.542580 0.007662
0.490070 0.425500 0.051767
0.592280 0.533290 0.042205
0.558150 0.569190 0.032051
0.540090 0.468810 0.008913
0.444340 0.559160 0.050496
0.491140 0.517890 0.003753
0.470870 0.504810 0.005589
0.498460 0.514270 0.007549
0.558210 0.439410 0.032704
0.548070 0.427970 0.053345
0.566880 0.441610 0.047483
0.518240 0.483920 0.007532
0.508490 0.526040 0.007554
0.531520 0.435280 0.028293
0.440640 0.462300 0.055582
0.563780 0.436890 0.051703
0.575380 0.512950 0.012111
0.579210 0.543850 0.024478
0.573150 0.534730 0.018715
0.441820 0.532860 0.034475
0.578260 0.546990 0.025203
0.505080 0.477570 0.002500
0.507240 0.577920 0.025303
0.460260 0.568930 0.038112
0.437850 0.485270 0.038646
0.499740 0.569930 0.018778
0.459540 0.532090 0.015359
0.470850 0.584230 0.054439
0.594300 0.533410 0.047080
0.590230 0.511820 0.025567
0.497020 0.573630 0.018619
0.595220 0.466170 0.057075
0.444110 0.456430 0.056093
0.474210 0.574730 0.031137
0.510030 0.580210 0.027606
0.483760 0.504400 0.002226
0.589930 0.520450 0.032781
0.461070 0.537580 0.012758
0.566530 0.573320 0.041324
0.527940 0.472350 0.004725
0.583870 0.545970 0.032043
0.486130 0.521410 0.004292
0.426790 0.508210 0.051285
0.467760 0.575970 0.046168
0.514590 0.453430 0.008347
0.472950 0.499650 0.008340
0.476470 0.581190 0.047974
0.515770 0.448680 0.013848
0.515650 0.512780 0.007547
0.490730 0.420650 0.056134
0.562310 0.510140 0.006399
0.466020 0.442240 0.034480
0.572070 0.563500 0.034052
0.516010 0.438460 0.017802
0.503070 0.521160 0.007552
0.469070 0.440770 0.033662
0.488490 0.533430 0.004787
0.513030 0.477370 0.007529
0.543630 0.558730 0.014658
0.478460 0.557560 0.012966
0.476090 0.521130 0.008143
0.586510 0.488160 0.024158
0.459970 0.503180 0.011997
0.556160 0.529120 0.006337
0.511300 0.502090 0.003744
0.493220 0.562720 0.011452
0.575060 0.486700 0.017727
0.566970 0.565380 0.035398
0.482670 0.471200 0.006462
0.495000 0.473560 0.004895
0.484540 0.442430 0.024702
0.548850 0.429550 0.042121
0.565350 0.565790 0.028498
0.437820 0.550620 0.058602
0.456490 0.483420 0.016949
0.499240 0.594410 0.054695
0.580320 0.539970 0.023542
0.447220 0.457450 0.047128
0.579640 0.473490 0.022407
0.505600 0.424850 0.044826
0.434040 0.524470 0.044053
0.446900 0.560650 0.056028
0.579920 0.485820 0.022271
0.598160 0.537810 0.053358
0.543370 0.486290 0.004682
0.481100 0.580710 0.041885
0.590100 0.531430 0.036981
0.518220 0.436320 0.019791
0.476890 0.541330 0.010564
0.538100 0.426640 0.046995
0.591990 0.550970 0.054475
0.495830 0.568200 0.017970
0.457070 0.565400 0.037051
0.547300 0.578400 0.030172
0.490270 0.568740 0.016223
0.595670 0.495830 0.035922
0.555280 0.550900 0.011422
0.429010 0.526500 0.050251
0.458530 0.456830 0.025779
0.465190 0.455500 0.025199
0.452660 0.472300 0.025018
0.434650 0.533210 0.049851
0.429430 0.479680 0.054875
0.565190 0.472220 0.012430
0.513110 0.423810 0.046275
0.499830 0.493270 0.003740
0.539190 0.573750 0.025373
0.425730 0.496180 0.056130
0.505990 0.445580 0.016285
0.589230 0.508710 0.024501
0.529460 0.440180 0.017887
0.453050 0.524230 0.018054
0.549780 0.535890 0.008978
0.436070 0.523920 0.039394
0.447430 0.524070 0.018908
0.532730 0.429910 0.037384
0.541760 0.446680 0.019709
0.510330 0.514220 0.007548
0.464860 0.476480 0.013965
0.574450 0.552140 0.025196
0.539020 0.507710 0.003745
0.584530 0.469180 0.031415
0.448460 0.559230 0.049533
0.430610 0.485610 0.047731
0.546400 0.441960 0.026609
0.597530 0.503740 0.045999
0.492100 0.527190 0.000238
0.545590 0.468070 0.010078
0.469270 0.497520 0.009184
0.455850 0.446630 0.048884
0.526420 0.547420 0.008328
0.568640 0.452020 0.033409
0.440580 0.548650 0.051611
0.529250 0.463450 0.008925
0.429430 0.512520 0.053365
0.546050 0.585520 0.042517
0.481860 0.434270 0.031871
0.557970 0.563130 0.020487
0.577990 0.532720 0.021960
0.450460 0.547780 0.032360
0.498300 0.423930 0.040753
0.568920 0.571270 0.040464
0.579040 0.568270 0.054612
0.473440 0.583590 0.058215
0.518810 0.527690 0.007555
0.587120 0.542750 0.034623
0.493870 0.570380 0.020171
0.526240 0.426190 0.042349
0.490150 0.528780 0.007557
0.521860 0.430260 0.032877
0.441940 0.521050 0.023574
0.484740 0.422830 0.055586
0.580090 0.447680 0.050583
0.562260 0.430470 0.056955
0.554010 0.434430 0.037585
0.565720 0.521080 0.011330
0.498630 0.531870 0.007558
0.472190 0.577810 0.045048
0.563230 0.442870 0.033278
0.488620 0.554940 0.012140
0.467880 0.578390 0.051711
0.471420 0.430020 0.051564
0.511820 0.428670 0.030119
0.550370 0.474820 0.006458
0.507330 0.584590 0.029347
0.504950 0.546260 0.008061
0.570780 0.467470 0.018104
0.474450 0.432280 0.050097
0.515700 0.444700 0.012895
0.445970 0.456130 0.043757
0.584760 0.524620 0.026593
0.578830 0.541220 0.027307
0.468660 0.581720 0.058508
0.496330 0.426960 0.036060
0.470840 0.520600 0.009088
0.560680 0.492170 0.006625
0.563940 0.450620 0.030135
0.463040 0.509510 0.010876
0.463120 0.567970 0.033147
0.597200 0.521060 0.040468
0.568090 0.519720 0.012226
0.436580 0.516700 0.030753
0.476910 0.447050 0.020358
0.523510 0.528280 0.003756
0.434130 0.495550 0.035397
0.493470 0.550800 0.006799
0.551170 0.460190 0.011116
0.479190 0.426860 0.049175
0.544310 0.443700 0.023596
0.548590 0.512320 0.004664
0.589680 0.497370 0.026052
0.536530 0.558700 0.012879
0.499370 0.585150 0.039053
0.535720 0.566250 0.017291
0.504170 0.426140 0.042052
0.483830 0.507150 0.001488
0.428800 0.496270 0.056156
0.581660 0.506260 0.016675
0.573170 0.476050 0.019561
0.440950 0.532920 0.030186
0.592140 0.534550 0.036292
0.535330 0.424250 0.052025
0.508960 0.567570 0.015566
0.492540 0.475670 0.004857
0.438670 0.493450 0.034123
0.490660 0.430960 0.038589
0.541090 0.496330 0.007537
0.601510 0.491610 0.050523
0.517080 0.456170 0.007299
0.521600 0.574990 0.022235
0.436090 0.484060 0.042891
0.523630 0.516460 0.003750
0.459080 0.445160 0.037960
0.530790 0.580550 0.030557
0.490930 0.579290 0.026469
0.568560 0.437540 0.050520
0.537740 0.530730 0.007564
0.456120 0.548420 0.026111
0.475140 0.505930 0.004990
0.514450 0.545080 0.007819
0.475080 0.522100 0.005392
0.543440 0.440610 0.026465
0.593540 0.473560 0.044339
0.459290 0.551480 0.024962
0.445780 0.525740 0.025532
0.573110 0.444190 0.045077
0.441780 0.477840 0.030173
0.494180 0.420950 0.051596
0.603800 0.512570 0.053486
0.577290 0.458580 0.031121
0.497030 0.492500 0.003740
0.456790 0.490950 0.011630
0.468010 0.566820 0.026675
0.599980 0.483290 0.052711
0.549830 0.467250 0.011357
0.439860 0.501040 0.024861
0.468750 0.444150 0.029282
0.546600 0.472670 0.009255
0.589510 0.525580 0.028351
0.572350 0.509580 0.013510
0.505950 0.589910 0.046852
0.589590 0.543760 0.047667
0.452400 0.500440 0.013158
0.566560 0.449700 0.028517
0.494550 0.523510 0.007554
0.459200 0.499920 0.009409
0.479630 0.582300 0.039383
0.593830 0.517070 0.032439
0.549670 0.533100 0.005590
0.587910 0.530350 0.032755
0.570080 0.440870 0.055383
0.574930 0.549170 0.023163
0.450630 0.471410 0.027876
0.517470 0.593330 0.056816
0.490780 0.480950 0.007606
0.530630 0.567380 0.016879
0.454850 0.451410 0.042852
0.482820 0.438860 0.024957
0.541830 0.434330 0.033785
0.558550 0.567690 0.025433
0.547430 0.424770 0.051895
0.595740 0.469480 0.054019
0.517670 0.478950 0.000212
0.584300 0.554180 0.040090
0.520560 0.593360 0.047991
0.534490 0.487460 0.003240
0.548010 0.530910 0.005142
0.543660 0.564320 0.014317
0.463470 0.544780 0.014154
0.551890 0.433630 0.044083
0.517590 0.493140 0.003739
0.490600 0.521050 0.001663
0.603160 0.493810 0.055318
0.483720 0.438090 0.030623
0.592990 0.509710 0.029743
0.448660 0.469390 0.031801
0.446850 0.487780 0.024275
0.459870 0.573160 0.046171
0.582250 0.543720 0.028144
0.432340 0.487400 0.042536
0.486800 0.520870 0.007553
0.460560 0.464540 0.022354
0.522360 0.515560 0.007548
0.485370 0.552270 0.008558
0.574250 0.496860 0.015153
0.556300 0.576590 0.041886
0.493230 0.430380 0.038065
0.504770 0.504790 0.007544
0.507380 0.434240 0.022845
0.549870 0.558470 0.016884
0.507650 0.466840 0.008005
0.494770 0.571950 0.017492
0.589380 0.550720 0.056446
0.563220 0.459790 0.021119
0.528820 0.504240 0.003744
0.530070 0.453310 0.012540
0.518510 0.422020 0.050184
0.509080 0.421740 0.052769
0.445950 0.525460 0.020771
0.504390 0.567530 0.012662
0.572430 0.521290 0.011331
0.440420 0.475560 0.033964
0.520640 0.594250 0.050619
0.551850 0.494710 0.004944
0.564760 0.492080 0.007881
0.456850 0.465240 0.024994
0.431840 0.511320 0.046369
0.550270 0.465650 0.008814
0.497600 0.479210 0.007531
0.578300 0.515930 0.014475
0.545580 0.456930 0.010765
0.548080 0.429240 0.049982
0.481550 0.424040 0.055145
0.533430 0.424950 0.041134
0.468390 0.448300 0.029621
0.456760 0.453820 0.030636
0.458020 0.514640 0.013373
0.481090 0.476650 0.008878
0.468120 0.451640 0.026018
0.539800 0.436040 0.029897
0.602490 0.523930 0.056467
0.464120 0.575310 0.051454
0.541930 0.433170 0.029948
0.520490 0.595930 0.055980
0.541040 0.489130 0.007533
0.590600 0.474820 0.044182
0.428080 0.512160 0.057722
0.434610 0.470460 0.051537
0.459740 0.540030 0.018205
0.510160 0.435850 0.025249
0.433500 0.532970 0.044292
0.484910 0.429660 0.045466
0.524040 0.523840 0.003754
0.524600 0.562580 0.012957
0.536200 0.510670 0.007545
0.496580 0.439640 0.023314
0.547050 0.464540 0.008265
0.550240 0.547180 0.011555
0.463970 0.577680 0.047911
0.577590 0.466570 0.030029
0.508980 0.555290 0.009817
0.588470 0.479100 0.036944
0.589710 0.548000 0.044756
0.469330 0.569510 0.033850
0.545950 0.430240 0.045079
0.462020 0.535750 0.015068
0.505730 0.594820 0.051853
0.575230 0.484670 0.014694
0.532150 0.453790 0.009250
0.487650 0.568840 0.017315
0.557900 0.431900 0.046918
0.528300 0.457430 0.010614
0.569640 0.559880 0.027207
0.523530 0.494760 0.007537
0.518380 0.479960 0.003637
0.573250 0.442940 0.047743
0.479680 0.481520 0.005476
0.511390 0.495250 0.003740
0.536650 0.585360 0.042576
0.437810 0.531080 0.034254
0.510910 0.527380 0.007555
0.541370 0.425090 0.044521
0.568520 0.566770 0.039437
0.551600 0.463880 0.013117
0.515540 0.429460 0.034083
0.505000 0.489690 0.003738
0.529330 0.547150 0.008442
0.595490 0.522610 0.044580
0.577750 0.500170 0.013883
0.537740 0.420460 0.055756
0.579010 0.454550 0.037899
0.456590 0.550470 0.022453
0.436360 0.503150 0.035479
0.462040 0.478670 0.014942
0.462240 0.451480 0.026778
0.547790 0.481670 0.005207
0.511920 0.576910 0.023665
0.426970 0.519480 0.058572
0.565300 0.578770 0.051500
0.482830 0.543550 0.009814
0.598350 0.507210 0.047559
0.554630 0.468490 0.012361
0.590930 0.501790 0.027366
0.553460 0.564660 0.019252
0.445940 0.488380 0.020716
0.479590 0.427520 0.056362
0.510170 0.585270 0.029836
0.578290 0.489240 0.019686
0.545100 0.469700 0.006544
0.433990 0.487250 0.038946
0.588300 0.533820 0.035389
0.443510 0.488430 0.028256
0.474940 0.584440 0.049387
0.432840 0.503870 0.035982
0.600680 0.529350 0.054039
0.502380 0.499820 0.007541
0.427940 0.503480 0.056435
0.486440 0.495440 0.007540
0.513270 0.591460 0.050086
0.505270 0.562610 0.009812
0.451340 0.469910 0.023169
0.504760 0.425070 0.037392
0.437990 0.479130 0.035038
0.564210 0.477550 0.010255
0.442050 0.523760 0.029446
0.456220 0.443510 0.054228
0.443140 0.531460 0.026427
0.583470 0.485110 0.026468
0.495870 0.425070 0.047677
0.540880 0.554210 0.011817
0.519540 0.442160 0.014631
0.497060 0.578180 0.023466
0.507780 0.431700 0.031199
0.480330 0.433510 0.040385
0.468600 0.444500 0.034561
0.471440 0.454060 0.021673
0.547740 0.444720 0.024308
0.565140 0.460570 0.017713
0.586850 0.486700 0.030244
0.433860 0.546960 0.057029
0.580860 0.509320 0.015818
0.455420 0.569360 0.055480
0.555980 0.582580 0.054845
0.537880 0.436960 0.027767
0.534900 0.483570 0.000698
0.453940 0.447230 0.043518
0.567780 0.535390 0.011834
0.550250 0.555820 0.015433
0.505890 0.568580 0.016744
0.502880 0.424060 0.047311
0.579870 0.558090 0.045802
0.581540 0.507760 0.020395
0.475640 0.471370 0.008122
0.586860 0.460610 0.053975
0.507870 0.423430 0.040441
0.499400 0.582900 0.034827
0.433320 0.499400 0.035458
0.484780 0.580800 0.032420
0.558200 0.498830 0.008599
0.557500 0.449060 0.025855
0.446710 0.522520 0.023302
0.489120 0.444760 0.020744
0.540310 0.498640 0.003714
0.473670 0.559150 0.020151
0.534330 0.435720 0.028464
0.586180 0.492430 0.026793
0.476860 0.551250 0.010748
0.552510 0.491500 0.005107
0.502080 0.425390 0.037087
0.471200 0.445150 0.031262
0.597970 0.517730 0.040690
0.514810 0.475890 0.002984
0.475110 0.516020 0.008038
0.515060 0.473540 0.004612
0.471530 0.578650 0.040129
0.441390 0.536020 0.037064
0.434100 0.518830 0.042075
0.595160 0.529210 0.039574
0.454390 0.565290 0.048302
0.528220 0.589460 0.039660
0.538760 0.444810 0.016142
0.443750 0.513680 0.020929
0.574280 0.461060 0.030475
0.465370 0.451600 0.023580
0.583510 0.487160 0.021183
0.512990 0.421590 0.043968
0.510640 0.546640 0.005044
0.476760 0.572730 0.031944
0.600220 0.498030 0.045822
0.555560 0.446720 0.021912
0.530240 0.419320 0.054483
0.568400 0.461650 0.019356
0.514220 0.575680 0.022459
0.435750 0.492590 0.033560
0.538430 0.590050 0.056600
0.518320 0.494840 0.007538
0.572370 0.572050 0.056411
0.443320 0.556610 0.048825
0.597240 0.474880 0.052974
0.460400 0.474080 0.017425
0.478540 0.451510 0.019879
0.486870 0.565410 0.018811
0.488320 0.567580 0.019946
0.531050 0.425350 0.039168
0.528260 0.563440 0.013872
0.491670 0.445320 0.019491
0.433470 0.479080 0.052309
0.535360 0.454860 0.012657
0.443990 0.463880 0.044949
0.477040 0.435480 0.033655
0.564180 0.432110 0.054728
0.507800 0.426690 0.033895
0.512930 0.470920 0.004699
0.443480 0.478150 0.027626
0.531750 0.465590 0.005724
0.507090 0.454190 0.008226
0.576170 0.484170 0.019345
0.442080 0.454740 0.054780
0.474180 0.580640 0.041500
0.450790 0.453070 0.047681
0.466640 0.441060 0.042482
0.486230 0.424010 0.058444
0.555750 0.450970 0.018673
0.595540 0.515860 0.041641
0.450970 0.554740 0.038652
0.526860 0.551120 0.006051
0.521590 0.573010 0.020239
0.569290 0.453880 0.026573
0.427830 0.516880 0.049799
0.566310 0.555510 0.024983
0.531870 0.595370 0.056516
0.526810 0.430200 0.034680
0.457690 0.479090 0.013943
0.483700 0.527830 0.004802
0.563880 0.517900 0.010387
0.537840 0.587110 0.047594
0.526640 0.526770 0.007554
0.428890 0.485570 0.052752
0.582710 0.552260 0.041840
0.567300 0.574440 0.044571
0.575660 0.466040 0.028132
0.516290 0.426580 0.033166
0.511020 0.423390 0.040077
0.501200 0.460600 0.009622
0.504610 0.581620 0.031039
0.544070 0.438830 0.028971
0.566560 0.475650 0.011956
0.534440 0.557900 0.008958
0.551390 0.482170 0.008644
0.495580 0.477840 0.004664
0.440120 0.530870 0.036183
0.535010 0.460490 0.010422
0.476400 0.494090 0.007990
0.512240 0.551500 0.005742
0.461230 0.443060 0.045640
0.595060 0.513090 0.039435
0.575870 0.553730 0.028134
0.547890 0.581900 0.036395
0.468820 0.579660 0.045149
0.437270 0.488390 0.032411
0.562320 0.567130 0.027648
0.538150 0.574870 0.021751
0.575480 0.499280 0.012382
0.596010 0.475560 0.048863
0.599790 0.514780 0.043427
0.534350 0.514650 0.003749
0.520160 0.554160 0.009498
0.560630 0.476810 0.009010
0.511990 0.546450 0.007941
0.577170 0.455950 0.033493
0.460370 0.511940 0.012067
0.473960 0.572780 0.034127
0.502340 0.562120 0.013158
0.484350 0.483250 0.004874
0.559300 0.575210 0.043031
0.498690 0.517570 0.007551
0.473180 0.553470 0.013232
0.448370 0.446680 0.057201
0.491500 0.454070 0.013532
0.468720 0.535540 0.011919
0.470880 0.580830 0.054319
0.458430 0.549940 0.020393
0.454140 0.483910 0.018456
0.596960 0.494650 0.046004
0.438220 0.544770 0.051084
0.502540 0.536110 0.004097
0.596250 0.543890 0.056770
0.555260 0.522740 0.008522
0.471210 0.538020 0.011624
0.438650 0.551000 0.051163
0.482080 0.541370 0.006457
0.552620 0.435600 0.034314
0.574290 0.567310 0.042762
0.470980 0.462640 0.012949
0.507400 0.527990 0.003757
0.569550 0.451650 0.029303
0.493420 0.450860 0.015019
0.526500 0.536250 0.007558
0.543880 0.514460 0.000228
0.587890 0.517490 0.023940
0.442080 0.509050 0.027180
0.425920 0.518580 0.056238
0.431530 0.507620 0.046575
0.486910 0.509830 0.001441
0.512440 0.563650 0.013117
0.476090 0.474240 0.010426
0.479180 0.447590 0.018634
0.517220 0.417230 0.055894
0.585400 0.511920 0.024282
0.494980 0.502410 0.007543
0.531980 0.529670 0.007555
0.485890 0.427890 0.049023
0.589770 0.516610 0.031336
0.456970 0.541160 0.020855
0.545420 0.583660 0.038154
0.432100 0.496240 0.046609
0.512030 0.559880 0.011323
0.470170 0.466730 0.015086
0.432100 0.491060 0.049288
0.512490 0.424510 0.037520
0.555920 0.584190 0.049485
0.493560 0.564520 0.015858
0.541280 0.523770 0.003785
0.517110 0.541080 0.004680
0.493250 0.530970 0.007558
0.466890 0.432450 0.053006
0.434270 0.474720 0.046957
0.487370 0.424990 0.046837
0.466440 0.524110 0.010684
0.577070 0.446610 0.047161
0.428030 0.489920 0.052701
0.590370 0.528410 0.036306
0.438670 0.529310 0.037924
0.486680 0.506140 0.000833
0.538480 0.588550 0.043579
0.595960 0.477010 0.056839
0.476130 0.432300 0.047493
0.517680 0.460210 0.006144
0.479700 0.482300 0.008355
0.477650 0.459830 0.014909
0.488910 0.577210 0.029820
0.459580 0.562500 0.035915
0.425080 0.507580 0.057527
0.577940 0.486240 0.020240
0.556020 0.567290 0.023216
0.496650 0.437650 0.025479
0.466980 0.478820 0.012393
0.579290 0.550050 0.033899
0.591260 0.481560 0.040715
0.464090 0.574640 0.041984
0.595300 0.501130 0.041110
0.452090 0.540990 0.025179
0.536630 0.423710 0.045597
0.555990 0.444160 0.029773
0.554740 0.464330 0.014090
0.446690 0.541300 0.031681
0.597170 0.514970 0.037801
0.513720 0.527500 0.007555
0.454310 0.460770 0.026527
0.596580 0.491000 0.045618
0.461910 0.574730 0.054582
0.534560 0.543940 0.005303
0.484400 0.425790 0.056724
0.452130 0.464300 0.025596
0.539740 0.472920 0.008264
0.574170 0.469210 0.019984
0.597610 0.521280 0.049339
0.547920 0.537780 0.005926
0.546770 0.440430 0.023807
0.542040 0.444560 0.021691
0.551040 0.565150 0.022454
0.432400 0.518670 0.046121
0.541860 0.544850 0.006256
0.536260 0.455860 0.009165
0.498660 0.566800 0.012925
0.439650 0.533560 0.032605
0.565290 0.526440 0.008666
0.539210 0.533330 0.007655
0.462830 0.495640 0.011434
0.589340 0.550360 0.046618
0.529850 0.432830 0.026205
0.579250 0.456650 0.035989
0.501410 0.523490 0.003755
0.557330 0.485120 0.009459
0.464770 0.439640 0.040297
0.539980 0.566420 0.014786
0.447750 0.551180 0.033730
0.478080 0.505220 0.007663
0.589480 0.505340 0.025117
0.522420 0.477640 0.007529
0.428570 0.527750 0.052696
0.544460 0.490660 0.004636
0.426690 0.495930 0.053095
0.514600 0.587740 0.041009
0.532460 0.426570 0.044285
