ply
format ascii 1.0
element vertex 1680
property float x
property float y
property float z
end_header
-0.084961 0.011925 0.003228
-0.084164 0.011238 0.006665
-0.084549 0.009868 0.006664
-0.082616 0.011684 0.006664
-0.082671 0.011519 0.003227
-0.085237 0.011816 0.006665
-0.078065 0.011529 -0.003229
-0.080555 0.012500 0.003227
-0.078403 0.010851 -0.006695
-0.079947 0.011544 0.003227
-0.079934 0.012747 0.006665
-0.079298 0.011316 -0.003228
-0.081509 0.011221 -0.003228
-0.077606 0.012434 -0.006694
-0.080736 0.011611 0.006665
-0.081840 0.010930 0.003227
-0.080658 0.010076 0.003227
-0.077399 0.012957 -0.003229
-0.081553 0.009337 0.003227
-0.078713 0.013339 -0.006694
-0.078710 0.013778 -0.003228
-0.082218 0.011547 -0.006694
-0.077494 0.009427 -0.003229
-0.078881 0.009041 -0.003229
-0.079945 0.012545 -0.006694
-0.081905 0.010122 -0.006694
-0.080513 0.009650 -0.006695
-0.081698 0.009412 -0.003228
-0.078387 0.009402 0.003226
-0.077816 0.012218 0.006665
-0.081664 0.009358 0.006664
-0.079229 0.010171 -0.006695
-0.077729 0.011433 0.003226
-0.082268 0.009169 -0.006694
-0.081651 0.010363 0.006664
-0.082127 0.012660 -0.006693
-0.077583 0.009956 0.003226
-0.078055 0.011122 0.006663
-0.080621 0.010749 -0.006694
-0.081894 0.012804 0.006665
-0.079692 0.010032 -0.003229
-0.081736 0.012014 0.003227
-0.079767 0.011321 -0.006694
-0.080144 0.013444 -0.003228
-0.079952 0.009007 0.003226
-0.078197 0.012975 0.003227
-0.081442 0.012300 -0.003228
-0.082223 0.010533 -0.003228
-0.080925 0.012879 0.006664
-0.079373 0.010625 0.003226
-0.078761 0.012131 -0.006694
-0.078907 0.009664 0.006663
-0.079268 0.013687 0.003227
-0.078265 0.010373 -0.003229
-0.080897 0.011340 0.003227
-0.080594 0.009653 0.006663
-0.077309 0.008895 0.003225
-0.080896 0.012207 -0.006694
-0.080270 0.011000 -0.003228
-0.079370 0.011687 0.006664
-0.077396 0.010335 -0.006695
-0.078762 0.011675 0.003227
-0.077899 0.010090 0.006663
-0.078290 0.009809 -0.006695
-0.078153 0.013503 0.006664
-0.079051 0.012844 -0.003228
-0.080430 0.012174 -0.003228
-0.079648 0.010424 0.006664
-0.079517 0.012542 0.003227
-0.080675 0.009958 -0.003229
-0.079150 0.013735 0.006664
-0.077642 0.013450 -0.006694
-0.081049 0.013174 -0.006694
-0.081335 0.013107 0.003228
-0.078857 0.012651 0.006664
-0.075156 0.010138 -0.006696
-0.072824 0.011237 0.003225
-0.074659 0.008989 0.000907
-0.076116 0.008820 0.002999
-0.074439 0.009010 -0.001669
-0.077063 0.010805 0.006664
-0.076064 0.012749 0.006664
-0.072444 0.009248 0.001966
-0.074032 0.009061 -0.003133
-0.075120 0.012046 0.006664
-0.074570 0.012541 0.003226
-0.076054 0.008824 -0.003226
-0.073428 0.013469 0.003226
-0.077122 0.013553 0.003227
-0.076757 0.011779 -0.003229
-0.076658 0.010629 0.003226
-0.076748 0.012956 -0.006695
-0.075656 0.011916 -0.003229
-0.074367 0.009111 0.003225
-0.075596 0.008877 -0.000016
-0.073131 0.009168 -0.001095
-0.075064 0.009515 -0.003230
-0.073744 0.009705 0.006662
-0.072516 0.009361 -0.006696
-0.077048 0.012874 0.006663
-0.074203 0.010810 -0.006696
-0.076256 0.012071 -0.006695
-0.073690 0.013099 -0.006695
-0.072545 0.009241 -0.002403
-0.073815 0.012009 -0.006696
-0.076052 0.012964 -0.003229
-0.072781 0.010305 0.006662
-0.076874 0.013786 -0.003228
-0.075374 0.008912 -0.002039
-0.073846 0.009197 -0.006696
-0.074094 0.009057 0.002031
-0.073097 0.009464 -0.003230
-0.073988 0.010488 0.003225
-0.076028 0.013698 0.003226
-0.076375 0.011630 0.006663
-0.074331 0.009024 -0.000234
-0.073048 0.010992 -0.003230
-0.073430 0.009131 0.001095
-0.073738 0.012150 0.006663
-0.076452 0.012068 0.003226
-0.076367 0.010753 -0.003229
-0.075403 0.010118 0.003225
-0.075196 0.011417 -0.006695
-0.074943 0.012802 -0.003229
-0.072848 0.011843 -0.006696
-0.076278 0.009782 -0.003230
-0.074795 0.011337 0.003225
-0.073844 0.011662 0.003225
-0.076889 0.011321 -0.006695
-0.074074 0.013236 0.006664
-0.073841 0.011627 -0.003230
-0.075549 0.012873 -0.006695
-0.075856 0.010729 0.006663
-0.075396 0.008906 -0.001021
-0.074590 0.010722 -0.003230
-0.076339 0.009320 -0.006696
-0.073069 0.012310 0.003225
-0.076570 0.009645 0.003225
-0.072412 0.013094 0.003225
-0.072818 0.010332 -0.006696
-0.075367 0.008903 0.002360
-0.072602 0.009231 -0.000215
-0.077228 0.009335 0.006663
-0.074742 0.013576 -0.006695
-0.076128 0.010645 -0.006695
-0.072778 0.010057 0.003225
-0.072846 0.012282 -0.003230
-0.076217 0.009712 0.006663
-0.073982 0.013175 -0.003229
-0.072565 0.009219 0.006661
-0.073444 0.009132 0.002873
-0.074564 0.010357 0.006662
-0.075231 0.009417 0.006663
-0.075428 0.013755 0.006663
-0.073552 0.011052 0.006662
-0.072311 0.013632 0.006663
-0.068202 0.010955 -0.001329
-0.068776 0.008979 0.006570
-0.070866 0.009430 -0.002676
-0.069695 0.012928 0.003225
-0.068153 0.010549 -0.006654
-0.071565 0.013598 -0.006696
-0.068348 0.009477 -0.006663
-0.069023 0.010984 -0.006697
-0.071999 0.009330 0.003224
-0.071277 0.013008 0.003225
-0.068041 0.009582 -0.000126
-0.070119 0.009548 0.003224
-0.068284 0.011689 0.005923
-0.072002 0.009303 -0.001429
-0.070017 0.012810 -0.003230
-0.071551 0.010156 0.006661
-0.068418 0.012862 -0.001402
-0.068773 0.012767 -0.006696
-0.068663 0.012260 0.006661
-0.068210 0.011055 -0.005218
-0.070094 0.009518 0.000149
-0.068175 0.010725 0.000964
-0.067431 0.011135 0.000501
-0.068104 0.010112 -0.002353
-0.068047 0.009681 0.006600
-0.068510 0.013592 -0.004847
-0.069029 0.009650 0.000201
-0.068100 0.010091 -0.005724
-0.070941 0.011131 -0.006696
-0.068415 0.012768 0.005486
-0.068461 0.013155 0.000952
-0.072201 0.013308 -0.003230
-0.068225 0.011148 -0.004088
-0.069279 0.008918 -0.006604
-0.068321 0.012005 -0.000830
-0.068117 0.010217 0.004385
-0.070487 0.010700 0.003224
-0.070633 0.012102 -0.006696
-0.072277 0.012481 0.006662
-0.071551 0.009349 0.001355
-0.071201 0.009389 0.000151
-0.068965 0.009654 -0.001977
-0.072276 0.012647 -0.006696
-0.070015 0.009534 0.001133
-0.068377 0.012434 -0.002815
-0.070063 0.011828 -0.003230
-0.071834 0.010998 0.003225
-0.070404 0.012189 0.006662
-0.070886 0.009210 0.006633
-0.071323 0.012848 0.006663
-0.068532 0.013784 -0.001968
-0.068376 0.012449 -0.005104
-0.069850 0.009330 0.006633
-0.067967 0.008919 -0.004565
-0.070487 0.010274 0.006661
-0.070134 0.012974 -0.006696
-0.069836 0.010409 -0.006697
-0.068420 0.012834 -0.003944
-0.067971 0.008969 -0.003299
-0.069121 0.009635 0.002159
-0.068062 0.009789 0.001647
-0.069944 0.009544 -0.001427
-0.068450 0.013097 0.002140
-0.068746 0.010879 -0.003231
-0.069269 0.010353 0.006661
-0.068304 0.011833 0.001401
-0.068357 0.012289 0.004478
-0.068322 0.012006 -0.006190
-0.070583 0.011876 0.003225
-0.067503 0.012969 0.000501
-0.071929 0.011564 0.006663
-0.071714 0.012124 0.003225
-0.068290 0.011726 0.000215
-0.071938 0.010859 -0.006696
-0.068049 0.009667 0.002685
-0.071301 0.009381 0.002432
-0.068220 0.011097 0.002417
-0.069315 0.010527 0.003224
-0.068486 0.012164 0.003224
-0.071097 0.013380 -0.003230
-0.071933 0.009589 -0.003231
-0.070629 0.013772 0.003225
-0.068090 0.009988 0.005493
-0.069540 0.013008 0.006663
-0.068407 0.012698 0.000032
-0.068100 0.010076 -0.003910
-0.068701 0.009685 -0.003208
-0.070632 0.010775 -0.003231
-0.068203 0.011017 0.005197
-0.068157 0.010569 -0.000025
-0.067993 0.009132 0.003760
-0.071605 0.012076 -0.003230
-0.068232 0.011218 0.004077
-0.068480 0.013314 -0.005775
-0.068351 0.009724 -0.001068
-0.068455 0.013133 0.003265
-0.069884 0.011196 0.006661
-0.067990 0.009174 0.004862
-0.071674 0.010663 -0.003230
-0.071437 0.009492 -0.006697
-0.070915 0.011360 0.006663
-0.068458 0.010914 0.006661
-0.069393 0.011759 0.003224
-0.070127 0.009876 -0.003231
-0.070651 0.009458 -0.000679
-0.070224 0.009501 -0.006695
-0.067661 0.013653 -0.000429
-0.068259 0.011462 -0.002318
-0.069594 0.011959 -0.006696
-0.067486 0.011671 -0.000429
-0.067952 0.008841 -0.005986
-0.062405 0.012780 0.000500
-0.066676 0.012416 -0.000429
-0.063277 0.009395 0.000494
-0.065328 0.010792 -0.000430
-0.062493 0.011206 -0.000430
-0.066028 0.009996 -0.000211
-0.067071 0.009870 0.000332
-0.063465 0.012733 -0.000430
-0.064968 0.013240 0.000501
-0.065467 0.012885 -0.000429
-0.065957 0.011133 0.000500
-0.064318 0.012494 0.000500
-0.065326 0.012266 0.000501
-0.063856 0.010350 0.000500
-0.063951 0.013596 -0.000429
-0.063783 0.011302 -0.000430
-0.066678 0.013620 0.000501
-0.062445 0.013130 -0.000430
-0.064491 0.011414 0.000500
-0.066308 0.013744 -0.000429
-0.063221 0.011539 0.000500
-0.064426 0.010304 -0.000430
-0.066608 0.010844 -0.000429
-0.066408 0.012503 0.000501
-0.065459 0.011779 -0.000429
-0.064505 0.012145 -0.000430
-0.065004 0.010557 0.000500
-0.063464 0.013569 0.000501
-0.062984 0.010354 -0.000194
-0.063769 0.009458 -0.000409
-0.158280 0.013946 -0.000632
-0.157570 0.013968 0.001149
-0.158270 0.013980 0.000401
-0.157330 0.013998 -0.001116
-0.153570 0.014206 0.002097
-0.153590 0.014218 -0.002049
-0.153040 0.013961 -0.002825
-0.155500 0.014337 -0.000175
-0.153570 0.014484 0.000767
-0.155380 0.014196 0.001339
-0.153090 0.014531 -0.000818
-0.156090 0.014160 -0.000963
-0.157030 0.014173 -0.000017
-0.154510 0.013865 -0.002637
-0.154780 0.014216 -0.001713
-0.156590 0.013924 0.001928
-0.156270 0.014190 0.000582
-0.152570 0.014373 -0.001972
-0.156630 0.013884 -0.001994
-0.154330 0.014448 -0.000383
-0.154940 0.013990 0.002230
-0.154720 0.014372 0.000579
-0.152500 0.014393 0.001937
-0.155570 0.013922 -0.002215
-0.148190 0.014448 0.003010
-0.148300 0.014409 -0.003070
-0.149620 0.014659 0.002097
-0.149240 0.013999 -0.003589
-0.151330 0.014473 0.002070
-0.148350 0.014986 -0.001537
-0.149880 0.015015 -0.000017
-0.148160 0.015165 0.000406
-0.150560 0.014820 -0.000854
-0.150980 0.014805 0.000590
-0.150500 0.014598 -0.002005
-0.150770 0.013925 -0.003445
-0.151520 0.014403 -0.002196
-0.149750 0.014377 -0.002738
-0.152130 0.013959 0.003089
-0.149560 0.014170 0.003284
-0.150840 0.014130 0.003039
-0.147510 0.014937 0.002032
-0.148990 0.015068 -0.000387
-0.151570 0.014676 -0.001063
-0.147430 0.015215 -0.000647
-0.152170 0.014666 0.000629
-0.149300 0.014911 -0.001301
-0.149920 0.014873 0.001035
-0.147400 0.015164 0.001086
-0.148500 0.014948 0.001731
-0.145300 0.014922 0.002678
-0.146030 0.014766 -0.002847
-0.142480 0.015070 0.003107
-0.145860 0.015281 -0.001558
-0.142860 0.015780 -0.000408
-0.145680 0.015468 -0.000252
-0.143620 0.015711 0.000241
-0.142590 0.014607 -0.003805
-0.146990 0.014496 -0.003227
-0.146050 0.015290 0.001292
-0.144270 0.015571 -0.000766
-0.146650 0.014010 0.003962
-0.145500 0.014112 0.003999
-0.142980 0.015062 -0.003002
-0.144040 0.015076 0.002665
-0.143350 0.014158 -0.004264
-0.144580 0.014758 -0.003285
-0.142560 0.014480 0.003974
-0.143700 0.014388 0.003912
-0.144940 0.015515 0.000596
-0.145090 0.015347 0.001687
-0.142470 0.013940 -0.004689
-0.147110 0.015020 -0.001948
-0.144710 0.014550 0.003555
-0.144840 0.015379 -0.001718
-0.144590 0.014075 -0.004188
-0.142480 0.015700 -0.001377
-0.147150 0.014526 0.003102
-0.143940 0.015111 -0.002602
-0.143770 0.015529 0.001467
-0.145760 0.014324 -0.003684
-0.146750 0.015347 0.000277
-0.146370 0.014906 0.002423
-0.143620 0.015529 -0.001660
-0.137780 0.016046 0.002093
-0.139460 0.016125 -0.000815
-0.140280 0.015354 -0.003054
-0.140130 0.015833 0.001944
-0.140100 0.014130 0.004764
-0.141030 0.014917 0.003631
-0.140830 0.016069 -0.000005
-0.140040 0.016060 0.000753
-0.137800 0.016136 -0.001869
-0.141110 0.015842 0.001493
-0.138280 0.015043 -0.003894
-0.141970 0.015807 0.000960
-0.137590 0.016357 -0.000694
-0.141430 0.014158 -0.004564
-0.138710 0.015503 0.003125
-0.139530 0.015773 -0.002252
-0.137690 0.015585 0.003214
-0.140330 0.015933 -0.001456
-0.138130 0.015662 -0.002907
-0.141600 0.014246 0.004417
-0.140300 0.014125 -0.004752
-0.141880 0.015489 -0.002280
-0.137370 0.014338 0.004845
-0.140200 0.015384 0.002993
-0.141430 0.015374 0.002678
-0.138820 0.016094 -0.001600
-0.138960 0.014460 0.004544
-0.139310 0.014507 -0.004430
-0.137980 0.016361 0.000301
-0.138860 0.016102 0.001504
-0.138280 0.013936 0.005070
-0.140350 0.014781 -0.003912
-0.142270 0.015516 0.002111
-0.139110 0.016204 0.000488
-0.139110 0.015410 -0.003240
-0.137890 0.014512 -0.004638
-0.141290 0.014933 -0.003581
-0.141840 0.015924 -0.000229
-0.138310 0.014998 0.003943
-0.136590 0.016398 -0.001273
-0.137100 0.015045 0.004065
-0.133440 0.014062 -0.005415
-0.135380 0.016642 0.000488
-0.136990 0.014959 -0.004197
-0.134170 0.016247 0.002617
-0.133650 0.016886 -0.000149
-0.134710 0.014836 0.004696
-0.133730 0.016686 -0.001609
-0.134090 0.015222 -0.004292
-0.135650 0.016459 0.001655
-0.137020 0.016343 0.001292
-0.134820 0.016675 -0.000738
-0.135310 0.014076 0.005231
-0.134090 0.014194 0.005251
-0.133960 0.016112 -0.003012
-0.136360 0.016014 -0.002573
-0.135750 0.014796 -0.004599
-0.132490 0.016773 -0.001823
-0.136070 0.015322 -0.003859
-0.136240 0.015463 0.003645
-0.134840 0.014433 -0.005003
-0.133370 0.015581 0.003933
-0.135270 0.015999 -0.002917
-0.133770 0.016678 0.001612
-0.135290 0.015404 0.003872
-0.134900 0.015520 -0.003786
-0.136380 0.016057 0.002459
-0.137020 0.015641 -0.003278
-0.133020 0.016376 0.002638
-0.132760 0.015260 -0.004445
-0.137030 0.016480 0.000282
-0.134540 0.016670 0.001005
-0.136190 0.014624 0.004734
-0.132410 0.014714 0.004998
-0.134680 0.016387 -0.002150
-0.136400 0.014068 -0.005147
-0.132740 0.016898 -0.000885
-0.132410 0.014613 -0.005083
-0.133020 0.016035 -0.003403
-0.135830 0.016606 -0.000386
-0.135430 0.016028 0.002792
-0.133110 0.016881 0.000681
-0.133690 0.014939 0.004712
-0.133110 0.014118 0.005393
-0.135660 0.016401 -0.001831
-0.130650 0.016477 0.003057
-0.131440 0.016692 -0.002315
-0.131670 0.013919 -0.005682
-0.129500 0.014679 -0.005291
-0.130390 0.014484 0.005357
-0.128860 0.017230 -0.001757
-0.129830 0.016917 -0.002239
-0.130680 0.016282 -0.003437
-0.129940 0.017304 0.000280
-0.129660 0.016097 -0.003830
-0.128160 0.016072 -0.004087
-0.131730 0.014170 0.005478
-0.128190 0.017398 0.001107
-0.132160 0.016307 -0.003035
-0.131760 0.015620 -0.004130
-0.127320 0.017429 0.001647
-0.131670 0.015998 0.003646
-0.128330 0.016775 -0.002995
-0.128930 0.015988 0.004076
-0.128380 0.017448 -0.000573
-0.131680 0.016491 0.002732
-0.128090 0.015067 0.005113
-0.130840 0.017014 0.001682
-0.128770 0.013836 -0.005902
-0.130900 0.014577 -0.005246
-0.127820 0.016922 0.002769
-0.131850 0.017048 0.000520
-0.129840 0.017088 0.001820
-0.128360 0.015017 -0.005139
-0.127500 0.017493 -0.000996
-0.131840 0.016844 0.001829
-0.130520 0.015889 0.003966
-0.132290 0.015407 0.004316
-0.131310 0.015082 0.004820
-0.131370 0.017004 -0.001310
-0.128690 0.014081 0.005797
-0.129610 0.016590 0.003073
-0.129860 0.015487 -0.004593
-0.131070 0.017186 -0.000145
-0.130010 0.017209 -0.000965
-0.128850 0.016983 0.002333
-0.127690 0.014440 -0.005635
-0.127300 0.016088 0.004185
-0.129840 0.015493 0.004572
-0.128940 0.017425 0.000218
-0.129380 0.014627 0.005339
-0.125830 0.017545 -0.001844
-0.124850 0.014403 0.005850
-0.124220 0.017276 0.002938
-0.124320 0.017248 -0.002982
-0.124870 0.017881 -0.000385
-0.124370 0.017627 -0.002054
-0.126930 0.016676 0.003485
-0.123080 0.016892 0.003790
-0.124320 0.016701 0.003848
-0.127100 0.015670 -0.004750
-0.125440 0.017687 0.001369
-0.126560 0.017635 -0.000756
-0.126210 0.015885 0.004615
-0.125710 0.015544 -0.004971
-0.126280 0.014722 0.005538
-0.122850 0.014913 0.005698
-0.124240 0.017923 0.000626
-0.127170 0.014305 0.005778
-0.127120 0.017295 -0.002075
-0.125390 0.016335 0.004153
-0.123770 0.017762 0.001895
-0.122830 0.016274 -0.004631
-0.125580 0.017124 -0.002923
-0.126540 0.016687 -0.003540
-0.123090 0.015038 -0.005588
-0.124590 0.014899 -0.005561
-0.123970 0.015828 -0.004908
-0.123960 0.015264 0.005332
-0.122680 0.017964 0.001714
-0.123750 0.017911 -0.001130
-0.122890 0.017505 -0.002765
-0.124760 0.015702 0.004925
-0.125760 0.017355 0.002311
-0.123490 0.013960 -0.006108
-0.123870 0.016053 0.004741
-0.126520 0.014625 -0.005599
-0.125110 0.017007 0.003323
-0.125090 0.016443 -0.004074
-0.125790 0.017817 -0.000045
-0.122570 0.017085 -0.003618
-0.122900 0.018100 -0.000492
-0.122430 0.015812 0.005048
-0.126670 0.017606 0.000849
-0.127280 0.017648 0.000038
-0.122880 0.017943 -0.001692
-0.123680 0.016928 -0.003658
-0.126300 0.016127 -0.004302
-0.122860 0.018076 0.000679
-0.127030 0.015368 0.004978
-0.123050 0.017415 0.002915
-0.121120 0.018282 -0.000639
-0.118790 0.015939 -0.005288
-0.117810 0.018600 -0.001150
-0.119340 0.016287 0.004963
-0.119520 0.018412 0.001082
-0.120160 0.018428 -0.000408
-0.118030 0.014597 -0.006108
-0.117320 0.016800 0.004750
-0.118450 0.017199 -0.004098
-0.120870 0.015846 0.005162
-0.121400 0.014178 -0.006116
-0.118960 0.017253 0.003942
-0.117380 0.018647 0.001201
-0.118900 0.018448 -0.001348
-0.120300 0.017963 -0.002384
-0.121150 0.016610 0.004442
-0.121890 0.015409 -0.005417
-0.120320 0.014429 -0.006066
-0.120090 0.018125 0.002041
-0.122090 0.017554 0.002872
-0.122250 0.016523 0.004389
-0.117310 0.018416 -0.002134
-0.121720 0.018117 0.001388
-0.121960 0.018226 0.000348
-0.119280 0.016795 -0.004494
-0.117970 0.015902 0.005378
-0.120740 0.017723 0.002834
-0.117930 0.016681 -0.004801
-0.117920 0.018742 0.000007
-0.119470 0.017876 0.002830
-0.121850 0.018092 -0.001480
-0.120140 0.016838 0.004300
-0.121680 0.015257 0.005537
-0.117630 0.017978 -0.003097
-0.120620 0.018340 0.000664
-0.120350 0.017266 -0.003725
-0.121050 0.013959 0.006213
-0.118250 0.018233 -0.002328
-0.119170 0.014010 -0.006294
-0.121450 0.016824 -0.004126
-0.118400 0.018462 0.001708
-0.117790 0.017824 0.003384
-0.121220 0.017559 -0.003105
-0.121300 0.016120 -0.004926
-0.118020 0.015496 -0.005695
-0.122250 0.013820 0.006215
-0.118820 0.017847 -0.003075
-0.119200 0.014568 0.006051
-0.120340 0.016670 -0.004496
-0.120450 0.018264 -0.001379
-0.118930 0.014922 -0.005929
-0.118400 0.016697 0.004730
-0.118990 0.018574 -0.000338
-0.117970 0.014221 0.006256
-0.120740 0.015443 -0.005494
-0.119870 0.015858 -0.005254
-0.119670 0.015544 0.005497
-0.120580 0.014983 0.005817
-0.121310 0.017280 0.003557
-0.117640 0.018283 0.002347
-0.118250 0.015063 0.005892
-0.117230 0.017292 -0.004154
-0.116560 0.018605 0.001881
-0.116900 0.016362 -0.005135
-0.116850 0.018774 -0.000715
-0.115420 0.018208 -0.003158
-0.112500 0.015116 -0.006160
-0.116180 0.017595 -0.003932
-0.112930 0.017546 0.004469
-0.116270 0.016174 0.005324
-0.112850 0.015562 0.005947
-0.113070 0.018068 -0.003787
-0.115570 0.015587 0.005807
-0.114170 0.017220 0.004708
-0.114110 0.017686 -0.004118
-0.113680 0.015573 -0.005916
-0.114820 0.016289 -0.005376
-0.116370 0.018187 0.002951
-0.114350 0.015206 0.006022
-0.115550 0.018691 0.001966
-0.116450 0.018265 -0.002750
-0.115310 0.014243 0.006371
-0.116630 0.015486 -0.005811
-0.113050 0.018739 0.002545
-0.115550 0.014688 -0.006189
-0.113090 0.017170 -0.004858
-0.114750 0.015413 -0.005931
-0.115110 0.017691 -0.003960
-0.113950 0.014635 -0.006287
-0.112520 0.018703 -0.002792
-0.114090 0.016862 -0.005008
-0.114360 0.018134 0.003500
-0.117170 0.015457 0.005783
-0.116350 0.016931 0.004734
-0.115880 0.016284 -0.005286
-0.116420 0.014653 0.006148
-0.114530 0.018805 0.001979
-0.117000 0.013864 0.006446
-0.114990 0.016398 0.005260
-0.114710 0.018542 -0.002560
-0.115140 0.017543 0.004136
-0.113770 0.018555 -0.002788
-0.112970 0.014113 -0.006488
-0.117010 0.017508 0.003907
-0.114090 0.014096 0.006459
-0.112370 0.018472 0.003361
-0.113640 0.016340 0.005422
-0.113310 0.014658 0.006296
-0.112620 0.016272 -0.005584
-0.116290 0.018708 -0.001705
-0.117010 0.014144 -0.006344
-0.115210 0.017103 -0.004719
-0.107650 0.014006 0.006568
-0.108600 0.017105 0.005290
-0.110610 0.018125 -0.004087
-0.111220 0.018477 0.003525
-0.110920 0.017487 -0.004809
-0.109440 0.015224 -0.006266
-0.107830 0.015330 0.006281
-0.108880 0.016199 -0.005888
-0.108160 0.016943 -0.005467
-0.112010 0.014491 0.006428
-0.108310 0.014430 -0.006518
-0.108240 0.017721 -0.004872
-0.109180 0.016999 -0.005336
-0.109620 0.016374 0.005757
-0.112200 0.016659 0.005313
-0.110250 0.018566 0.003549
-0.111600 0.016606 -0.005419
-0.109790 0.014749 0.006426
-0.111590 0.015915 0.005862
-0.111530 0.018755 -0.002938
-0.108990 0.018529 0.003796
-0.108970 0.018239 -0.004184
-0.109600 0.017722 -0.004747
-0.108270 0.016132 0.005930
-0.110260 0.017900 0.004420
-0.111840 0.017863 -0.004236
-0.110720 0.014019 0.006520
-0.107960 0.015554 -0.006201
-0.110810 0.015365 0.006124
-0.111180 0.015294 -0.006152
-0.110160 0.016953 -0.005283
-0.110790 0.016661 0.005433
-0.108020 0.018497 0.003981
-0.108620 0.014456 0.006494
-0.110000 0.015964 -0.005933
-0.108920 0.015341 0.006226
-0.109300 0.017820 0.004669
-0.111530 0.017755 0.004411
-0.107310 0.018023 0.004694
-0.111440 0.014285 -0.006488
-0.110320 0.014576 -0.006469
-0.109380 0.014227 -0.006528
-0.107910 0.018357 -0.004190
-0.105780 0.016375 -0.005964
-0.104530 0.016948 -0.005789
-0.107090 0.014537 -0.006522
-0.102390 0.015964 -0.006301
-0.103510 0.015074 0.006490
-0.105340 0.014771 -0.006521
-0.103070 0.016469 0.006041
-0.106930 0.018741 0.003825
-0.106240 0.014026 -0.006604
-0.107050 0.016432 0.005866
-0.105610 0.016680 0.005833
-0.106220 0.015339 0.006356
-0.106770 0.018562 -0.004100
-0.104360 0.015963 0.006187
-0.103070 0.017400 -0.005575
-0.106610 0.017538 -0.005153
-0.106330 0.018140 0.004694
-0.105660 0.018315 -0.004594
-0.105080 0.015190 0.006452
-0.103560 0.016378 -0.006072
-0.102320 0.015517 0.006450
-0.104390 0.014153 -0.006615
-0.105800 0.018812 0.003909
-0.104040 0.018806 -0.004195
-0.102930 0.018153 0.004997
-0.106990 0.017271 0.005307
-0.104480 0.015322 -0.006461
-0.104880 0.018083 0.004873
-0.106010 0.014027 0.006589
-0.104820 0.014243 0.006580
-0.103200 0.013890 0.006650
-0.103700 0.017242 0.005623
-0.103220 0.018239 -0.004921
-0.105230 0.017499 -0.005312
-0.107250 0.016292 -0.005931
-0.106540 0.015626 -0.006237
-0.104390 0.018143 -0.004891
-0.103060 0.014841 -0.006546
-0.106990 0.014719 0.006485
-0.099136 0.014208 -0.003195
-0.098270 0.014310 0.003072
-0.098122 0.017931 -0.005610
-0.099828 0.014134 0.000132
-0.099376 0.014803 0.006588
-0.100360 0.014072 -0.001832
-0.100380 0.015773 0.006446
-0.097362 0.018429 0.005282
-0.102060 0.017621 -0.005496
-0.098519 0.018203 0.005351
-0.102170 0.013864 -0.001913
-0.102240 0.014363 0.006603
-0.101120 0.016511 0.006117
-0.097415 0.014515 -0.006675
-0.100810 0.015607 -0.006479
-0.101910 0.013888 0.000430
-0.098807 0.014256 -0.001313
-0.101260 0.014714 0.006571
-0.099871 0.014123 0.002705
-0.099352 0.015003 -0.006582
-0.101830 0.017737 0.005407
-0.099461 0.016712 -0.006134
-0.099175 0.018180 -0.005328
-0.100490 0.018477 -0.004988
-0.100760 0.014021 0.002252
-0.098121 0.014336 -0.003169
-0.100680 0.014030 -0.000912
-0.101570 0.013928 0.001390
-0.098620 0.015747 -0.006496
-0.100980 0.014655 -0.006603
-0.100690 0.017697 -0.005562
-0.097684 0.015190 0.006563
-0.098949 0.014237 0.000586
-0.101750 0.013905 0.002754
-0.099437 0.017934 0.005474
-0.099883 0.013984 -0.006689
-0.098142 0.014330 0.001256
-0.101220 0.016918 -0.005962
-0.098812 0.017033 0.006012
-0.102080 0.016783 0.005959
-0.102050 0.014778 -0.006569
-0.097642 0.016725 0.006195
-0.097985 0.014348 0.000195
-0.100620 0.017859 0.005426
-0.099099 0.014211 0.001820
-0.097678 0.014376 -0.001580
-0.100730 0.013905 0.003232
-0.099955 0.016899 0.006014
-0.100210 0.014082 0.001044
-0.098607 0.014271 -0.002311
-0.101800 0.013902 -0.000637
-0.098218 0.017051 -0.006053
-0.102000 0.018564 0.004768
-0.098667 0.015527 0.006504
-0.101440 0.018592 -0.004811
-0.100700 0.018716 0.004766
-0.093340 0.014891 0.002634
-0.092348 0.015002 -0.003163
-0.096141 0.014560 0.002671
-0.095092 0.014680 -0.001297
-0.096680 0.016230 -0.006462
-0.095205 0.015267 0.006590
-0.093503 0.014394 -0.003224
-0.093181 0.014450 -0.006690
-0.095020 0.018298 -0.005606
-0.096993 0.014457 -0.003042
-0.095347 0.014456 0.003231
-0.093887 0.017575 -0.006047
-0.095959 0.017183 0.006085
-0.096883 0.013874 0.003231
-0.095641 0.018203 0.005607
-0.092671 0.015007 0.006663
-0.096021 0.014574 -0.002322
-0.093155 0.014908 -0.000475
-0.095059 0.015997 -0.006519
-0.093519 0.014869 -0.001411
-0.094613 0.014740 -0.003197
-0.093336 0.016365 0.006476
-0.094104 0.018632 -0.005439
-0.093165 0.017721 0.006001
-0.095105 0.014680 0.000560
-0.095841 0.014597 -0.000233
-0.093169 0.014908 0.001330
-0.095320 0.016480 0.006406
-0.094069 0.015394 0.006590
-0.092369 0.018467 0.005692
-0.095105 0.014680 0.001752
-0.097249 0.014431 0.001937
-0.095860 0.014405 0.006668
-0.092502 0.018635 -0.005579
-0.095895 0.014659 -0.006681
-0.096877 0.014477 0.000421
-0.092720 0.013906 0.003230
-0.094326 0.014775 0.003050
-0.094255 0.018257 0.005686
-0.097222 0.018343 -0.005377
-0.093319 0.015948 -0.006551
-0.096888 0.017215 -0.006051
-0.096935 0.014467 -0.000722
-0.092369 0.014996 -0.001360
-0.095234 0.013960 -0.003224
-0.094798 0.015044 -0.006647
-0.096693 0.015072 0.006593
-0.093940 0.014820 0.000611
-0.095977 0.014585 0.000959
-0.092620 0.016821 -0.006417
-0.096827 0.017754 0.005811
-0.094212 0.016563 -0.006446
-0.095333 0.017058 -0.006187
-0.096078 0.014564 -0.001205
-0.092568 0.014980 0.000415
-0.096253 0.017993 -0.005733
-0.094442 0.014756 -0.002038
-0.093241 0.014900 -0.002370
-0.094594 0.014474 0.006668
-0.094612 0.014739 -0.000344
-0.096447 0.016069 0.006468
-0.094215 0.016780 0.006335
-0.092881 0.017775 -0.006013
-0.091375 0.015118 0.001035
-0.090284 0.015205 0.003230
-0.089758 0.017068 0.006429
-0.089675 0.015313 -0.000676
-0.087860 0.016320 0.006564
-0.090683 0.014383 -0.003225
-0.088457 0.017066 -0.006481
-0.088189 0.014992 -0.006692
-0.088663 0.015932 -0.006626
-0.091704 0.014353 0.003230
-0.087304 0.018468 -0.005996
-0.088568 0.015442 -0.000657
-0.091118 0.015843 0.006576
-0.091647 0.014958 0.006667
-0.088035 0.014298 0.006666
-0.088027 0.017607 0.006291
-0.091126 0.015151 -0.002821
-0.087545 0.014557 -0.003226
-0.088981 0.015399 0.001998
-0.091551 0.017999 0.005960
-0.087730 0.016201 -0.006604
-0.090410 0.013980 0.006667
-0.092168 0.015023 0.002476
-0.091247 0.018137 -0.005943
-0.089310 0.015351 0.003134
-0.089317 0.015359 0.000998
-0.087690 0.015409 0.003230
-0.089338 0.016068 0.006574
-0.090782 0.015183 0.002328
-0.089180 0.013831 0.006667
-0.087530 0.015255 0.006666
-0.090087 0.015739 -0.006629
-0.091119 0.015143 -0.000847
-0.088892 0.014429 0.003230
-0.092119 0.016444 0.006483
-0.088439 0.015462 -0.002931
-0.089861 0.015298 -0.001741
-0.089426 0.014510 -0.003225
-0.089954 0.015283 -0.002831
-0.092015 0.014604 -0.006691
-0.090389 0.015234 0.000066
-0.092291 0.013946 0.006667
-0.089427 0.014404 -0.006691
-0.090946 0.016908 0.006441
-0.089028 0.018513 0.005871
-0.087346 0.015592 -0.003086
-0.090425 0.015229 0.001343
-0.090646 0.016565 -0.006512
-0.088592 0.018195 -0.006046
-0.090847 0.015090 -0.006691
-0.089993 0.015099 0.006667
-0.091772 0.015756 -0.006599
-0.087560 0.015564 0.000776
-0.089504 0.017507 -0.006287
-0.091571 0.016926 -0.006426
-0.091426 0.015115 -0.001868
-0.089861 0.018389 -0.005905
-0.087331 0.015591 -0.000534
-0.088711 0.015424 -0.001979
-0.090545 0.014027 -0.006691
-0.087839 0.015534 -0.001529
-0.088984 0.014824 0.006667
-0.085753 0.013916 -0.003226
-0.083518 0.014364 -0.003227
-0.086149 0.014660 -0.006692
-0.085073 0.014718 0.003229
-0.087290 0.014524 0.003229
-0.084760 0.016414 -0.006623
-0.083709 0.015679 0.006667
-0.085887 0.015577 -0.003226
-0.082458 0.015736 0.003228
-0.085192 0.016363 0.006598
-0.082504 0.015256 0.006665
-0.086666 0.016060 0.006615
-0.083587 0.016027 0.001599
-0.082813 0.017560 0.006477
-0.085790 0.015861 -0.006679
-0.083547 0.015570 0.003229
-0.084488 0.015919 -0.000670
-0.087244 0.017287 -0.006470
-0.084516 0.017535 0.006454
-0.085244 0.015829 0.002895
-0.086055 0.017978 -0.006258
-0.086755 0.016360 -0.006599
-0.082965 0.016592 0.006602
-0.084725 0.014136 -0.003227
-0.084475 0.013970 -0.006693
-0.083094 0.016085 -0.001296
-0.085874 0.015760 -0.002272
-0.082804 0.015265 -0.003227
-0.084838 0.015164 -0.003226
-0.086683 0.017359 0.006445
-0.084502 0.015920 -0.002367
-0.083202 0.016072 -0.002373
-0.085559 0.015795 -0.001056
-0.084251 0.015952 0.000562
-0.083855 0.015848 -0.003226
-0.084930 0.015864 0.001541
-0.082713 0.014704 0.003228
-0.086344 0.015189 0.003229
-0.084567 0.014746 0.006666
-0.085337 0.018372 0.006107
-0.083224 0.016691 -0.006610
-0.086372 0.018479 0.006013
-0.087132 0.014083 -0.006692
-0.086368 0.014941 0.006666
-0.084578 0.017514 -0.006481
-0.087259 0.015599 0.001815
-0.083785 0.014381 0.003228
-0.085942 0.016949 -0.006535
-0.086259 0.015715 0.001817
-0.083813 0.014719 -0.006692
-0.082394 0.016165 -0.002964
-0.085581 0.015789 -0.000049
-0.083402 0.018373 0.006198
-0.083669 0.018253 -0.006262
-0.082658 0.016133 0.000850
-0.085420 0.015223 0.006666
-0.086681 0.015666 -0.001424
-0.084612 0.015376 -0.006692
-0.083317 0.015655 -0.006692
-0.082551 0.014015 -0.006693
-0.082730 0.016124 -0.000234
-0.086688 0.015659 0.000280
-0.087196 0.015207 -0.006692
-0.082777 0.018645 -0.006140
-0.083447 0.014648 0.006665
-0.079071 0.016552 -0.000975
-0.079251 0.016529 -0.002481
-0.079327 0.015399 0.003228
-0.079921 0.016477 -0.006690
-0.082174 0.018714 0.006114
-0.080146 0.014756 -0.003227
-0.080672 0.016365 -0.000716
-0.080638 0.018214 -0.006423
-0.077739 0.014612 -0.006694
-0.077457 0.016738 -0.000684
-0.078830 0.018224 -0.006478
-0.081601 0.016259 -0.001917
-0.078071 0.016668 -0.001926
-0.078136 0.015113 -0.003228
-0.078134 0.014501 0.006665
-0.077563 0.016724 0.002322
-0.078142 0.016337 0.006665
-0.081473 0.014939 -0.003227
-0.081679 0.016074 -0.006693
-0.081514 0.016266 0.003184
-0.077528 0.016729 0.000904
-0.081169 0.017255 0.006541
-0.079436 0.017915 0.006482
-0.081986 0.016214 0.002157
-0.077867 0.017392 -0.006601
-0.081728 0.013908 -0.003227
-0.079742 0.016470 0.002744
-0.080021 0.014170 0.006665
-0.081976 0.014390 0.006665
-0.078442 0.017428 0.006561
-0.081672 0.016249 0.000169
-0.081215 0.016304 -0.003136
-0.081482 0.014097 -0.006693
-0.077463 0.018056 0.006494
-0.080353 0.014506 0.003228
-0.079851 0.016046 -0.003227
-0.079255 0.014784 0.006664
-0.081937 0.017772 -0.006488
-0.078284 0.014597 0.003227
-0.078414 0.016634 -0.000195
-0.081483 0.016185 0.006665
-0.080430 0.016391 -0.002412
-0.081038 0.014014 0.006665
-0.082046 0.013893 0.003228
-0.079658 0.017622 -0.006545
-0.080356 0.015363 0.006665
-0.082091 0.015025 -0.006693
-0.077738 0.015630 0.003227
-0.078789 0.016425 0.003228
-0.078531 0.018611 0.006332
-0.079805 0.013953 -0.006694
-0.077808 0.014127 -0.003228
-0.080311 0.015524 0.003228
-0.080378 0.016697 0.006627
-0.079142 0.016542 0.001429
-0.077688 0.018648 -0.006386
-0.080857 0.016349 0.001910
-0.081127 0.017191 -0.006578
-0.079829 0.016462 0.000707
-0.081562 0.014859 0.003228
-0.080284 0.014915 -0.006693
-0.077650 0.016717 -0.003166
-0.078588 0.015769 -0.006694
-0.079306 0.014812 -0.006694
-0.079567 0.016025 0.006665
-0.082101 0.016194 -0.001002
-0.077511 0.016481 -0.006694
-0.078659 0.016794 -0.006667
-0.077407 0.015479 0.006664
-0.079149 0.015133 -0.003228
-0.079843 0.016464 -0.001621
-0.081022 0.016325 0.000886
-0.078636 0.015991 -0.003227
-0.076691 0.013987 -0.006694
-0.075027 0.017025 -0.000969
-0.075891 0.016509 0.003227
-0.075600 0.018140 0.006510
-0.076022 0.016234 0.006664
-0.075184 0.017007 0.001137
-0.074229 0.015835 0.003227
-0.072547 0.017314 -0.000106
-0.076399 0.016864 -0.000492
-0.072482 0.014742 0.006663
-0.075734 0.016938 0.002017
-0.073510 0.017110 0.003227
-0.076730 0.018462 -0.006479
-0.074513 0.014089 0.003226
-0.075539 0.014552 -0.006694
-0.073362 0.017214 0.000664
-0.074283 0.015653 0.006665
-0.076702 0.017425 -0.006615
-0.074219 0.017117 0.001360
-0.073162 0.017243 -0.001363
-0.073215 0.016147 0.006663
-0.077225 0.017096 0.006622
-0.074620 0.013999 -0.003229
-0.073091 0.017222 0.006664
-0.075226 0.015258 0.003227
-0.073005 0.016225 0.003226
-0.072733 0.015578 -0.006695
-0.074896 0.016859 0.003227
-0.072989 0.016984 -0.003229
-0.075209 0.015086 0.006664
-0.072866 0.014635 0.003226
-0.075736 0.017869 -0.006572
-0.075983 0.016326 -0.003228
-0.075363 0.016984 0.000070
-0.076151 0.014707 -0.003228
-0.074340 0.017819 0.006571
-0.073068 0.013984 -0.003229
-0.074119 0.016698 0.006664
-0.072583 0.013838 -0.006695
-0.073861 0.014909 0.003226
-0.077118 0.016700 0.003227
-0.077161 0.014862 -0.003228
-0.076978 0.016798 -0.001776
-0.074164 0.014405 0.006663
-0.074247 0.015200 -0.006695
-0.075278 0.016992 -0.001997
-0.073627 0.017183 -0.000511
-0.076192 0.016886 -0.002335
-0.074383 0.017137 -0.006689
-0.076156 0.016889 0.001014
-0.074778 0.018093 -0.006558
-0.073289 0.018090 -0.006581
-0.076975 0.015424 -0.006694
-0.072502 0.016135 -0.003229
-0.073463 0.018304 0.006521
-0.075227 0.015899 -0.006694
-0.072511 0.017318 0.001149
-0.076567 0.015549 0.003227
-0.074205 0.017116 0.002412
-0.073285 0.013897 0.006664
-0.074216 0.016870 -0.003228
-0.072735 0.016875 -0.006694
-0.075370 0.017160 0.006641
-0.075441 0.016906 -0.006694
-0.073834 0.016263 -0.006694
-0.072562 0.017316 -0.002385
-0.076682 0.014494 0.003227
-0.073205 0.017231 0.002038
-0.074206 0.017117 -0.001803
-0.072841 0.015230 -0.003229
-0.076943 0.015981 -0.003228
-0.076289 0.016326 -0.006694
-0.073960 0.015236 -0.003229
-0.075181 0.015313 -0.003228
-0.076493 0.014962 0.006665
-0.073415 0.014413 -0.006695
-0.075185 0.017008 -0.003189
-0.076672 0.013904 0.006665
-0.068607 0.014419 0.002860
-0.068642 0.014764 -0.005150
-0.072292 0.018056 -0.006601
-0.068680 0.015111 0.004064
-0.068703 0.015275 0.006604
-0.068592 0.013838 -0.003230
-0.071619 0.017420 0.000559
-0.070186 0.014771 -0.003230
-0.070529 0.017935 -0.006644
-0.071363 0.015772 0.003226
-0.069073 0.018380 -0.004950
-0.070055 0.017604 -0.003144
-0.070139 0.017594 0.001083
-0.069072 0.018455 0.005409
-0.068876 0.016692 -0.000430
-0.071019 0.017492 -0.000590
-0.071296 0.017461 0.002139
-0.070682 0.017015 0.003226
-0.068885 0.016793 -0.004107
-0.069660 0.017653 0.002060
-0.068726 0.015470 0.001610
-0.072125 0.016631 0.006664
-0.068613 0.014532 0.005127
-0.069537 0.014330 -0.006696
-0.068913 0.017085 0.000936
-0.070610 0.016658 -0.006695
-0.068852 0.016513 0.004064
-0.068947 0.017306 0.003268
-0.069860 0.017624 0.003120
-0.071762 0.017402 -0.003197
-0.070367 0.014826 -0.006696
-0.071498 0.014222 0.003225
-0.070567 0.016030 -0.003229
-0.069444 0.015441 0.003225
-0.071148 0.017473 -0.002245
-0.069049 0.018215 -0.006139
-0.068869 0.016714 -0.005230
-0.068252 0.018138 0.000503
-0.068872 0.016748 0.002464
-0.069073 0.018456 0.004330
-0.070331 0.018287 0.006570
-0.068709 0.014064 0.006662
-0.068898 0.016915 -0.006658
-0.068949 0.017369 0.005814
-0.068771 0.015856 0.000447
-0.070204 0.017592 -0.001474
-0.071641 0.017583 0.006642
-0.069001 0.017779 -0.004021
-0.068772 0.015842 -0.001728
-0.069113 0.018806 0.001194
-0.071494 0.014825 -0.003229
-0.071034 0.013856 0.006662
-0.070629 0.017258 0.006663
-0.068649 0.014756 -0.002462
-0.067721 0.014330 0.000502
-0.069062 0.018322 -0.003200
-0.069072 0.018379 -0.002167
-0.068860 0.016598 0.006663
-0.069621 0.014411 0.003225
-0.068420 0.014372 -0.000428
-0.068911 0.017021 -0.001973
-0.068750 0.015664 -0.004520
-0.071439 0.017579 -0.006676
-0.068544 0.013890 0.004301
-0.067951 0.015721 -0.000428
-0.068928 0.015853 -0.003230
-0.070761 0.015751 0.006663
-0.071560 0.015206 -0.006695
-0.068667 0.014899 0.000685
-0.068698 0.015193 -0.006174
-0.071476 0.014942 0.006663
-0.071882 0.017388 0.002978
-0.069717 0.015937 -0.006696
-0.068637 0.014728 -0.004134
-0.068808 0.016127 0.005054
-0.068661 0.014892 -0.001448
-0.068990 0.017721 -0.000825
-0.068112 0.017504 -0.000427
-0.072041 0.017372 -0.001553
-0.070443 0.015340 0.003226
-0.068577 0.014171 -0.006506
-0.069102 0.018657 -0.000548
-0.070261 0.014476 0.006662
-0.069579 0.016570 0.003226
-0.069743 0.015815 0.006663
-0.069056 0.018285 0.002703
-0.069897 0.017620 -0.000128
-0.068588 0.014291 0.001514
-0.068028 0.016861 0.000502
-0.069648 0.017198 0.006663
-0.068757 0.015734 0.002547
-0.069651 0.013897 -0.003230
-0.068935 0.017262 0.004699
-0.069122 0.018040 0.006621
-0.068888 0.016843 -0.003009
-0.067548 0.015608 0.000502
-0.064148 0.017004 0.000502
-0.066467 0.015555 0.000502
-0.062605 0.018323 -0.000429
-0.065687 0.017004 -0.000428
-0.063618 0.014629 0.000501
-0.062793 0.014260 -0.000429
-0.063041 0.016616 0.000501
-0.063795 0.015761 0.000501
-0.065934 0.016801 0.000502
-0.065064 0.018223 -0.000428
-0.065265 0.018485 0.000502
-0.064438 0.014870 -0.000429
-0.062873 0.015556 -0.000429
-0.063671 0.018176 -0.000428
-0.067138 0.018777 -0.000427
-0.062437 0.017049 -0.000429
-0.063950 0.018755 0.000502
-0.064727 0.016116 -0.000429
-0.066984 0.015768 -0.000428
-0.066519 0.018295 0.000502
-0.065847 0.015711 -0.000428
-0.065679 0.014742 0.000501
-0.066978 0.017086 0.000502
-0.062407 0.014198 0.000500
-0.063647 0.016566 -0.000429
-0.066234 0.014816 -0.000429
-0.064974 0.013872 -0.000429
-0.064990 0.016417 0.000502
-0.064231 0.017343 -0.000428
-0.063015 0.017713 0.000501
-0.066767 0.016753 -0.000428
-0.064695 0.015348 0.000501
-0.066099 0.018117 -0.000428
-0.062591 0.015749 0.000501
-0.062522 0.018792 0.000502
-0.065147 0.017420 0.000502
-0.067273 0.014654 -0.000428
-0.112520 0.019256 -0.000895
-0.116920 0.018821 0.000292
-0.115300 0.018944 0.000809
-0.115880 0.018934 -0.000400
-0.113450 0.019128 0.000996
-0.115310 0.018831 -0.001622
-0.113780 0.019158 -0.000538
-0.114160 0.018972 -0.001573
-0.112580 0.019330 0.000250
-0.114860 0.019076 -0.000175
-0.113220 0.018928 -0.002054
-0.112610 0.019162 0.001523
-0.108060 0.019819 -0.000530
-0.107770 0.019856 0.000504
-0.109830 0.019609 0.000587
-0.111020 0.019252 -0.001903
-0.109440 0.019106 0.002670
-0.110110 0.019479 -0.001329
-0.111590 0.019482 -0.000046
-0.107630 0.019047 -0.003340
-0.108190 0.019531 -0.002025
-0.110550 0.019545 -0.000460
-0.107350 0.019395 0.002563
-0.110480 0.019242 0.002055
-0.108900 0.019651 0.001109
-0.107790 0.019694 0.001726
-0.109160 0.019662 -0.000812
-0.111580 0.019304 0.001328
-0.108550 0.019363 0.002318
-0.108650 0.019010 -0.003152
-0.107340 0.019806 -0.001317
-0.109760 0.019037 -0.002769
-0.112110 0.019136 -0.001873
-0.112060 0.018932 0.002365
-0.102880 0.019683 -0.003156
-0.103640 0.020188 0.001666
-0.105800 0.019395 -0.003011
-0.103190 0.019334 0.003628
-0.102660 0.019943 0.002555
-0.105830 0.020048 0.000831
-0.106490 0.019845 0.001728
-0.106440 0.020062 -0.000184
-0.102590 0.020484 0.000367
-0.104100 0.018922 0.004018
-0.104070 0.020345 -0.000142
-0.104830 0.019497 0.003021
-0.104760 0.019642 -0.002721
-0.105880 0.019981 -0.001279
-0.105340 0.020192 -0.000130
-0.105060 0.018848 -0.003986
-0.102390 0.020110 -0.002253
-0.104630 0.020164 0.000957
-0.103400 0.019966 -0.002329
-0.103930 0.020180 -0.001527
-0.104870 0.019939 0.001952
-0.106450 0.019681 -0.002145
-0.104760 0.020152 -0.000971
-0.103070 0.020383 -0.000750
-0.106370 0.019426 0.002756
-0.103880 0.019658 0.002907
-0.103830 0.019493 -0.003345
-0.099346 0.020722 -0.001439
-0.099018 0.019523 -0.004030
-0.098112 0.019168 0.004602
-0.097979 0.018970 -0.004835
-0.100360 0.020145 0.002724
-0.100240 0.019798 -0.003484
-0.099058 0.020772 0.001303
-0.097762 0.020868 -0.001706
-0.099592 0.019086 0.004480
-0.101090 0.019963 -0.002979
-0.098308 0.020139 0.003310
-0.101090 0.020480 -0.001720
-0.100220 0.019188 -0.004286
-0.101010 0.020495 0.001675
-0.100080 0.020687 0.001030
-0.098123 0.020977 -0.000603
-0.101960 0.020476 -0.001006
-0.099099 0.020088 -0.003236
-0.101470 0.019995 0.002784
-0.102230 0.019007 -0.004213
-0.101450 0.019108 0.004179
-0.099141 0.020395 0.002454
-0.097341 0.021008 0.000991
-0.097383 0.019671 0.004061
-0.099797 0.020356 -0.002393
-0.100430 0.020754 -0.000209
-0.099500 0.019696 0.003719
-0.098047 0.020448 -0.002659
-0.100730 0.019682 0.003550
-0.099263 0.020886 0.000259
-0.097623 0.019611 -0.004126
-0.101950 0.019633 -0.003442
-0.101230 0.019271 -0.004023
-0.097891 0.020741 0.001996
-0.101700 0.020635 0.000010
-0.101950 0.020454 0.001128
-0.098200 0.020989 0.000392
-0.096987 0.020374 0.003111
-0.092852 0.020437 -0.003779
-0.094396 0.021174 -0.001950
-0.096206 0.020816 0.002277
-0.096026 0.018828 -0.005115
-0.094494 0.021393 -0.000625
-0.093978 0.020116 0.004001
-0.092973 0.020409 0.003774
-0.094462 0.021128 0.002012
-0.096412 0.019880 0.003937
-0.095521 0.021294 -0.000483
-0.094862 0.021390 0.000298
-0.096188 0.021085 -0.001435
-0.095491 0.020589 0.003015
-0.096625 0.019486 -0.004444
-0.094179 0.020515 -0.003478
-0.093601 0.021388 0.001474
-0.095820 0.019109 0.004896
-0.093295 0.019027 0.005187
-0.094363 0.019370 0.004830
-0.096275 0.020546 -0.002918
-0.096913 0.020136 -0.003547
-0.095182 0.020129 0.003807
-0.092792 0.019744 0.004662
-0.095431 0.020870 -0.002371
-0.096083 0.021162 0.000978
-0.093177 0.021374 -0.001808
-0.095257 0.020412 -0.003452
-0.095697 0.019790 -0.004184
-0.093468 0.019332 -0.004954
-0.093790 0.021529 0.000247
-0.093341 0.021044 0.002526
-0.093821 0.019966 -0.004238
-0.096803 0.019234 0.004717
-0.092639 0.021669 -0.000198
-0.096627 0.021193 -0.000279
-0.096934 0.020754 -0.002242
-0.093297 0.020872 -0.002972
-0.095055 0.019129 -0.004967
-0.093460 0.021485 -0.000850
-0.095439 0.021139 0.001703
-0.094199 0.020720 0.003059
-0.092426 0.021562 0.001127
-0.091429 0.021635 0.001466
-0.087771 0.021256 -0.003490
-0.088190 0.019195 -0.005534
-0.089889 0.020111 0.004625
-0.089858 0.021186 0.003177
-0.087616 0.020516 -0.004476
-0.090140 0.018831 0.005611
-0.090899 0.021407 0.002329
-0.091128 0.021077 -0.003099
-0.088580 0.020389 0.004470
-0.087576 0.021277 0.003470
-0.088101 0.022214 -0.000070
-0.092273 0.021310 0.002195
-0.089454 0.019367 -0.005293
-0.091636 0.019026 0.005333
-0.087371 0.019762 -0.005174
-0.088947 0.019379 0.005299
-0.090208 0.021863 0.000863
-0.091091 0.021811 0.000455
-0.087500 0.022179 0.000889
-0.091535 0.020600 0.003742
-0.087883 0.019696 0.005155
-0.091200 0.019636 -0.004933
-0.092179 0.021050 -0.002851
-0.089211 0.021434 -0.002761
-0.087968 0.021681 -0.002522
-0.091129 0.021474 -0.002148
-0.088960 0.020353 -0.004475
-0.090042 0.021916 -0.000659
-0.090466 0.020408 -0.004179
-0.091141 0.019736 0.004832
-0.089337 0.020711 0.003933
-0.090335 0.020638 0.003872
-0.090212 0.021304 -0.002802
-0.089196 0.022056 0.000277
-0.088800 0.021312 0.003167
-0.092248 0.019545 -0.004900
-0.092207 0.021569 -0.001324
-0.089234 0.021916 0.001265
-0.091622 0.020289 -0.004162
-0.091089 0.021747 -0.000982
-0.089526 0.020988 -0.003567
-0.088117 0.021761 0.002263
-0.088374 0.022056 -0.001027
-0.089367 0.021627 0.002230
-0.090437 0.019081 -0.005423
-0.087385 0.022214 -0.000750
-0.088991 0.021851 -0.001839
-0.090176 0.021720 -0.001818
-0.086054 0.018920 -0.005871
-0.084539 0.020713 0.004661
-0.086499 0.021685 0.002918
-0.084504 0.021145 -0.004125
-0.084296 0.022597 0.000551
-0.084218 0.022385 0.001862
-0.085527 0.020873 0.004296
-0.085927 0.020966 -0.004134
-0.084867 0.021501 0.003580
-0.085518 0.022248 0.001824
-0.082468 0.022690 0.001410
-0.084169 0.021887 -0.003090
-0.082993 0.021161 -0.004332
-0.082818 0.021204 0.004273
-0.083720 0.021479 0.003783
-0.084322 0.020083 -0.005203
-0.085133 0.020451 -0.004845
-0.086310 0.022289 -0.001097
-0.083244 0.022013 0.003029
-0.082539 0.022802 -0.000545
-0.085371 0.022430 0.000814
-0.082468 0.022599 -0.001867
-0.085429 0.021704 -0.003182
-0.086653 0.020582 0.004501
-0.086540 0.022234 0.001306
-0.082342 0.020490 0.005040
-0.083846 0.019446 0.005704
-0.085864 0.019996 0.005108
-0.083212 0.021885 -0.003361
-0.086659 0.022356 0.000232
-0.082813 0.019523 0.005737
-0.083351 0.020385 -0.005060
-0.084168 0.022616 -0.000487
-0.083010 0.019582 -0.005699
-0.086773 0.021542 -0.003201
-0.087243 0.018900 0.005798
-0.083589 0.022272 -0.002343
-0.085070 0.022282 -0.001898
-0.084789 0.018868 -0.005951
-0.085517 0.019263 0.005695
-0.083533 0.022573 -0.001422
-0.085236 0.022442 -0.000862
-0.083291 0.022676 0.000816
-0.086846 0.022022 -0.002013
-0.083453 0.020212 0.005152
-0.087229 0.022005 0.001941
-0.086332 0.020335 -0.004833
-0.085375 0.019617 -0.005464
-0.084206 0.021945 0.002922
-0.084838 0.019868 0.005295
-0.080771 0.022949 -0.000997
-0.079279 0.019379 0.005979
-0.080137 0.022678 0.002306
-0.077725 0.019910 0.005836
-0.079230 0.021942 0.003857
-0.081587 0.018938 -0.006078
-0.081190 0.022517 0.002398
-0.078537 0.020613 -0.005310
-0.078792 0.022260 -0.003550
-0.078319 0.022829 0.002448
-0.077663 0.023309 -0.001005
-0.079717 0.020567 -0.005242
-0.081970 0.022195 0.002950
-0.080981 0.022977 0.000597
-0.079584 0.023200 0.000113
-0.079713 0.023075 -0.000929
-0.077927 0.022440 0.003419
-0.078088 0.020828 0.005164
-0.080846 0.020021 -0.005563
-0.079258 0.023085 0.001271
-0.077826 0.022598 -0.003178
-0.080824 0.021548 0.004136
-0.080511 0.020017 0.005567
-0.078117 0.021867 -0.004157
-0.080883 0.018830 0.006131
-0.079178 0.020541 0.005284
-0.079713 0.018887 -0.006190
-0.079967 0.022788 -0.002099
-0.081975 0.021606 0.003882
-0.081107 0.022392 -0.002734
-0.081945 0.022881 0.000433
-0.079770 0.021312 0.004592
-0.080735 0.022223 0.003234
-0.079792 0.021947 -0.003803
-0.077547 0.019659 -0.005978
-0.077326 0.023349 0.000975
-0.077778 0.021142 -0.004974
-0.079743 0.021313 -0.004626
-0.078880 0.019453 -0.005995
-0.081921 0.019854 -0.005592
-0.081885 0.021701 -0.003799
-0.078104 0.023389 0.000006
-0.077632 0.018996 0.006216
-0.078650 0.022768 -0.002532
-0.080884 0.021632 -0.004041
-0.077538 0.021917 0.004150
-0.080961 0.021021 -0.004788
-0.077926 0.023093 -0.001937
-0.078730 0.023149 -0.001270
-0.079267 0.022547 0.002856
-0.081996 0.021022 -0.004660
-0.081139 0.020769 0.004932
-0.081852 0.019684 0.005703
-0.078573 0.021506 0.004519
-0.077362 0.023146 0.001961
-0.073131 0.023237 0.002926
-0.074986 0.023082 -0.002808
-0.076777 0.020709 0.005369
-0.076398 0.020593 -0.005519
-0.075122 0.021687 0.004771
-0.073212 0.023710 0.001767
-0.072420 0.019086 -0.006462
-0.072437 0.021161 0.005410
-0.076420 0.023542 0.000324
-0.074429 0.020783 -0.005547
-0.075000 0.020785 0.005465
-0.073286 0.020766 0.005637
-0.076410 0.023393 -0.001518
-0.073991 0.022686 0.003688
-0.076009 0.019522 0.006080
-0.075961 0.023015 -0.002706
-0.075077 0.022075 -0.004346
-0.075201 0.022295 0.004008
-0.076372 0.023411 0.001383
-0.074251 0.022529 -0.003887
-0.074814 0.019475 0.006155
-0.075085 0.023592 -0.001186
-0.074794 0.023685 0.000647
-0.072361 0.022567 0.004093
-0.075384 0.019779 -0.006030
-0.072981 0.021222 -0.005344
-0.075378 0.022924 0.003049
-0.077123 0.022796 0.002860
-0.072683 0.023271 -0.002994
-0.077000 0.021726 -0.004505
-0.074191 0.023281 0.002516
-0.072595 0.022500 -0.004168
-0.075414 0.020788 -0.005457
-0.075771 0.023604 -0.000453
-0.076548 0.021983 0.004210
-0.073988 0.020049 0.005960
-0.076015 0.022239 -0.003994
-0.073999 0.023106 -0.003025
-0.076051 0.021382 0.004922
-0.074544 0.019119 -0.006347
-0.076350 0.019442 -0.006123
-0.076191 0.023051 0.002524
-0.075003 0.023529 0.001680
-0.073113 0.022044 0.004648
-0.073954 0.023649 -0.001690
-0.074506 0.023764 -0.000329
-0.077017 0.023024 -0.002373
-0.073230 0.020290 -0.005926
-0.073723 0.023795 0.000780
-0.074183 0.021430 0.005050
-0.076215 0.022606 0.003463
-0.074113 0.021761 -0.004833
-0.073037 0.023586 -0.002145
-0.076673 0.022660 -0.003330
-0.072954 0.019729 0.006140
-0.073594 0.019429 -0.006264
-0.069698 0.023787 0.002199
-0.071456 0.020370 0.005946
-0.069695 0.023737 0.000534
-0.069313 0.020514 0.004319
-0.070345 0.019521 0.006349
-0.070580 0.022637 -0.004302
-0.072248 0.020137 -0.006038
-0.070232 0.022025 -0.004975
-0.069286 0.019097 -0.006511
-0.069524 0.022293 0.002643
-0.070133 0.023464 -0.003241
-0.069560 0.022609 -0.001148
-0.069875 0.023473 0.003274
-0.071669 0.023279 -0.003258
-0.069262 0.020043 0.001618
-0.069518 0.022271 0.004638
-0.069507 0.022136 0.001377
-0.071938 0.021335 -0.005348
-0.072024 0.023352 0.002957
-0.072072 0.018839 0.006472
-0.069283 0.020235 0.003029
-0.069350 0.020799 0.005795
-0.070483 0.021263 -0.005534
-0.069223 0.019694 -0.002602
-0.069327 0.020651 -0.004809
-0.069243 0.019915 -0.003668
-0.069347 0.020765 0.000450
-0.069210 0.019587 -0.005449
-0.071320 0.021325 0.005383
-0.071456 0.022852 0.003867
-0.071343 0.019586 -0.006304
-0.071505 0.023806 -0.002041
-0.069535 0.022366 -0.003712
-0.070289 0.021374 0.005437
-0.069455 0.021681 -0.004424
-0.069198 0.019513 0.005968
-0.069428 0.021451 -0.001989
-0.068133 0.020072 0.000503
-0.069587 0.022837 -0.000020
-0.069167 0.019249 0.003439
-0.070995 0.022338 0.004592
-0.071196 0.022021 -0.004898
-0.069155 0.019114 0.002166
