ply
format ascii 1.0
element vertex 1685
property float x
property float y
property float z
end_header
-0.157770 0.012323 -0.003264
-0.125840 0.008642 0.000298
0.006635 0.011815 0.001981
-0.133370 0.013294 0.002098
0.006909 0.009929 -0.000720
-0.060208 0.013885 0.000965
-0.027391 0.010833 0.001878
-0.047840 0.009493 -0.000590
-0.065154 0.013262 -0.001792
-0.049019 0.010633 -0.001965
-0.113350 0.009364 0.001025
-0.016850 0.013734 0.000772
-0.032192 0.010271 -0.001550
-0.039194 0.009963 0.001151
-0.154770 0.011600 -0.003595
-0.174280 0.013269 -0.002466
-0.059811 0.010967 -0.002268
-0.070766 0.010822 0.002154
0.008604 0.013364 -0.001204
-0.127800 0.014675 -0.000699
-0.105150 0.011460 -0.003003
-0.078025 0.013416 0.001628
-0.020117 0.013219 -0.001556
-0.156500 0.013766 0.001783
-0.160040 0.014071 -0.001580
-0.159580 0.010011 -0.002102
-0.158940 0.009186 0.001190
-0.139190 0.008856 0.000681
-0.015761 0.012351 -0.002117
-0.163460 0.010606 0.002627
0.017338 0.011546 -0.001965
-0.067780 0.013189 0.001774
-0.138990 0.009520 -0.001459
-0.041122 0.009632 -0.000765
-0.076388 0.013269 -0.001853
-0.061065 0.011341 0.002452
-0.157080 0.008909 -0.000942
-0.150670 0.013131 0.002370
-0.052909 0.013623 0.001238
-0.010691 0.012480 -0.002026
-0.149630 0.011277 -0.003240
-0.104030 0.014958 -0.000005
-0.019314 0.014061 0.000073
-0.074579 0.014613 -0.000168
-0.172360 0.014952 0.000683
-0.144370 0.011765 -0.003652
0.004512 0.013861 -0.000062
-0.140810 0.012908 -0.002589
-0.017552 0.010956 -0.001986
0.021844 0.010411 0.001234
-0.142760 0.014705 0.000687
0.022863 0.010472 0.000294
-0.048655 0.014083 -0.000651
-0.083489 0.014447 0.000424
-0.160650 0.008274 -0.000307
-0.022547 0.014063 0.000159
-0.084784 0.012394 0.002507
-0.053477 0.012738 0.002046
-0.110350 0.009902 0.001592
-0.060799 0.009303 0.000430
0.014194 0.011795 -0.002026
-0.089208 0.014389 0.000564
-0.072644 0.012448 -0.002479
-0.057548 0.009559 -0.000821
-0.063188 0.012870 0.002011
-0.171520 0.010153 0.002240
-0.006010 0.010767 0.001699
-0.075624 0.010382 -0.001924
0.001806 0.011967 0.002001
-0.024666 0.013876 0.000599
-0.032693 0.013955 0.000563
-0.048958 0.009450 0.000508
-0.130720 0.012260 0.003007
-0.062788 0.010335 0.001707
-0.129390 0.009203 0.000982
-0.011683 0.011372 0.002054
-0.121850 0.014128 -0.001255
-0.147450 0.014858 0.000562
-0.142170 0.008214 0.000014
-0.029153 0.009614 -0.000557
-0.041142 0.010119 0.001351
0.008178 0.012818 -0.001717
-0.103120 0.011144 0.002647
-0.079584 0.009534 0.000943
-0.028786 0.009421 -0.000105
0.000324 0.009817 -0.000553
-0.041848 0.012297 0.002234
-0.138190 0.010440 -0.002375
-0.114930 0.014511 -0.000758
-0.067948 0.013841 -0.001189
-0.116180 0.011970 0.003130
0.000447 0.013288 0.001247
-0.060318 0.012439 0.002293
-0.124760 0.013526 0.001819
-0.136750 0.014766 0.000562
-0.041170 0.014068 -0.000584
-0.140090 0.013968 -0.001555
-0.009969 0.010611 0.001615
-0.084276 0.013028 -0.002118
-0.064528 0.011176 -0.002439
0.017879 0.012954 -0.001563
-0.157190 0.009980 -0.002055
-0.061450 0.009675 0.000975
-0.146940 0.011132 -0.003081
-0.071428 0.014032 -0.000978
-0.047157 0.011704 -0.002586
-0.126860 0.013927 0.001421
-0.007383 0.009634 -0.000166
-0.129850 0.008322 -0.000001
-0.116440 0.015016 0.000059
-0.115750 0.012395 -0.002860
-0.108750 0.009407 0.001037
-0.065626 0.009752 0.001103
-0.133870 0.009516 0.001352
-0.032461 0.010651 -0.001876
-0.045546 0.014167 -0.000468
-0.168730 0.010280 -0.002431
-0.108810 0.011844 -0.003243
-0.148780 0.010740 0.002650
-0.032213 0.009714 0.000732
-0.157270 0.014598 0.000927
-0.149250 0.014406 0.001067
-0.022520 0.012818 0.001790
-0.055713 0.013098 0.001781
-0.142080 0.013035 0.002404
-0.097103 0.013883 -0.001355
-0.031381 0.012162 -0.002327
-0.121100 0.009438 0.001170
-0.051118 0.014419 -0.000134
-0.118610 0.010778 -0.002549
-0.164270 0.012760 0.002832
-0.017297 0.012804 0.001767
0.005547 0.011350 0.001905
-0.021977 0.013405 0.001270
-0.071662 0.013498 -0.001599
-0.057323 0.010205 0.001548
-0.039264 0.013269 -0.001626
-0.098600 0.009890 -0.001585
-0.172230 0.009016 0.001116
-0.173250 0.011352 -0.003538
-0.172870 0.015244 0.000391
-0.042321 0.012788 0.001936
-0.107410 0.014638 0.000439
-0.127160 0.008469 0.000118
-0.153330 0.010041 -0.002092
-0.098814 0.012818 -0.002380
-0.122650 0.012941 -0.002436
-0.140430 0.011386 -0.003264
-0.127350 0.009324 0.001099
-0.148880 0.013250 -0.002320
-0.001388 0.009738 -0.000355
-0.136600 0.013745 0.001674
-0.166700 0.013825 0.001788
-0.144920 0.009132 0.001028
-0.058603 0.010431 0.001768
-0.160830 0.008868 0.000877
-0.130260 0.008840 -0.000618
-0.168380 0.008911 -0.001039
-0.027208 0.009387 -0.000009
-0.038383 0.012963 0.001784
-0.041442 0.012634 -0.002143
-0.082138 0.011520 -0.002813
-0.157070 0.008379 0.000338
-0.049122 0.014217 0.000310
-0.088075 0.011125 -0.002587
-0.161230 0.014415 -0.001240
-0.030730 0.011184 -0.002201
-0.169210 0.010508 -0.002661
-0.169660 0.009486 0.001566
-0.072951 0.009524 0.000882
-0.173510 0.012272 -0.003445
-0.000919 0.010014 -0.000981
-0.175140 0.012231 0.001828
-0.001939 0.012814 -0.001778
-0.114510 0.010345 -0.002134
-0.173670 0.010013 0.002116
-0.085333 0.012977 0.002065
-0.124310 0.012570 -0.002774
-0.043139 0.010060 0.001303
-0.005087 0.012772 -0.001827
-0.027179 0.013611 -0.001157
-0.035661 0.013810 -0.000943
-0.090767 0.010258 -0.001906
0.004153 0.011264 -0.001992
-0.073439 0.014105 0.000785
-0.067316 0.013986 0.000888
-0.112420 0.009817 0.001518
-0.072389 0.009247 0.000474
-0.166460 0.011593 -0.003709
-0.092969 0.013252 0.001877
-0.165070 0.013073 0.002528
-0.075974 0.008931 -0.000086
-0.060851 0.009686 0.000982
-0.001426 0.010960 -0.001892
-0.142400 0.010367 -0.002338
-0.084118 0.010576 0.002051
-0.160920 0.010025 0.002045
-0.103430 0.008919 -0.000426
-0.130180 0.011380 0.003072
-0.128280 0.012659 -0.002728
-0.164680 0.011708 -0.003807
-0.110870 0.012900 0.002304
-0.045109 0.013239 0.001591
-0.038689 0.014305 -0.000066
-0.021077 0.011945 0.002211
-0.152580 0.013097 0.002417
-0.066803 0.013643 0.001313
0.003134 0.013586 0.000803
-0.141770 0.014494 0.000914
-0.083998 0.010464 -0.002050
-0.171610 0.008331 -0.000474
-0.102100 0.009463 -0.001116
-0.067507 0.012222 0.002489
-0.029976 0.011544 0.002271
-0.091147 0.012736 -0.002402
-0.005547 0.013830 0.000381
0.022863 0.011121 -0.001713
-0.172900 0.011842 0.003821
-0.113380 0.014279 0.000926
-0.142470 0.011435 0.003237
-0.118400 0.012303 -0.002954
-0.032255 0.013620 0.001086
0.005987 0.013845 -0.000035
-0.084825 0.009155 0.000492
0.016836 0.010123 -0.000994
-0.053583 0.013330 0.001557
-0.061660 0.012901 0.001970
0.022225 0.013033 -0.001473
-0.167890 0.008024 0.000082
-0.139620 0.013794 0.001644
-0.163450 0.008711 -0.000791
-0.123610 0.014853 0.000341
-0.158070 0.010836 -0.002900
-0.065422 0.011454 0.002558
-0.130530 0.011766 0.003419
-0.045008 0.013224 -0.001704
-0.047424 0.009187 -0.000049
-0.108220 0.010915 0.002506
-0.037290 0.013093 0.001670
-0.116130 0.012989 0.002267
-0.130100 0.011898 -0.003395
0.020049 0.009994 0.000567
-0.136830 0.008680 -0.000501
-0.043053 0.013546 0.001257
-0.048652 0.009235 -0.000152
-0.009963 0.011618 -0.002208
-0.169760 0.014832 -0.000882
-0.098727 0.011728 -0.003144
-0.129860 0.009178 -0.001010
-0.025293 0.010291 -0.001526
-0.170230 0.011080 -0.003240
-0.069937 0.009822 -0.001307
-0.143830 0.013317 0.002145
-0.161250 0.010298 -0.002397
-0.069662 0.012666 -0.002304
-0.050055 0.011043 -0.002260
0.021284 0.011268 0.001765
-0.103990 0.008681 -0.000124
-0.039958 0.009793 -0.001008
-0.170450 0.007916 0.000000
0.022208 0.009905 -0.000173
-0.159750 0.009352 0.001363
-0.071642 0.010509 0.001915
-0.031223 0.010743 -0.001934
-0.163940 0.013059 -0.002603
-0.137660 0.010305 -0.002248
-0.165210 0.011297 -0.003407
-0.128070 0.013295 0.002060
0.006977 0.012176 -0.002023
-0.128240 0.009719 0.001525
0.001931 0.010459 -0.001518
-0.062174 0.011386 -0.002565
-0.056927 0.010366 -0.001794
-0.128900 0.014811 -0.000541
-0.166140 0.010249 -0.002381
-0.059411 0.013193 -0.001818
0.009041 0.013456 0.000960
-0.142460 0.013505 -0.002034
-0.010529 0.010758 0.001720
-0.166230 0.008166 -0.000253
-0.120440 0.013012 -0.002361
0.022342 0.013575 -0.000660
-0.143730 0.010133 0.002038
-0.140120 0.014787 -0.000673
-0.152890 0.012573 0.002914
-0.112030 0.009754 -0.001529
0.002897 0.011793 -0.002142
-0.096481 0.013009 0.002112
-0.128860 0.011107 0.002825
-0.146780 0.014635 0.000801
-0.029124 0.009551 0.000401
-0.128210 0.010515 -0.002380
0.020856 0.012601 0.001655
-0.118710 0.008877 -0.000552
-0.009367 0.009773 0.000533
-0.164440 0.013805 0.001794
-0.086629 0.011917 0.002860
-0.073214 0.012829 0.002099
-0.134830 0.009963 -0.001895
-0.152730 0.014793 -0.000781
-0.081101 0.009847 -0.001414
-0.074173 0.009919 0.001364
-0.015469 0.014002 -0.000276
-0.033784 0.013415 0.001342
0.019045 0.012126 -0.001937
-0.103180 0.012267 0.002766
-0.036969 0.009931 0.001100
-0.167360 0.008990 0.001054
-0.139160 0.012967 -0.002523
-0.109580 0.012166 0.002896
-0.034570 0.012721 -0.002041
-0.102180 0.010974 -0.002581
-0.091479 0.014434 0.000510
-0.163060 0.012160 0.003409
-0.012791 0.010313 -0.001467
-0.098668 0.013755 -0.001503
-0.155000 0.008233 -0.000205
0.007929 0.013145 0.001346
-0.047810 0.009758 0.000959
-0.173150 0.013144 0.002517
-0.163560 0.009514 -0.001624
-0.165530 0.013289 -0.002389
-0.076367 0.011137 -0.002510
-0.162820 0.008477 0.000492
0.013167 0.009902 0.000447
-0.146050 0.010474 0.002380
-0.074568 0.013584 -0.001527
0.001668 0.013784 0.000358
-0.025928 0.013176 -0.001632
0.010876 0.013628 0.000614
-0.095028 0.013757 -0.001476
-0.024591 0.012831 0.001795
0.005419 0.009753 0.000152
-0.149360 0.009476 0.001417
-0.139760 0.009816 0.001699
-0.104620 0.014919 0.000040
-0.031886 0.009452 0.000226
-0.109070 0.008903 -0.000492
-0.129540 0.009942 -0.001840
-0.062249 0.010095 0.001469
-0.025119 0.014115 0.000086
-0.169460 0.011975 0.003651
-0.085733 0.012760 -0.002340
-0.002480 0.009958 0.000807
-0.036855 0.009572 -0.000602
-0.117320 0.008812 -0.000449
-0.088978 0.012744 0.002277
-0.032925 0.010309 0.001491
-0.046576 0.010788 0.001971
0.017886 0.011837 -0.001988
-0.151420 0.009900 0.001859
-0.167060 0.013073 -0.002611
-0.167930 0.008416 -0.000526
-0.115460 0.013869 0.001404
-0.062729 0.010158 -0.001631
-0.080769 0.012491 -0.002517
-0.162700 0.011901 -0.003707
-0.085734 0.014306 0.000621
-0.061554 0.012758 -0.002185
-0.093894 0.014242 0.000803
-0.092884 0.013530 -0.001702
-0.156230 0.013164 0.002376
-0.130340 0.009198 0.000986
-0.016700 0.011841 0.002201
-0.018212 0.012094 -0.002258
-0.104650 0.013837 -0.001458
-0.049247 0.009208 0.000074
-0.040020 0.010006 0.001216
-0.012150 0.009976 -0.001030
-0.172540 0.011986 -0.003720
-0.136930 0.012878 0.002507
-0.117670 0.012390 -0.002876
-0.158270 0.013239 0.002318
-0.003523 0.009994 0.000877
-0.043722 0.013205 0.001612
0.022863 0.012314 0.001440
-0.139160 0.010443 -0.002385
-0.060984 0.010531 -0.001963
-0.112280 0.013734 0.001525
-0.038411 0.013649 -0.001199
-0.153790 0.011745 -0.003731
-0.042092 0.011813 -0.002603
-0.048798 0.010360 0.001643
-0.022154 0.013180 -0.001606
-0.104680 0.008935 0.000417
-0.111300 0.014979 -0.000160
-0.157740 0.009797 -0.001875
-0.043332 0.011222 0.002228
-0.157980 0.009183 0.001180
-0.029923 0.012737 -0.002000
-0.155120 0.009249 -0.001288
0.001296 0.013618 0.000757
-0.117090 0.009278 -0.001023
-0.123770 0.010176 0.001949
-0.170890 0.010524 -0.002689
0.002346 0.012307 -0.002006
-0.117730 0.009836 -0.001654
-0.160180 0.010379 -0.002468
-0.099021 0.012158 -0.002904
-0.150360 0.013135 -0.002439
-0.071382 0.013035 -0.002028
-0.084035 0.013992 -0.001129
-0.048333 0.012326 0.002261
-0.087122 0.012287 -0.002707
-0.071532 0.011201 0.002441
0.021474 0.010064 -0.000826
-0.120840 0.014161 -0.001214
-0.174640 0.014678 0.000978
-0.078921 0.012132 -0.002753
0.017697 0.010104 -0.000950
-0.171890 0.008689 0.000787
-0.169260 0.010836 0.002896
-0.066882 0.009107 0.000199
-0.005106 0.010903 0.001782
-0.033284 0.012765 0.001894
-0.096650 0.010728 0.002268
-0.081360 0.012245 0.002591
-0.116330 0.013922 0.001352
-0.050022 0.011818 0.002566
-0.005123 0.011512 0.002051
-0.029671 0.010142 0.001295
-0.144490 0.009434 0.001342
-0.137340 0.009846 -0.001794
-0.137250 0.009246 -0.001154
-0.122310 0.009660 -0.001495
-0.173620 0.014867 0.000780
-0.040505 0.012300 -0.002332
0.022611 0.011129 0.001709
-0.009071 0.013804 0.000518
-0.054191 0.011352 0.002399
-0.075176 0.008949 -0.000095
0.005271 0.013720 -0.000578
-0.061946 0.013851 -0.001118
-0.150270 0.010406 -0.002426
-0.010313 0.013713 -0.000829
-0.102890 0.009074 0.000594
-0.066153 0.010421 -0.001901
-0.067163 0.010774 0.002106
-0.169280 0.008371 -0.000493
-0.064721 0.012113 -0.002647
-0.081731 0.014184 0.000766
-0.153820 0.013223 0.002304
-0.127090 0.009082 -0.000870
-0.003826 0.010676 -0.001726
-0.011266 0.010430 0.001467
-0.142880 0.008815 0.000670
-0.153280 0.011021 0.002943
-0.093193 0.012440 -0.002637
-0.142300 0.009326 0.001209
-0.108030 0.011566 -0.003109
-0.141540 0.011038 -0.002951
-0.045760 0.011594 -0.002523
0.022102 0.010045 0.000663
0.001583 0.010018 -0.000962
-0.117210 0.013241 -0.002129
-0.122960 0.014658 0.000553
-0.047625 0.012402 -0.002321
-0.048482 0.013786 -0.001093
-0.092751 0.010230 0.001802
-0.002771 0.009656 0.000055
-0.016871 0.009696 -0.000541
-0.087674 0.010809 -0.002346
-0.048965 0.009948 0.001214
-0.066273 0.013377 -0.001687
0.003206 0.012284 -0.002016
-0.006439 0.011599 0.002095
0.022863 0.010313 -0.000549
-0.091059 0.011507 0.002808
-0.035121 0.010317 0.001512
-0.151070 0.014511 0.000967
-0.138440 0.012003 0.003318
-0.015281 0.013926 0.000361
-0.126040 0.009700 0.001487
-0.127890 0.013403 -0.002042
-0.006554 0.013415 0.001145
-0.013922 0.013970 0.000192
-0.023888 0.012904 0.001737
-0.072397 0.013685 0.001304
0.018950 0.009992 -0.000687
-0.003307 0.012531 -0.001948
-0.122740 0.009980 -0.001836
-0.162120 0.013465 0.002120
-0.034374 0.011261 0.002184
-0.040912 0.014328 -0.000056
-0.150170 0.009255 0.001195
-0.051176 0.011314 0.002339
0.013427 0.011820 -0.002034
-0.062729 0.009228 0.000327
-0.147710 0.012761 -0.002772
-0.144420 0.009823 -0.001816
-0.080105 0.011767 0.002900
-0.114850 0.008883 -0.000523
-0.129110 0.012247 -0.003080
-0.060411 0.014214 0.000469
-0.172610 0.014523 0.001120
-0.150000 0.009518 -0.001537
-0.115470 0.009352 0.001029
-0.133520 0.014899 -0.000491
-0.165620 0.012812 -0.002854
-0.171950 0.010601 -0.002774
-0.110030 0.009383 -0.001090
-0.168720 0.011561 0.003599
-0.066279 0.010410 0.001798
-0.060961 0.009608 -0.000932
-0.148350 0.008742 0.000643
-0.157070 0.009143 0.001129
-0.163640 0.013465 0.002130
-0.146460 0.011250 0.003102
-0.102190 0.013540 0.001660
-0.004473 0.012452 0.001879
-0.145830 0.012818 0.002635
-0.058451 0.011296 0.002384
-0.152530 0.013536 0.001987
-0.027578 0.010349 -0.001597
-0.010790 0.011232 -0.002086
-0.166970 0.010043 -0.002181
-0.137050 0.011768 0.003486
-0.124170 0.009439 0.001201
-0.171070 0.013511 0.002133
-0.131270 0.010744 0.002525
0.012712 0.013669 0.000465
-0.138980 0.009922 0.001800
0.016233 0.010167 -0.001071
-0.026512 0.010515 0.001638
-0.057513 0.014259 0.000386
-0.028130 0.014037 0.000327
-0.075521 0.010217 0.001677
-0.175140 0.008922 0.000268
0.013448 0.010598 -0.001567
-0.102950 0.013415 0.001787
-0.169080 0.008824 -0.000955
-0.077959 0.013669 -0.001459
-0.082882 0.011428 -0.002764
-0.066816 0.009451 -0.000769
-0.040180 0.011067 -0.002205
-0.164180 0.009345 0.001389
0.013895 0.011144 -0.001878
-0.099530 0.013674 -0.001595
-0.045586 0.010317 -0.001679
-0.100050 0.012817 -0.002388
-0.112730 0.010389 0.002079
-0.143500 0.012090 0.003280
-0.102430 0.009531 0.001133
-0.099566 0.012425 -0.002702
-0.022058 0.011997 -0.002323
-0.170020 0.008293 -0.000421
-0.135040 0.008496 -0.000278
-0.148290 0.009136 0.001058
-0.106970 0.008853 -0.000393
0.004575 0.011278 0.001886
-0.169820 0.014214 -0.001500
-0.127770 0.008501 0.000177
-0.016642 0.010299 -0.001477
-0.129880 0.011187 -0.002983
-0.066899 0.012143 0.002516
-0.063489 0.014559 -0.000089
-0.105390 0.013276 -0.002026
-0.119730 0.012682 0.002557
-0.165490 0.008888 -0.000994
-0.100340 0.013630 -0.001647
-0.053999 0.009751 0.000997
-0.159070 0.011300 0.003255
-0.061357 0.009223 0.000310
-0.132960 0.008777 0.000535
-0.173100 0.011750 -0.003937
-0.146670 0.009285 -0.001262
-0.103350 0.012252 -0.002876
-0.102030 0.011602 -0.003086
-0.159370 0.013125 -0.002508
-0.147020 0.014923 -0.000596
-0.109440 0.013642 0.001603
-0.044051 0.014088 0.000492
-0.018521 0.009844 -0.000875
-0.141220 0.012220 -0.003214
-0.125220 0.011599 0.003223
0.018072 0.010892 0.001628
-0.140000 0.012768 0.002631
-0.168530 0.011062 -0.003207
-0.092541 0.009739 -0.001375
-0.093995 0.013766 -0.001461
-0.147870 0.009986 0.001921
0.012019 0.011836 0.001929
-0.097138 0.014905 -0.000060
-0.096825 0.011518 -0.002950
0.005871 0.013615 0.000715
-0.042140 0.009343 -0.000216
-0.081084 0.013704 -0.001440
-0.163000 0.009064 -0.001155
-0.175140 0.014869 -0.000635
-0.065800 0.011839 0.002709
-0.030145 0.009366 0.000040
-0.107640 0.011047 0.002612
-0.097552 0.013366 -0.001891
-0.002225 0.013907 0.000045
-0.068742 0.011340 0.002514
0.020327 0.011111 -0.001827
-0.017518 0.012287 -0.002167
-0.151820 0.010665 -0.002686
-0.105990 0.008992 -0.000554
-0.101170 0.009399 0.000969
-0.150300 0.012591 0.002883
-0.009123 0.010150 0.001153
-0.052244 0.009609 -0.000860
-0.172620 0.008154 -0.000304
0.002107 0.010789 0.001664
-0.165900 0.008538 -0.000634
-0.136170 0.009765 -0.001702
-0.096137 0.011817 0.003047
-0.035378 0.009524 -0.000480
-0.074925 0.013261 0.001758
-0.107900 0.008968 0.000506
0.002027 0.013842 -0.000272
0.005071 0.012707 -0.001802
-0.055748 0.011340 0.002405
-0.158850 0.013118 0.002441
0.017318 0.011794 0.001885
-0.010364 0.009779 -0.000630
-0.100480 0.014596 0.000401
-0.098133 0.010585 -0.002238
-0.012920 0.013490 0.001099
-0.131220 0.014952 -0.000418
-0.164560 0.010280 -0.002402
-0.087751 0.008927 0.000219
-0.096620 0.012436 0.002567
-0.117140 0.014930 0.000180
-0.139850 0.014463 0.000931
0.019639 0.009902 -0.000330
-0.030288 0.012248 -0.002270
0.009758 0.012935 -0.001624
-0.078570 0.012599 -0.002423
-0.122230 0.009087 -0.000836
-0.028685 0.012886 0.001778
-0.113860 0.009911 -0.001708
-0.151140 0.013335 -0.002253
-0.052644 0.010917 -0.002189
0.006292 0.009891 -0.000638
-0.000304 0.009817 -0.000570
-0.119450 0.014851 -0.000414
-0.121290 0.013484 -0.001923
-0.163480 0.014238 0.001346
-0.139330 0.008771 -0.000630
-0.162200 0.011133 0.003123
-0.166970 0.013300 0.002316
-0.122870 0.012916 0.002376
-0.111720 0.013699 0.001560
-0.008083 0.010447 -0.001567
0.020659 0.012598 -0.001768
-0.059131 0.013450 0.001472
-0.162350 0.014937 0.000611
-0.119370 0.009503 0.001231
-0.059799 0.014521 -0.000094
-0.026586 0.009674 0.000604
-0.121700 0.010702 0.002413
-0.049427 0.012259 -0.002419
-0.096654 0.013645 -0.001608
-0.036962 0.011738 0.002450
-0.134230 0.011963 -0.003389
-0.150970 0.012672 -0.002877
-0.056225 0.010781 0.002034
-0.031923 0.011293 -0.002268
-0.087468 0.012720 -0.002392
-0.083121 0.009198 0.000529
-0.037516 0.011697 -0.002496
-0.122620 0.008669 -0.000343
-0.171030 0.011333 -0.003499
-0.069939 0.013099 -0.001968
-0.095891 0.014263 0.000798
-0.125250 0.013867 -0.001560
-0.049673 0.013293 0.001568
-0.150210 0.009955 -0.001987
-0.075716 0.012130 -0.002727
-0.147940 0.012172 -0.003320
-0.070642 0.012883 -0.002150
-0.117010 0.013709 -0.001673
-0.069960 0.014435 -0.000392
-0.158510 0.011332 0.003281
-0.034922 0.011401 -0.002346
0.012477 0.010909 -0.001780
-0.144340 0.012685 -0.002823
-0.030863 0.014116 0.000184
-0.112170 0.009325 -0.001034
-0.133130 0.009799 -0.001717
-0.017481 0.009835 0.000770
-0.040628 0.010918 0.002027
-0.076789 0.009637 0.001047
-0.116160 0.013256 -0.002108
-0.069488 0.013615 0.001365
-0.091337 0.010559 0.002084
-0.030889 0.011894 -0.002440
-0.162760 0.008539 -0.000606
-0.119360 0.012760 -0.002574
-0.006398 0.012858 -0.001777
-0.117530 0.013577 -0.001808
-0.169250 0.009364 -0.001510
-0.142640 0.013001 -0.002513
-0.103580 0.009271 -0.000893
-0.060061 0.010001 -0.001442
0.021270 0.011835 0.001842
-0.035335 0.013243 -0.001626
-0.145020 0.013820 -0.001738
-0.097587 0.010653 0.002203
-0.014318 0.011248 0.002013
-0.005753 0.009880 0.000699
-0.168220 0.011184 0.003226
-0.172150 0.009414 -0.001580
-0.104060 0.013618 0.001592
-0.017092 0.013389 0.001254
-0.170640 0.014593 0.001036
-0.151410 0.013187 0.002323
-0.143170 0.009951 0.001855
-0.038191 0.010084 -0.001385
-0.077381 0.012888 -0.002187
-0.049857 0.013663 0.001162
-0.136840 0.015281 -0.000108
-0.002150 0.010631 -0.001684
-0.144000 0.015053 -0.000430
-0.051950 0.010727 -0.002055
-0.054136 0.013383 0.001508
-0.128400 0.011247 -0.003030
-0.117200 0.012634 -0.002664
-0.157700 0.009620 0.001622
0.022863 0.011553 -0.000915
-0.102690 0.008870 -0.000369
-0.160270 0.015529 -0.000024
-0.158380 0.011827 0.003684
-0.094944 0.010489 0.002051
-0.047316 0.013546 0.001289
-0.056345 0.013504 -0.001494
-0.107660 0.013735 -0.001585
-0.028192 0.009995 0.001107
-0.005065 0.013256 0.001319
-0.106400 0.014753 0.000267
-0.028099 0.010800 0.001860
-0.175140 0.009555 -0.000001
0.015497 0.009888 0.000333
-0.146380 0.012923 0.002534
-0.119060 0.013786 -0.001606
-0.033540 0.009961 -0.001196
-0.134830 0.012526 0.002806
-0.138640 0.009182 -0.001090
-0.083126 0.012205 0.002634
0.015561 0.013356 -0.001160
-0.058635 0.013112 0.001787
-0.066149 0.014031 -0.000912
-0.065042 0.014101 0.000693
-0.109460 0.012894 -0.002391
-0.060032 0.011313 0.002415
-0.157320 0.010503 0.002485
-0.010495 0.010287 -0.001424
-0.016928 0.011166 0.002005
-0.131650 0.012594 0.002726
0.001397 0.013719 -0.000668
-0.106490 0.011129 0.002661
-0.074918 0.013004 -0.002082
-0.159630 0.014499 -0.001142
-0.145100 0.012790 0.002650
-0.098862 0.014872 0.000030
-0.120520 0.011123 0.002772
-0.120600 0.013420 -0.001982
-0.115510 0.014736 -0.000494
-0.136050 0.012620 -0.002815
-0.013776 0.012501 0.001919
-0.129730 0.008736 -0.000495
-0.057803 0.014215 -0.000551
-0.014153 0.012192 -0.002186
-0.023802 0.014150 0.000011
-0.165960 0.014650 0.000941
0.011768 0.010070 -0.000949
-0.123300 0.009850 -0.001704
-0.077877 0.009651 -0.001153
-0.087764 0.012101 0.002756
-0.161260 0.009189 0.001209
-0.118660 0.011492 0.003054
-0.074302 0.010148 -0.001694
-0.066034 0.011671 -0.002760
-0.085510 0.009686 -0.001260
-0.157270 0.014781 -0.000830
-0.097496 0.011234 0.002662
-0.105600 0.013020 0.002160
-0.064758 0.014483 -0.000216
-0.172560 0.010031 0.002127
-0.154000 0.013738 -0.001875
0.009387 0.010506 0.001408
-0.175140 0.011241 -0.001002
-0.066122 0.013024 0.001905
-0.074911 0.009986 -0.001529
-0.061979 0.009272 -0.000441
-0.048034 0.011777 -0.002664
-0.110250 0.011105 -0.002750
-0.001159 0.013262 0.001286
-0.169130 0.015352 0.000245
-0.131220 0.010208 -0.002113
-0.001842 0.011749 0.002084
-0.000729 0.010330 0.001301
-0.171710 0.009514 0.001608
-0.077803 0.009965 0.001437
-0.099094 0.009164 0.000652
-0.146540 0.009006 0.000908
-0.037652 0.012252 -0.002327
-0.070984 0.013571 0.001423
-0.126390 0.010027 0.001821
-0.029417 0.014207 -0.000130
-0.064522 0.012848 0.002038
-0.038623 0.012346 0.002174
-0.064958 0.009832 0.001196
-0.039291 0.010157 -0.001475
-0.054350 0.010059 -0.001469
-0.077119 0.013412 0.001626
-0.032867 0.013870 -0.000826
-0.006572 0.010744 0.001689
-0.068224 0.012928 0.001993
0.015610 0.013664 -0.000530
-0.174210 0.009188 -0.001366
-0.123250 0.011224 -0.002961
-0.045438 0.013775 -0.001081
-0.134440 0.011352 0.003084
-0.028147 0.010119 -0.001355
0.012976 0.013190 0.001269
-0.011656 0.010134 -0.001253
-0.123840 0.013175 0.002145
0.005455 0.011928 -0.002094
-0.037891 0.013866 0.000774
-0.156760 0.015049 -0.000546
0.007920 0.012327 -0.001962
0.021888 0.013379 -0.001072
-0.136620 0.013427 -0.002074
-0.133380 0.012474 -0.002925
-0.105270 0.013832 0.001374
-0.093624 0.013792 0.001337
-0.045744 0.010702 0.001906
-0.052444 0.014358 0.000145
-0.012672 0.013563 -0.001097
-0.135280 0.013690 0.001723
-0.163570 0.011397 -0.003492
-0.067265 0.011675 0.002699
-0.112450 0.011132 -0.002796
-0.138900 0.011130 0.002931
-0.048621 0.013387 -0.001567
-0.058723 0.012212 -0.002533
-0.126390 0.013065 0.002264
-0.056316 0.011043 -0.002306
-0.058842 0.009615 0.000870
-0.163380 0.008445 0.000465
-0.002788 0.011667 0.002067
-0.091406 0.011757 -0.003098
-0.086146 0.010826 0.002272
-0.154770 0.009845 -0.001905
-0.079302 0.013959 0.001026
-0.028048 0.012271 0.002141
-0.083100 0.010509 0.001990
-0.010901 0.012665 0.001811
-0.173700 0.009617 -0.001796
-0.024742 0.012291 0.002093
-0.057778 0.013768 0.001091
-0.064378 0.011716 0.002710
0.013775 0.012690 -0.001761
-0.165300 0.010280 -0.002406
-0.093495 0.011347 0.002715
-0.121110 0.012340 -0.002939
-0.045065 0.014301 0.000079
-0.039169 0.012205 0.002249
-0.160990 0.012268 -0.003339
-0.072968 0.010585 -0.002080
-0.131850 0.010122 -0.002035
-0.164240 0.010017 0.002058
-0.106870 0.014193 0.000970
0.005306 0.012648 0.001724
-0.012016 0.009587 0.000137
-0.054665 0.013676 -0.001283
0.000673 0.010149 -0.001175
-0.124110 0.008379 -0.000027
-0.110430 0.009728 -0.001485
-0.175140 0.011146 -0.002422
-0.145350 0.011422 0.003251
0.018212 0.010513 -0.001467
-0.150030 0.013005 0.002486
-0.027485 0.009600 0.000463
-0.005629 0.012659 -0.001897
-0.173390 0.008781 0.000891
0.020385 0.012251 0.001787
-0.163620 0.011301 0.003297
-0.169900 0.008162 0.000242
-0.079834 0.011230 -0.002612
0.010612 0.010800 0.001619
-0.095653 0.013657 -0.001587
-0.074282 0.012924 -0.002140
-0.149660 0.012694 0.002774
-0.037346 0.013996 0.000535
0.021099 0.010586 -0.001513
-0.003027 0.013805 0.000410
-0.103860 0.014148 -0.001093
-0.120390 0.008606 0.000211
-0.139500 0.014635 -0.000844
-0.112490 0.011949 0.003103
-0.094439 0.010099 -0.001774
0.009757 0.009784 -0.000104
-0.139870 0.011498 -0.003355
-0.136320 0.012030 0.003270
-0.111300 0.012292 0.002813
-0.133220 0.009036 -0.000875
-0.082563 0.009024 0.000305
-0.123250 0.014774 -0.000524
-0.099869 0.014581 0.000431
0.016525 0.013629 -0.000620
-0.086862 0.014320 -0.000723
-0.093477 0.012968 -0.002225
-0.041882 0.011345 -0.002357
-0.093697 0.012253 0.002694
-0.075006 0.009591 0.000983
-0.134380 0.009710 -0.001631
-0.046475 0.012695 -0.002125
-0.116220 0.009665 0.001387
-0.144810 0.012296 -0.003182
-0.062579 0.013482 0.001461
-0.090228 0.009472 -0.001016
-0.128750 0.013765 -0.001690
-0.114100 0.012666 0.002529
-0.070486 0.013299 -0.001789
-0.100750 0.014609 -0.000491
-0.105880 0.011038 -0.002670
-0.140140 0.008405 -0.000236
-0.007613 0.012074 -0.002176
-0.142340 0.014381 -0.001136
-0.136900 0.008473 0.000236
-0.112870 0.009338 -0.001052
-0.085231 0.012280 -0.002698
-0.076133 0.009399 -0.000798
-0.061816 0.013412 -0.001625
0.006783 0.010210 0.001105
-0.087393 0.014511 0.000358
-0.025904 0.013211 0.001497
-0.120740 0.014747 -0.000542
0.017340 0.013538 0.000722
-0.044014 0.011097 0.002153
-0.010442 0.013199 -0.001517
-0.043936 0.014198 -0.000399
-0.077255 0.009195 0.000466
-0.120020 0.013545 -0.001855
-0.075435 0.013010 0.001976
-0.090610 0.013800 -0.001402
-0.011076 0.009991 0.000956
-0.076903 0.012917 0.002060
-0.160010 0.012813 -0.002812
-0.160140 0.014221 0.001340
0.013315 0.013769 -0.000095
-0.113650 0.011328 -0.002960
0.012247 0.011304 0.001844
0.012652 0.011767 -0.002032
-0.005482 0.012645 0.001788
-0.068840 0.009162 0.000317
-0.030963 0.013795 -0.000925
-0.013066 0.010575 0.001602
-0.036536 0.013829 -0.000931
0.002607 0.010951 -0.001857
-0.118110 0.014712 -0.000564
-0.097909 0.010148 -0.001845
-0.148240 0.010972 0.002861
-0.061165 0.013420 -0.001613
-0.016790 0.013020 0.001607
-0.166320 0.013406 0.002206
-0.125440 0.008521 -0.000209
-0.121810 0.009391 0.001127
0.003543 0.013655 -0.000770
-0.007511 0.010329 -0.001450
-0.134330 0.014191 -0.001277
-0.056531 0.014032 -0.000823
-0.086001 0.010658 -0.002226
-0.021001 0.013660 0.000925
-0.116690 0.013052 -0.002296
-0.078095 0.014007 0.000957
-0.092817 0.013866 0.001247
0.009183 0.013326 -0.001248
-0.157460 0.013475 -0.002156
-0.007388 0.011772 0.002142
-0.045494 0.009553 -0.000676
-0.066877 0.011280 -0.002527
-0.048630 0.012944 -0.001967
-0.098090 0.012956 0.002172
0.015934 0.011051 0.001721
-0.036670 0.010040 -0.001323
-0.150970 0.012130 -0.003388
-0.110080 0.008814 0.000347
0.020056 0.013506 -0.000864
-0.048601 0.011797 0.002573
-0.012457 0.010882 -0.001911
-0.134730 0.014768 -0.000648
-0.141760 0.013486 -0.002048
-0.070251 0.009115 -0.000274
-0.140470 0.014647 0.000739
-0.104220 0.011125 -0.002718
-0.171570 0.013393 -0.002325
-0.124630 0.009081 0.000798
-0.116080 0.009537 -0.001317
-0.164470 0.012585 -0.003068
-0.164710 0.011563 0.003563
-0.103540 0.014173 0.000965
-0.093556 0.010845 0.002341
-0.159220 0.015372 0.000124
-0.044845 0.014015 0.000619
-0.175140 0.012979 0.001878
-0.104710 0.011825 0.003128
-0.080392 0.013517 0.001542
-0.056414 0.013070 0.001804
-0.133510 0.011301 -0.003112
0.007595 0.010500 -0.001520
-0.144350 0.010307 -0.002294
-0.149550 0.012272 -0.003236
-0.113880 0.014816 0.000272
-0.098941 0.010207 -0.001907
-0.085059 0.010085 -0.001700
-0.114470 0.008596 -0.000147
-0.096825 0.012269 -0.002806
-0.114940 0.011262 0.002841
-0.068623 0.013125 -0.001934
-0.152480 0.014060 -0.001541
0.013319 0.011160 -0.001888
-0.163700 0.009853 0.001893
-0.096631 0.010317 -0.001996
0.002776 0.013864 0.000039
-0.165730 0.014122 -0.001565
-0.125030 0.014628 -0.000723
-0.146440 0.011598 -0.003507
-0.102580 0.011313 -0.002864
-0.141840 0.015006 0.000351
-0.039350 0.010650 -0.001916
-0.080533 0.014437 -0.000499
-0.113960 0.013137 -0.002203
0.013943 0.010693 0.001529
0.014730 0.009973 0.000607
0.003650 0.010269 -0.001306
-0.115500 0.010851 -0.002581
-0.169990 0.014776 0.000843
-0.054838 0.009623 0.000839
-0.156360 0.011376 0.003306
-0.080029 0.013962 -0.001131
-0.049346 0.009668 0.000852
-0.152190 0.009737 -0.001778
-0.172470 0.014519 -0.001214
-0.057181 0.011346 -0.002491
-0.127830 0.014548 0.000739
-0.049238 0.014122 -0.000607
-0.089218 0.012750 -0.002375
-0.079953 0.013505 -0.001645
-0.041672 0.013930 0.000720
0.022863 0.012335 0.000609
-0.013237 0.014042 -0.000111
-0.060373 0.011526 -0.002629
-0.154640 0.008603 -0.000598
-0.050595 0.013376 0.001493
-0.133650 0.010771 0.002569
-0.019066 0.011652 0.002220
-0.108450 0.010511 -0.002245
-0.010016 0.013843 0.000461
-0.173530 0.009008 -0.001178
-0.131830 0.013292 -0.002172
0.003365 0.011353 -0.002025
-0.157870 0.010196 -0.002274
-0.156670 0.014572 0.000949
-0.086979 0.009758 -0.001357
0.015999 0.013251 0.001180
-0.170650 0.010475 0.002551
-0.012483 0.013956 0.000208
-0.081042 0.008989 0.000217
0.010500 0.012783 -0.001725
-0.024895 0.009929 -0.001076
-0.020078 0.009913 0.000914
-0.106970 0.013887 -0.001415
-0.096861 0.008982 -0.000428
-0.112990 0.014676 0.000448
-0.050265 0.014322 0.000160
-0.082306 0.009893 -0.001474
-0.124700 0.014173 0.001133
-0.118220 0.014320 -0.001010
-0.091982 0.009619 -0.001219
-0.042535 0.010007 0.001233
-0.175140 0.010661 -0.001699
-0.046828 0.014388 -0.000084
-0.100350 0.009891 -0.001597
-0.045709 0.010121 0.001386
-0.165810 0.008539 0.000584
-0.069611 0.012197 -0.002621
-0.123060 0.010821 -0.002610
-0.141110 0.014159 0.001271
-0.124230 0.014779 -0.000529
-0.108340 0.014128 0.001062
-0.103450 0.010704 0.002296
-0.021056 0.012499 0.001966
-0.056756 0.012557 -0.002298
-0.168040 0.013719 -0.001981
-0.110180 0.014396 -0.000856
-0.030348 0.013291 0.001448
-0.123010 0.012452 0.002779
-0.174020 0.011062 0.003156
-0.089815 0.009126 -0.000543
-0.085790 0.013711 0.001371
-0.119950 0.011994 0.003143
-0.065591 0.012867 -0.002129
-0.156580 0.012244 -0.003324
-0.084890 0.010575 0.002055
-0.073242 0.011906 -0.002838
-0.022816 0.010134 -0.001334
-0.037945 0.010389 0.001600
-0.056388 0.009083 -0.000026
-0.157260 0.015104 0.000391
-0.137440 0.008817 0.000626
-0.106440 0.010979 -0.002615
-0.101790 0.009791 0.001415
-0.158170 0.014954 -0.000659
-0.059805 0.013625 0.001283
-0.124530 0.008636 0.000280
-0.033257 0.011117 -0.002180
-0.145490 0.009991 0.001909
-0.104500 0.010932 0.002494
-0.094739 0.014536 -0.000542
-0.127290 0.014100 -0.001328
-0.052254 0.010904 0.002099
-0.064879 0.013642 -0.001398
-0.161180 0.013333 0.002246
-0.118110 0.008755 -0.000398
-0.075731 0.009421 0.000764
0.003711 0.013289 0.001224
-0.143550 0.008629 -0.000524
-0.159040 0.011370 -0.003422
-0.143250 0.014981 0.000389
-0.159190 0.010111 0.002117
-0.108740 0.010296 0.001968
-0.041894 0.013106 0.001687
-0.158830 0.015318 -0.000291
-0.000967 0.010572 -0.001630
-0.040078 0.013119 0.001665
-0.159960 0.010209 0.002218
-0.005117 0.013400 -0.001260
0.015420 0.010240 -0.001183
-0.092404 0.010913 -0.002461
-0.110720 0.013332 0.001915
-0.120580 0.010960 -0.002713
-0.164150 0.010461 0.002493
-0.074055 0.013832 0.001142
-0.014291 0.014008 -0.000256
-0.092887 0.011276 -0.002741
-0.167250 0.008595 0.000652
-0.067890 0.014001 0.000878
-0.092555 0.014422 -0.000667
-0.174190 0.011945 -0.003775
-0.029832 0.010880 0.001924
-0.061615 0.010757 0.002049
-0.086896 0.011792 -0.003062
-0.052119 0.010333 0.001639
-0.079844 0.013040 -0.002078
-0.064055 0.013921 0.000957
-0.148840 0.009593 -0.001607
-0.024350 0.010123 -0.001332
-0.045240 0.012683 -0.002129
-0.007900 0.012255 0.001984
-0.163170 0.011015 -0.003113
-0.086269 0.012390 -0.002630
-0.134090 0.008930 -0.000760
-0.141550 0.013682 0.001771
-0.142990 0.008930 -0.000848
-0.063933 0.014390 0.000263
-0.140740 0.009976 0.001864
-0.051573 0.011944 0.002515
-0.071446 0.009203 0.000412
-0.020751 0.009764 0.000690
-0.113090 0.009998 0.001706
-0.047837 0.011896 0.002494
-0.158430 0.010550 0.002537
-0.121350 0.008969 0.000644
-0.136330 0.008359 0.000100
-0.126490 0.008836 -0.000580
-0.096909 0.010715 -0.002342
-0.151360 0.014618 -0.000952
-0.009403 0.012588 0.001846
-0.118750 0.008519 0.000083
-0.053513 0.014379 0.000099
-0.019305 0.010025 -0.001168
0.006307 0.011167 0.001832
-0.041749 0.014069 -0.000598
-0.009432 0.013243 0.001361
-0.121010 0.015109 -0.000125
-0.086382 0.009666 -0.001240
-0.089667 0.012416 -0.002631
-0.076034 0.014417 0.000351
-0.038704 0.009918 -0.001174
-0.000195 0.013314 -0.001328
-0.140080 0.009885 -0.001851
0.021736 0.012341 -0.001863
-0.079972 0.012825 0.002153
-0.149830 0.010712 -0.002719
-0.127000 0.013693 -0.001751
-0.115710 0.012972 -0.002365
-0.116230 0.009158 -0.000873
0.005794 0.013579 -0.000890
-0.147160 0.009040 -0.001003
-0.075407 0.009166 0.000384
-0.121900 0.009964 -0.001813
-0.128370 0.014528 -0.000865
-0.038602 0.009393 0.000218
-0.043652 0.013840 0.000867
-0.097994 0.009286 -0.000864
-0.000430 0.010704 0.001622
-0.163710 0.008985 0.001019
-0.113850 0.012479 -0.002763
-0.049617 0.010027 0.001311
-0.170420 0.013615 0.002025
-0.140420 0.013635 -0.001893
0.003287 0.012935 -0.001663
-0.057695 0.012250 0.002372
-0.082616 0.010477 -0.002051
-0.062695 0.012109 -0.002634
-0.003174 0.010170 -0.001234
-0.040947 0.011698 -0.002528
-0.121670 0.013544 0.001780
-0.027531 0.013078 -0.001731
-0.011393 0.011197 -0.002063
-0.170110 0.013775 -0.001938
-0.066248 0.013815 0.001100
-0.152430 0.009725 0.001692
-0.054213 0.013887 -0.001002
-0.074858 0.010476 -0.002000
-0.116100 0.013513 0.001776
-0.156840 0.012771 0.002761
-0.076226 0.010339 -0.001885
-0.027977 0.010360 0.001508
-0.063704 0.011835 0.002691
-0.168580 0.008505 -0.000624
-0.077103 0.010199 0.001669
-0.161190 0.015053 0.000483
-0.132580 0.013672 0.001723
-0.138740 0.008540 -0.000376
-0.167840 0.008466 0.000529
-0.014028 0.013349 0.001279
-0.142660 0.010832 -0.002776
-0.008001 0.011638 0.002114
-0.147030 0.014110 -0.001455
-0.140420 0.014135 0.001291
-0.116110 0.012411 0.002761
-0.171840 0.008997 -0.001155
-0.099421 0.011821 -0.003175
-0.020741 0.012393 -0.002139
-0.161970 0.013662 -0.002000
-0.142860 0.008423 0.000243
0.013087 0.013591 -0.000771
-0.173090 0.009332 0.001436
-0.151900 0.009458 0.001417
-0.128550 0.012259 -0.003074
-0.073590 0.013401 0.001614
-0.058953 0.010422 -0.001855
-0.141790 0.008897 0.000743
-0.037478 0.013579 0.001179
-0.111020 0.013648 -0.001696
-0.140950 0.013339 -0.002186
-0.067005 0.010764 -0.002173
-0.079409 0.012907 0.002089
-0.029227 0.010899 -0.002031
-0.148770 0.009063 -0.001038
-0.086310 0.011285 0.002615
-0.144440 0.013260 0.002206
-0.079883 0.010556 0.002014
-0.166940 0.011084 -0.003215
-0.161880 0.008970 -0.001048
-0.088365 0.014010 -0.001140
-0.129520 0.014780 0.000486
0.006253 0.009908 0.000584
-0.078025 0.009191 0.000468
-0.002943 0.010604 -0.001670
-0.152360 0.013558 -0.002043
0.001530 0.009885 0.000609
-0.127540 0.012330 0.002922
-0.164930 0.013521 0.002084
-0.101420 0.014498 -0.000639
-0.083939 0.010902 -0.002393
-0.095233 0.014384 0.000619
-0.013239 0.010180 0.001224
-0.094592 0.009180 -0.000673
-0.116540 0.011084 -0.002782
-0.119960 0.008691 -0.000337
-0.142060 0.011816 -0.003592
-0.025026 0.010097 0.001209
-0.011682 0.011829 -0.002291
-0.023526 0.010067 0.001166
-0.017098 0.012314 0.002032
0.010062 0.012392 -0.001922
-0.165660 0.009496 -0.001620
-0.005945 0.013782 -0.000626
-0.054343 0.014401 0.000064
-0.033774 0.009744 0.000803
-0.103700 0.009885 0.001530
-0.109140 0.013090 0.002128
-0.138820 0.012616 -0.002839
-0.108350 0.012779 -0.002482
-0.150830 0.014450 -0.001128
0.002892 0.009768 -0.000330
-0.136590 0.010439 0.002282
-0.049334 0.013372 -0.001587
-0.062210 0.010839 0.002108
-0.175140 0.010402 0.002219
-0.106370 0.009832 -0.001571
-0.149900 0.008187 0.000064
-0.144970 0.010163 -0.002158
-0.133880 0.013868 -0.001618
-0.137560 0.014801 0.000534
-0.006527 0.009969 -0.000969
0.015624 0.012377 -0.001890
-0.125140 0.008918 0.000625
-0.072537 0.012750 0.002160
-0.075495 0.014593 0.000079
-0.017989 0.010069 0.001120
-0.050465 0.013381 -0.001585
-0.035183 0.010185 -0.001480
-0.167370 0.014231 -0.001466
-0.102940 0.009199 -0.000790
-0.165550 0.010983 -0.003101
-0.160150 0.012985 0.002581
-0.071394 0.012274 -0.002588
-0.084809 0.010784 -0.002312
-0.011759 0.013247 0.001372
0.020817 0.013693 -0.000053
-0.120020 0.010836 -0.002601
-0.091530 0.013485 0.001647
-0.147920 0.011031 -0.002998
-0.150180 0.011081 0.002976
-0.072489 0.014053 0.000851
-0.132530 0.014072 0.001307
-0.119350 0.008441 -0.000040
-0.055579 0.011780 -0.002742
-0.099954 0.011183 -0.002740
-0.142780 0.009623 -0.001599
-0.152260 0.015250 -0.000298
-0.088120 0.009180 0.000577
-0.160460 0.008656 -0.000709
-0.166500 0.015111 -0.000570
-0.087303 0.011208 -0.002657
-0.116990 0.014762 -0.000482
-0.151890 0.014430 -0.001155
-0.015873 0.010058 -0.001184
-0.169820 0.009004 0.001086
-0.123990 0.012198 -0.003084
-0.063019 0.013553 -0.001484
-0.141270 0.009170 0.001039
-0.078386 0.014464 0.000324
-0.054089 0.012912 0.001921
0.010955 0.011512 -0.002010
-0.086812 0.009309 0.000723
-0.006853 0.012064 -0.002171
-0.172310 0.015434 -0.000300
-0.142670 0.014162 0.001278
-0.092224 0.011509 -0.002898
-0.096848 0.010005 0.001607
-0.062512 0.009754 0.001083
0.001170 0.009849 -0.000610
-0.030801 0.013859 0.000709
-0.051780 0.014438 -0.000015
-0.175140 0.011762 -0.002117
-0.039805 0.014189 -0.000316
-0.169330 0.012775 -0.002918
-0.026328 0.013943 -0.000610
-0.145510 0.011342 -0.003267
-0.109070 0.009872 0.001554
-0.103010 0.009905 0.001547
-0.070436 0.010041 0.001469
-0.000311 0.013353 0.001179
-0.087504 0.014786 -0.000122
-0.152210 0.008310 -0.000260
-0.016459 0.012311 -0.002149
-0.119360 0.010450 0.002179
-0.052468 0.009860 0.001136
-0.159310 0.014153 -0.001492
-0.076993 0.014431 0.000346
-0.031518 0.013532 0.001189
-0.160680 0.014024 -0.001631
-0.130740 0.011277 0.002993
-0.175140 0.011278 -0.001630
-0.142770 0.010999 0.002844
-0.041206 0.009357 0.000203
-0.075897 0.014288 -0.000666
-0.003740 0.012930 -0.001708
-0.091904 0.014362 -0.000721
-0.007749 0.010800 0.001736
-0.147760 0.010593 -0.002590
-0.110460 0.014749 -0.000437
-0.034133 0.010257 0.001449
-0.148710 0.011345 -0.003300
-0.063397 0.009198 0.000303
-0.092427 0.009496 0.001013
-0.064692 0.013993 -0.000969
-0.034410 0.014087 -0.000429
-0.056899 0.013548 -0.001450
-0.010454 0.009770 0.000549
-0.026543 0.013295 0.001419
0.003157 0.013813 -0.000367
0.007360 0.013289 -0.001306
-0.153940 0.012176 -0.003368
-0.058652 0.013328 -0.001689
-0.032812 0.012449 0.002079
-0.133710 0.012768 0.002581
-0.173860 0.014387 0.001267
-0.124510 0.008667 -0.000370
-0.058900 0.012791 -0.002146
0.014305 0.012952 -0.001585
-0.173040 0.010276 -0.002456
-0.095359 0.009473 0.001002
-0.104720 0.013420 -0.001882
0.009956 0.013272 0.001199
-0.141730 0.009392 0.001277
-0.058443 0.014380 -0.000297
-0.154610 0.012060 0.003421
-0.019173 0.011655 -0.002322
-0.171100 0.008159 -0.000294
-0.023841 0.009486 -0.000179
-0.083378 0.013150 -0.002003
-0.108610 0.013736 0.001499
-0.098186 0.008893 -0.000350
-0.035116 0.012179 0.002240
-0.001502 0.012265 0.001936
-0.079486 0.009127 -0.000436
-0.073514 0.014466 0.000279
0.001398 0.011010 0.001798
-0.084585 0.013311 0.001771
-0.052635 0.011785 -0.002711
-0.109660 0.009591 0.001258
-0.135160 0.009280 0.001112
-0.049256 0.012864 -0.002032
0.007478 0.009920 0.000597
-0.147300 0.014480 -0.001066
-0.055911 0.010110 0.001443
-0.101180 0.013780 0.001400
-0.138490 0.009316 0.001171
-0.135560 0.014749 0.000569
0.003454 0.013793 0.000293
-0.048581 0.013250 0.001601
-0.128080 0.014046 -0.001395
0.004547 0.009937 -0.000768
-0.138770 0.010764 -0.002681
-0.159280 0.010933 -0.003002
-0.058401 0.011713 -0.002711
-0.104450 0.012345 0.002700
-0.116140 0.009122 0.000772
-0.166140 0.011079 -0.003203
-0.034425 0.013384 0.001378
-0.040190 0.012340 0.002187
-0.046106 0.009459 -0.000539
-0.137740 0.009019 -0.000895
-0.021402 0.014023 0.000255
-0.069404 0.010143 0.001565
-0.040819 0.013139 0.001653
-0.030710 0.012860 0.001814
-0.164630 0.008112 0.000136
-0.133980 0.012277 0.003030
-0.158930 0.008275 0.000249
-0.064834 0.009226 0.000344
-0.020118 0.010084 -0.001253
-0.058798 0.009903 -0.001314
-0.130730 0.012197 -0.003144
-0.098256 0.011354 0.002757
-0.173900 0.009126 0.001238
-0.156120 0.010175 -0.002241
0.014759 0.013334 0.001086
-0.119080 0.011864 0.003239
-0.168660 0.010879 0.002932
-0.039860 0.011844 0.002434
0.007181 0.010191 -0.001182
-0.007246 0.013936 -0.000265
-0.163330 0.010334 -0.002448
-0.116990 0.014447 0.000755
-0.152040 0.014066 0.001447
0.014487 0.012982 0.001451
0.021688 0.011485 -0.001922
-0.078726 0.014197 0.000704
-0.080292 0.009457 0.000846
-0.039560 0.010755 0.001905
-0.024644 0.009818 0.000818
-0.163060 0.008156 -0.000206
-0.147430 0.013416 0.002072
-0.120260 0.009469 -0.001268
0.010001 0.012831 0.001587
-0.095796 0.010274 0.001861
-0.052027 0.013744 -0.001179
-0.078069 0.010644 0.002074
-0.139550 0.009728 -0.001686
-0.106660 0.013285 -0.002025
-0.161990 0.010474 0.002490
-0.002582 0.010211 -0.001282
-0.043611 0.009281 -0.000106
-0.094424 0.011619 0.002932
-0.106860 0.014270 -0.000976
-0.170730 0.012436 -0.003260
0.019181 0.013197 0.001220
-0.068238 0.009437 -0.000754
-0.065382 0.009410 -0.000695
-0.066718 0.013697 -0.001351
0.003000 0.010029 -0.000967
-0.088573 0.010608 0.002112
-0.098137 0.009282 0.000795
-0.026586 0.011965 -0.002389
-0.037853 0.011670 0.002401
-0.135390 0.014516 -0.000931
-0.133370 0.012287 0.003018
-0.105790 0.009718 -0.001442
-0.132260 0.015255 -0.000089
-0.140150 0.012965 -0.002532
-0.121380 0.010375 -0.002207
-0.069126 0.011839 -0.002865
-0.131230 0.014265 0.001087
-0.034235 0.013840 0.000783
-0.098790 0.009913 0.001527
-0.091970 0.013535 -0.001691
-0.082438 0.010965 -0.002436
-0.107510 0.014757 -0.000401
0.018375 0.012001 0.001853
-0.112470 0.008876 0.000431
-0.134020 0.014609 -0.000814
-0.155680 0.014598 -0.001011
-0.128380 0.009943 -0.001834
-0.042696 0.011805 -0.002609
-0.036717 0.014098 -0.000463
0.015294 0.013750 -0.000042
-0.175140 0.012074 0.002914
-0.096144 0.014267 -0.000891
-0.117160 0.013609 0.001687
-0.118260 0.010417 -0.002222
-0.000046 0.010315 0.001280
-0.131280 0.012685 -0.002727
-0.145610 0.013242 0.002227
-0.009210 0.011799 0.002161
-0.163790 0.012559 -0.003085
-0.090075 0.010376 -0.002006
-0.035738 0.010318 0.001517
-0.067375 0.012871 0.002039
-0.064129 0.009312 -0.000500
-0.169450 0.011734 -0.003883
-0.143060 0.012682 -0.002815
-0.086279 0.014322 -0.000716
-0.168460 0.012054 -0.003614
-0.094531 0.014178 -0.000975
-0.008748 0.013295 0.001302
-0.145890 0.011876 0.003505
-0.109690 0.009117 0.000714
-0.054053 0.009482 -0.000675
-0.095675 0.009122 -0.000624
0.007778 0.011124 -0.001909
-0.078057 0.014030 -0.001027
-0.170810 0.014753 -0.000967
-0.038463 0.012290 -0.002320
-0.110880 0.013981 0.001252
-0.174520 0.013112 0.002558
-0.145660 0.008999 -0.000950
-0.040748 0.009308 -0.000112
-0.116000 0.014243 0.000986
-0.135420 0.012796 -0.002658
-0.018848 0.014010 -0.000321
-0.127000 0.013298 0.002052
-0.042517 0.014029 0.000544
-0.103750 0.012699 0.002413
-0.002421 0.012250 -0.002065
-0.025232 0.012840 0.001793
-0.006252 0.012089 -0.002158
-0.083044 0.009929 0.001435
-0.116040 0.008761 0.000348
-0.150740 0.009541 0.001495
-0.156030 0.014517 0.001001
-0.059879 0.012885 -0.002082
-0.148080 0.008298 0.000157
-0.026691 0.013893 0.000599
-0.074734 0.012519 -0.002444
-0.022183 0.009604 -0.000418
-0.110240 0.012846 0.002348
-0.064676 0.012977 -0.002039
0.019914 0.010064 -0.000845
-0.121800 0.011287 0.002925
-0.080002 0.012258 -0.002677
-0.033031 0.011542 0.002297
-0.115280 0.013478 0.001806
-0.053180 0.012273 -0.002436
-0.073746 0.009755 -0.001249
0.017044 0.012977 -0.001550
-0.067659 0.010538 0.001914
-0.054495 0.012558 0.002166
-0.028757 0.013331 -0.001498
-0.124340 0.011655 -0.003335
-0.132800 0.012343 -0.003034
-0.133710 0.009949 -0.001874
0.008593 0.010648 0.001527
-0.009524 0.011195 0.001961
-0.149240 0.015029 0.000395
-0.171400 0.012167 0.003481
-0.165350 0.010955 0.002980
-0.160740 0.015289 0.000230
-0.111630 0.014690 -0.000506
0.000235 0.010710 0.001622
-0.173000 0.014831 0.000811
-0.064452 0.012517 -0.002366
-0.112020 0.012225 -0.002952
-0.143960 0.010651 -0.002613
-0.167730 0.012284 0.003328
-0.141350 0.008619 0.000437
-0.170710 0.011844 0.003796
-0.167810 0.014554 -0.001146
0.005403 0.012080 0.001944
-0.031575 0.011412 0.002228
-0.085326 0.010955 0.002370
-0.132610 0.009513 0.001340
-0.082500 0.014335 -0.000672
-0.042892 0.013262 -0.001655
-0.132510 0.013958 -0.001516
-0.054675 0.010949 0.002133
-0.156690 0.015269 0.000212
-0.129000 0.009511 0.001314
0.013985 0.009930 -0.000601
-0.085900 0.009302 -0.000754
-0.089015 0.011737 0.002977
0.001007 0.010369 0.001330
-0.101480 0.010953 0.002482
-0.113770 0.010054 0.001765
-0.138780 0.008460 0.000241
-0.118750 0.010333 0.002065
-0.125630 0.014660 -0.000696
-0.101450 0.009286 -0.000891
-0.147180 0.011158 0.003018
-0.082566 0.010676 0.002124
-0.094099 0.009496 0.001032
-0.167380 0.012337 -0.003330
-0.041731 0.010273 -0.001611
-0.135900 0.010904 -0.002781
-0.133720 0.015249 -0.000109
-0.127060 0.010921 -0.002726
-0.018467 0.011751 0.002258
-0.104550 0.008583 0.000000
-0.118970 0.013350 0.001951
0.011482 0.012778 -0.001722
-0.146650 0.014155 0.001313
-0.099452 0.013737 0.001439
-0.057096 0.013979 0.000794
-0.148870 0.009214 0.001145
-0.104160 0.010304 -0.002033
0.002584 0.013701 0.000562
0.004937 0.010974 -0.001860
-0.053041 0.012761 -0.002133
-0.145490 0.011796 -0.003645
0.002274 0.009902 -0.000727
-0.149300 0.012360 0.003088
-0.118780 0.012817 0.002430
-0.017806 0.012054 0.002141
-0.172860 0.010725 -0.002905
0.010095 0.011834 0.001947
-0.013803 0.013207 -0.001529
-0.047258 0.013725 -0.001166
-0.155620 0.011352 0.003276
-0.006305 0.013499 -0.001143
-0.130290 0.012492 -0.002882
-0.114460 0.012009 0.003074
-0.147160 0.013810 0.001677
-0.076812 0.012654 -0.002355
-0.011002 0.013474 -0.001211
-0.131150 0.013912 -0.001554
-0.073727 0.009322 0.000598
-0.127060 0.009654 0.001448
-0.156070 0.014939 -0.000656
-0.008525 0.010714 -0.001780
-0.051257 0.009616 -0.000861
-0.024680 0.011393 -0.002246
-0.059707 0.009352 -0.000527
-0.075998 0.012819 0.002130
-0.035753 0.010192 -0.001491
-0.070794 0.010381 0.001803
0.014471 0.010087 -0.000952
-0.014545 0.013588 0.000972
-0.122760 0.009755 0.001525
-0.115100 0.012381 0.002773
-0.146030 0.014584 0.000846
-0.165250 0.008540 0.000580
-0.117560 0.014571 -0.000720
-0.009020 0.009711 -0.000442
-0.149240 0.011950 0.003466
-0.080760 0.014100 -0.000955
-0.010063 0.013010 0.001573
-0.093011 0.010809 -0.002387
-0.086340 0.009615 0.001108
-0.161030 0.008594 -0.000646
-0.025273 0.009771 0.000738
-0.101890 0.013158 -0.002114
0.003061 0.010614 -0.001641
0.017346 0.012451 0.001742
-0.057912 0.014502 -0.000081
-0.073666 0.013917 -0.001131
