ply
format ascii 1.0
element vertex 1759
property float x
property float y
property float z
end_header
-0.014894 0.007755 0.086720
-0.056114 0.007180 0.085610
0.084152 0.005068 0.084445
0.026416 0.007813 0.085117
-0.030604 0.005502 0.085599
0.035722 0.004739 0.085711
0.065627 0.008333 0.087345
0.044885 0.004568 0.086169
0.105380 0.004405 0.084859
-0.029840 0.007650 0.086580
0.084626 0.005406 0.088327
0.006973 0.006864 0.087774
0.117360 0.008518 0.084731
0.074798 0.007254 0.084180
0.088234 0.004937 0.088043
0.030039 0.007683 0.087588
0.032703 0.007079 0.087982
0.053270 0.007637 0.084611
0.014534 0.005475 0.084986
0.092528 0.007432 0.088464
0.117380 0.003953 0.086295
-0.036582 0.006129 0.085179
0.090439 0.005669 0.088487
-0.027506 0.005265 0.086318
0.056138 0.005822 0.088184
-0.026374 0.007460 0.085494
0.115680 0.004841 0.084236
-0.046538 0.005875 0.085425
-0.024841 0.006622 0.085018
0.031686 0.008163 0.086928
-0.011256 0.006395 0.087634
0.051272 0.005514 0.084524
-0.006041 0.007428 0.085168
0.066764 0.004882 0.084833
-0.044160 0.007211 0.085467
-0.023926 0.005233 0.086336
0.036942 0.006095 0.088082
-0.038844 0.007458 0.086814
0.068119 0.005618 0.084295
-0.029471 0.005688 0.087159
-0.003536 0.005044 0.086415
0.058932 0.004482 0.086737
0.111410 0.004487 0.087881
0.099606 0.008008 0.088204
0.070250 0.008632 0.085875
0.100550 0.007347 0.088591
-0.025465 0.007162 0.085212
0.007257 0.006082 0.087769
0.105390 0.005155 0.084112
-0.017711 0.006982 0.085036
0.008081 0.005016 0.085736
0.020074 0.007163 0.087806
-0.051483 0.005511 0.086172
-0.046141 0.007527 0.086135
-0.045376 0.006584 0.085215
0.003321 0.005046 0.086753
0.025655 0.007594 0.084909
0.077138 0.006184 0.084042
0.044136 0.004619 0.086683
0.037718 0.004628 0.086374
0.018237 0.007382 0.084848
0.109450 0.006028 0.088790
-0.015660 0.005250 0.086751
0.051474 0.004525 0.086565
0.062483 0.007371 0.088168
0.060215 0.004445 0.085854
0.033359 0.006564 0.084446
0.086856 0.006454 0.083916
0.087953 0.007291 0.088481
0.032816 0.004941 0.087211
0.063696 0.004495 0.086970
0.065857 0.004734 0.085059
0.052122 0.006923 0.088214
-0.056881 0.007253 0.086799
-0.005003 0.005965 0.087598
0.008318 0.005970 0.084772
0.020183 0.008096 0.086784
0.099622 0.005102 0.088294
0.063169 0.005354 0.084472
0.104260 0.008574 0.087660
-0.018108 0.006801 0.084974
0.081574 0.006896 0.084006
0.086489 0.008101 0.084552
0.003329 0.005410 0.085183
0.116460 0.006517 0.083633
0.075296 0.006426 0.088489
0.077066 0.005533 0.084239
-0.042528 0.007553 0.086462
0.019760 0.008159 0.086510
0.006488 0.006917 0.084762
0.055851 0.007069 0.084308
0.056050 0.004640 0.087103
0.097893 0.005214 0.088352
0.100840 0.008569 0.084893
0.096294 0.004840 0.088071
-0.061018 0.006855 0.087073
0.117640 0.007294 0.088561
0.056430 0.008116 0.085024
-0.058272 0.006853 0.087104
-0.038374 0.007087 0.085312
0.103000 0.004552 0.087831
0.075665 0.006956 0.084068
0.115870 0.006686 0.083654
0.105400 0.003965 0.086286
-0.027305 0.006412 0.085031
0.038553 0.004921 0.085256
0.061113 0.006055 0.084223
0.093857 0.008540 0.084966
0.083053 0.006043 0.084009
0.116760 0.003976 0.087045
-0.016194 0.005381 0.087003
0.089887 0.006555 0.083895
0.017512 0.007989 0.087002
-0.037086 0.005402 0.085962
0.061554 0.008422 0.085456
-0.058713 0.006600 0.085346
-0.000924 0.005061 0.086656
0.039339 0.004655 0.085838
0.052264 0.005050 0.087651
-0.012732 0.005270 0.086863
-0.049133 0.006779 0.085287
0.040004 0.006827 0.084404
-0.028723 0.007503 0.086922
0.092402 0.004312 0.087243
0.082290 0.004441 0.085203
-0.052228 0.006944 0.087126
0.101670 0.005917 0.088694
0.084348 0.008623 0.087170
0.114160 0.008458 0.087996
0.049271 0.006259 0.088218
0.054669 0.004723 0.085266
0.006047 0.006600 0.087812
0.109190 0.004262 0.087522
0.080792 0.008567 0.085325
0.084078 0.004421 0.087282
-0.019405 0.005218 0.086505
0.055087 0.007075 0.088216
0.071319 0.008140 0.084828
-0.058613 0.006408 0.087169
0.016020 0.007482 0.084944
0.028278 0.008154 0.085647
0.028175 0.006480 0.088029
0.085317 0.008795 0.086584
0.100230 0.008146 0.088096
-0.013189 0.006100 0.084947
0.028089 0.005301 0.084961
0.093952 0.004479 0.087606
-0.051977 0.005737 0.086881
0.036909 0.004984 0.085194
-0.031893 0.007598 0.086666
0.023962 0.007081 0.087887
0.002223 0.005000 0.085998
0.061155 0.008526 0.085783
0.084382 0.004766 0.084699
-0.017647 0.006147 0.087533
0.021796 0.007982 0.085428
0.030024 0.008170 0.085640
-0.040724 0.006278 0.087333
0.115690 0.006169 0.083665
0.055853 0.007911 0.084788
-0.005524 0.007308 0.087448
-0.016022 0.005828 0.085099
0.111830 0.008502 0.084647
0.012967 0.006152 0.084680
-0.001135 0.006061 0.084835
0.077533 0.005861 0.084096
0.096359 0.008739 0.087194
0.030752 0.008035 0.085335
0.021201 0.006454 0.087958
-0.024257 0.006717 0.085021
-0.004867 0.005415 0.085287
0.105020 0.006348 0.088774
-0.007560 0.006936 0.084914
-0.012594 0.007428 0.085248
0.002348 0.005157 0.085533
0.043018 0.004584 0.086421
0.084002 0.008403 0.087559
0.079341 0.008532 0.087277
0.073189 0.006043 0.084106
0.023536 0.006143 0.087954
-0.001189 0.005038 0.085947
0.111260 0.008518 0.084675
0.023431 0.008193 0.086530
-0.049370 0.005817 0.087012
-0.055037 0.006842 0.087143
0.079209 0.007016 0.084048
-0.033854 0.005343 0.086402
-0.026641 0.007708 0.086474
-0.011900 0.006121 0.087583
0.055708 0.005773 0.088162
0.065951 0.008466 0.085449
-0.013435 0.007628 0.087004
0.103360 0.005482 0.083981
0.087393 0.005487 0.088389
0.026854 0.005172 0.087409
0.068016 0.005517 0.088198
-0.028900 0.005927 0.085191
0.000129 0.005964 0.087652
-0.007762 0.006420 0.087670
0.046667 0.007184 0.084445
0.082008 0.006179 0.083995
0.052587 0.004750 0.087259
0.033425 0.007766 0.087561
0.071776 0.004819 0.087672
0.116480 0.008501 0.084575
0.009569 0.006969 0.084750
0.060256 0.005494 0.084438
0.010261 0.004991 0.085743
0.069308 0.004532 0.085321
0.022967 0.004783 0.086422
0.114250 0.005039 0.084087
0.112360 0.008915 0.087167
0.010577 0.005141 0.085416
0.026199 0.004895 0.085553
0.041912 0.008279 0.086901
0.093795 0.008060 0.084427
0.068020 0.008074 0.087745
0.043333 0.006164 0.084379
0.112850 0.007668 0.088574
0.062202 0.006499 0.084160
0.094042 0.007689 0.084165
-0.031851 0.005417 0.085771
0.024772 0.007342 0.084743
0.092727 0.004752 0.084602
0.002299 0.006997 0.087691
0.073529 0.005410 0.084334
-0.012148 0.007252 0.087410
0.114870 0.006316 0.088869
0.042015 0.006282 0.084371
0.092567 0.008440 0.087652
0.061855 0.005296 0.087978
0.041749 0.004789 0.087091
0.031061 0.005433 0.084811
0.057767 0.007671 0.087952
0.101880 0.008388 0.084661
-0.055071 0.006377 0.085311
0.088124 0.008011 0.084460
0.000247 0.007720 0.085401
0.086002 0.004457 0.087405
0.032098 0.005793 0.084599
0.079504 0.006063 0.084040
0.085521 0.006289 0.083941
0.083750 0.008532 0.085181
0.003442 0.005896 0.084859
0.067460 0.005423 0.088133
0.095643 0.008532 0.084927
0.034773 0.005897 0.087989
-0.005945 0.007431 0.087339
0.021509 0.006088 0.087920
0.049666 0.005601 0.084501
0.002887 0.007984 0.085981
0.076261 0.008693 0.086729
0.083935 0.005993 0.088536
0.024423 0.005570 0.084786
0.035894 0.006374 0.084415
0.112140 0.005095 0.088439
0.053753 0.008122 0.087446
0.073497 0.005060 0.087952
0.112410 0.007760 0.088526
0.022923 0.004894 0.085650
-0.036908 0.007001 0.087265
-0.021181 0.006664 0.087530
0.080418 0.005602 0.088358
0.007853 0.005010 0.086783
0.081734 0.005343 0.088248
-0.054741 0.005740 0.085669
0.092583 0.004552 0.087672
0.110480 0.004208 0.085055
0.004929 0.005875 0.084852
-0.032491 0.007494 0.085632
0.084742 0.008026 0.084511
0.106590 0.008367 0.087992
0.037152 0.008208 0.086962
0.034520 0.006281 0.088074
0.068234 0.007941 0.084647
0.042260 0.005320 0.087760
0.085793 0.005440 0.084189
0.095095 0.004204 0.087072
-0.057760 0.006930 0.087073
0.088191 0.007608 0.084177
0.034017 0.006610 0.084444
0.057579 0.007611 0.084542
0.015653 0.006231 0.084640
-0.032256 0.006241 0.085110
0.054251 0.005320 0.087904
0.048874 0.006735 0.084310
0.038205 0.008343 0.086472
0.117680 0.004128 0.086696
0.014711 0.005763 0.087731
0.016476 0.007201 0.087750
0.089332 0.008658 0.085323
-0.009648 0.006058 0.084923
0.065902 0.007007 0.088336
-0.023398 0.005392 0.085633
-0.003412 0.005481 0.087316
0.051222 0.008371 0.086916
-0.011305 0.007788 0.086730
0.106260 0.009009 0.086475
-0.053511 0.006550 0.085291
0.008015 0.008051 0.086430
0.014451 0.006859 0.087850
0.027997 0.005925 0.087928
0.048539 0.007518 0.084584
0.004224 0.006992 0.084813
0.060112 0.004405 0.086330
-0.056555 0.007029 0.087030
0.082099 0.007254 0.084104
-0.048542 0.005950 0.085390
-0.008892 0.005687 0.085106
-0.028684 0.007115 0.087301
0.029677 0.004992 0.087237
-0.004647 0.005659 0.087436
0.036672 0.008054 0.087250
0.044809 0.007669 0.087788
-0.005591 0.005080 0.086502
-0.000970 0.005518 0.087381
-0.030367 0.007674 0.086084
0.044069 0.007643 0.084724
0.030965 0.007845 0.087452
0.044763 0.005621 0.084544
0.050346 0.008244 0.087213
0.033305 0.008012 0.085250
0.055754 0.005335 0.087932
-0.010903 0.007206 0.085070
0.063032 0.004862 0.087591
0.003522 0.007912 0.085697
0.105590 0.007351 0.088644
-0.014060 0.007612 0.087016
-0.014631 0.005548 0.087225
0.057020 0.007462 0.084445
0.073923 0.004594 0.087419
0.108200 0.004318 0.087620
0.069281 0.008167 0.087646
-0.026099 0.005435 0.086907
0.016892 0.006326 0.087905
0.114430 0.005955 0.083715
0.026773 0.007245 0.087840
0.092472 0.008670 0.087272
-0.028268 0.005443 0.086874
0.092681 0.006747 0.088649
0.111330 0.005578 0.083851
0.026382 0.008155 0.086799
0.077135 0.006183 0.088486
0.006971 0.004951 0.086024
0.070202 0.004955 0.087811
0.015970 0.005562 0.087615
0.094786 0.005655 0.083992
0.047141 0.005624 0.084517
0.066901 0.007174 0.088308
0.055382 0.008165 0.087412
0.092459 0.008893 0.086253
0.102650 0.004762 0.088074
0.028882 0.007509 0.084811
-0.029071 0.006715 0.085067
0.060361 0.006107 0.084221
0.040469 0.008357 0.086567
0.068761 0.008586 0.086826
-0.015561 0.006078 0.087529
0.100720 0.007439 0.083979
0.065693 0.007891 0.087869
0.027184 0.004817 0.085740
0.017723 0.005003 0.086994
0.111570 0.005423 0.088618
0.023325 0.004796 0.085967
0.093987 0.006035 0.083903
-0.031468 0.005982 0.087329
0.000818 0.007975 0.086492
-0.030559 0.005829 0.085261
0.072057 0.005310 0.084397
0.082542 0.004653 0.087638
0.110530 0.007469 0.088642
0.050909 0.008489 0.086226
-0.026675 0.005859 0.087312
0.101600 0.007211 0.088656
0.080666 0.008201 0.087792
0.001605 0.005327 0.087209
0.095795 0.004355 0.085094
0.030220 0.005500 0.084766
-0.036727 0.006441 0.087387
-0.018303 0.007227 0.085173
0.016337 0.007090 0.084723
-0.002704 0.005397 0.087227
0.097352 0.008849 0.085589
0.087197 0.007246 0.084049
0.077868 0.007981 0.084561
0.097722 0.007200 0.088619
-0.020033 0.005531 0.087123
0.012892 0.005253 0.085217
0.089422 0.004278 0.087100
0.046878 0.004592 0.086682
-0.035190 0.007520 0.085749
0.105820 0.004474 0.087780
-0.049402 0.005790 0.085533
0.115900 0.005331 0.083917
0.023829 0.005309 0.085007
-0.059650 0.005994 0.087012
0.008487 0.004928 0.086127
0.105010 0.008082 0.084310
-0.046229 0.005500 0.086581
0.045981 0.007101 0.088116
-0.001121 0.007027 0.084881
0.020263 0.006599 0.087954
0.039862 0.007813 0.087604
0.087815 0.004725 0.087805
0.115880 0.009098 0.085958
-0.031647 0.007668 0.086121
-0.038900 0.005829 0.085367
0.097937 0.004553 0.087755
0.069787 0.008441 0.085307
0.104360 0.005027 0.088298
-0.056696 0.005979 0.087037
-0.027820 0.006151 0.085082
-0.028579 0.006231 0.085076
0.042327 0.008039 0.085145
0.063130 0.007949 0.084724
-0.018474 0.005233 0.086640
0.105540 0.005227 0.088452
0.099450 0.006237 0.088710
0.064363 0.005843 0.084231
0.108030 0.008725 0.085036
0.008635 0.007333 0.084928
0.072699 0.005035 0.084618
-0.040090 0.006328 0.085172
0.069252 0.007387 0.084285
0.055223 0.006449 0.088293
-0.018576 0.005279 0.085772
0.010431 0.007506 0.087486
0.107500 0.008701 0.087534
0.034662 0.004754 0.086854
-0.061035 0.007231 0.086537
0.049019 0.005514 0.084549
0.059301 0.007421 0.088110
-0.026461 0.006421 0.087486
0.074213 0.007571 0.088202
-0.036204 0.005644 0.085491
0.053391 0.005071 0.084833
-0.017243 0.005592 0.085291
0.071021 0.008149 0.087702
0.114870 0.009021 0.085578
-0.004869 0.007887 0.085862
0.093142 0.008831 0.085721
0.076671 0.007958 0.084559
0.050559 0.007892 0.087674
0.106190 0.007665 0.084005
0.095792 0.007843 0.084252
-0.040539 0.007561 0.086521
0.118960 0.006446 0.087174
0.010252 0.007463 0.085000
0.108700 0.007513 0.083924
-0.003877 0.005142 0.085732
0.004240 0.006860 0.087748
-0.014767 0.005152 0.086164
0.087110 0.007293 0.088471
0.073625 0.008716 0.086176
-0.014032 0.006721 0.084921
0.115820 0.008102 0.088333
0.049014 0.008429 0.085917
0.041509 0.006039 0.084419
-0.003914 0.007153 0.084955
0.034627 0.008286 0.085909
0.077422 0.004712 0.084895
0.060657 0.004609 0.085357
0.070168 0.006587 0.088452
0.025266 0.006060 0.087949
-0.050179 0.006923 0.087158
-0.006391 0.005257 0.085539
0.060024 0.006174 0.088316
0.114670 0.005490 0.083856
0.003889 0.005366 0.087290
0.025061 0.007568 0.087621
0.118430 0.007304 0.088031
0.008332 0.006276 0.087816
0.116340 0.004937 0.088378
0.053773 0.005470 0.084518
-0.010493 0.006600 0.084876
0.112430 0.004192 0.085044
0.055496 0.007311 0.088120
-0.060468 0.006926 0.085462
-0.002132 0.007534 0.085216
-0.000382 0.007825 0.086941
0.001060 0.007432 0.085086
0.114490 0.004118 0.087337
0.078120 0.004256 0.086014
0.050305 0.006261 0.084293
0.109770 0.004876 0.084281
-0.019070 0.005197 0.086133
0.083469 0.005182 0.084357
0.006417 0.006130 0.084749
0.025287 0.007373 0.084758
0.046055 0.006229 0.088184
0.042811 0.005952 0.088092
0.052777 0.008000 0.084941
-0.032056 0.006652 0.085091
0.067729 0.007627 0.088105
0.056413 0.007455 0.088063
0.101190 0.007544 0.084012
0.081447 0.006383 0.088545
0.100770 0.008688 0.087438
0.062145 0.005458 0.084434
0.023891 0.007628 0.084953
0.024426 0.008182 0.086670
0.115260 0.008694 0.087676
0.040240 0.008009 0.087375
0.069377 0.008600 0.086806
0.088572 0.007201 0.088527
0.043781 0.005453 0.084634
0.099905 0.004287 0.085122
-0.004281 0.007744 0.086995
0.050696 0.006810 0.084299
0.000557 0.007525 0.085165
0.083016 0.007725 0.088225
0.093481 0.005566 0.088481
0.060259 0.008497 0.085672
-0.026047 0.007248 0.085279
0.033249 0.006945 0.088022
0.031379 0.005000 0.087273
0.007279 0.005041 0.085691
0.059847 0.005334 0.084529
0.027717 0.007461 0.084791
-0.047147 0.005464 0.086343
0.044016 0.004996 0.087461
0.100100 0.006705 0.083809
-0.025439 0.006368 0.087492
-0.019943 0.007683 0.086772
-0.006718 0.005128 0.086697
0.076410 0.007331 0.088337
0.076368 0.005906 0.088426
-0.018776 0.007037 0.087445
0.113630 0.007876 0.088486
0.066530 0.005094 0.087892
0.034469 0.007907 0.087423
0.095499 0.008382 0.087785
-0.023215 0.007087 0.087373
0.043375 0.008142 0.085274
-0.059916 0.007205 0.086816
-0.025087 0.005441 0.085593
0.101150 0.008273 0.088001
-0.058947 0.005877 0.085581
0.099013 0.008705 0.087362
0.018420 0.008026 0.085600
0.072506 0.007548 0.084321
0.055158 0.006266 0.084244
-0.018062 0.007365 0.087240
0.091509 0.008816 0.086842
0.043763 0.006613 0.084349
-0.034530 0.006038 0.085199
0.020029 0.004848 0.086625
0.090517 0.008586 0.087409
-0.039553 0.006589 0.085158
0.043203 0.007796 0.084843
0.097033 0.004465 0.087636
-0.026956 0.006846 0.085082
0.015158 0.008108 0.085991
0.002262 0.007143 0.084888
-0.029959 0.007549 0.085691
0.078145 0.007276 0.084153
-0.017138 0.006126 0.084981
0.113600 0.008569 0.084700
-0.030126 0.005944 0.087329
0.078173 0.007333 0.088355
0.074193 0.008096 0.087806
0.048517 0.004908 0.087425
0.095241 0.005643 0.083993
0.047297 0.004764 0.085332
0.112620 0.008190 0.084295
0.095708 0.006398 0.088687
0.093376 0.008170 0.084530
0.113360 0.008326 0.084415
0.048075 0.004747 0.085343
0.075480 0.004444 0.087132
0.043429 0.007059 0.084433
0.063966 0.005394 0.088072
-0.022205 0.007669 0.086748
0.033641 0.004992 0.085238
0.024426 0.005263 0.087480
0.069616 0.006141 0.088408
-0.015910 0.006549 0.084925
0.051196 0.008197 0.085212
0.082493 0.007103 0.088484
0.088762 0.005025 0.088110
0.101610 0.004693 0.084538
0.090628 0.004120 0.086468
0.104910 0.005638 0.088626
0.094577 0.008829 0.085630
0.111900 0.007041 0.083723
0.033856 0.005464 0.084751
-0.012818 0.005546 0.085274
0.060130 0.004843 0.085001
0.027751 0.004984 0.087187
-0.024826 0.006205 0.087479
0.049091 0.005507 0.087972
0.018313 0.004992 0.085510
0.071908 0.004439 0.085504
0.087365 0.004577 0.087622
0.089829 0.008630 0.087306
0.083179 0.007377 0.084138
-0.033695 0.005433 0.085780
-0.042641 0.006212 0.085218
0.088724 0.004137 0.086461
-0.009845 0.005210 0.085714
0.064469 0.008575 0.085876
0.095802 0.004489 0.087646
0.051695 0.008133 0.085116
0.046749 0.005382 0.084656
0.034923 0.004651 0.086345
0.107400 0.004098 0.085429
-0.060996 0.006559 0.085365
0.115320 0.009107 0.086040
-0.000747 0.007849 0.085661
0.073150 0.006387 0.088464
0.092346 0.008017 0.084414
0.072048 0.004566 0.087314
0.090701 0.006542 0.088650
-0.021767 0.007778 0.086211
0.111590 0.007490 0.088644
0.089273 0.005139 0.088196
0.022246 0.006276 0.087953
0.093155 0.007457 0.088460
0.090237 0.007404 0.084075
0.091989 0.004121 0.086005
0.071537 0.004320 0.086010
-0.032332 0.005344 0.086493
0.118960 0.006805 0.086141
-0.053248 0.006825 0.087171
0.018970 0.008140 0.085962
-0.046500 0.007520 0.086402
0.092277 0.006359 0.088650
0.015202 0.004856 0.086195
0.012256 0.005588 0.087589
0.080134 0.008596 0.085401
-0.022569 0.006324 0.085000
0.011921 0.007082 0.084766
0.008000 0.007125 0.087693
-0.036205 0.007009 0.085237
0.019561 0.005347 0.085030
0.073409 0.007973 0.087899
0.052981 0.007176 0.084376
0.064481 0.006919 0.084174
-0.047644 0.005915 0.087101
-0.016565 0.007470 0.085358
0.068884 0.004676 0.085092
0.053736 0.004675 0.085371
-0.049867 0.006571 0.085257
0.045161 0.004585 0.086550
0.030705 0.004828 0.086921
-0.011696 0.005197 0.086729
0.009553 0.008076 0.086316
0.075321 0.007221 0.088377
0.072481 0.004602 0.087402
-0.040090 0.007551 0.086560
-0.049727 0.007019 0.085399
0.038320 0.007109 0.088029
-0.028402 0.006741 0.087444
0.062729 0.004638 0.087254
0.084013 0.008261 0.084781
0.118680 0.008107 0.085773
0.109370 0.005003 0.088341
0.107630 0.008898 0.087078
0.083518 0.004477 0.087389
0.088079 0.006042 0.088581
-0.014658 0.005280 0.085658
0.033903 0.005637 0.087882
-0.014050 0.007643 0.085525
0.070474 0.004399 0.086915
-0.021296 0.005693 0.085258
0.101570 0.008969 0.086027
-0.034986 0.006046 0.087315
-0.007112 0.007663 0.085444
0.115250 0.006639 0.088893
0.058580 0.007084 0.084285
-0.043939 0.006774 0.085231
0.000468 0.007590 0.087288
-0.040799 0.006177 0.085205
0.030335 0.006092 0.088013
0.071038 0.008690 0.086162
0.013779 0.004933 0.085802
0.075224 0.004311 0.085761
0.073910 0.006587 0.088489
0.083031 0.006572 0.088577
-0.034068 0.005553 0.086935
0.042974 0.004678 0.085672
0.084694 0.006589 0.083949
-0.022104 0.006378 0.084986
0.081297 0.008501 0.085172
-0.030292 0.007577 0.086768
0.098392 0.005573 0.083992
0.096925 0.008778 0.085406
0.090987 0.005132 0.084304
0.036660 0.007580 0.084768
-0.032606 0.005335 0.086069
0.054541 0.006983 0.088227
-0.018949 0.005226 0.086573
0.009456 0.005893 0.087723
0.071075 0.007115 0.084168
0.052198 0.008120 0.087421
0.004046 0.007784 0.085420
0.061609 0.006685 0.084182
0.005317 0.004963 0.086076
0.071154 0.007735 0.084468
0.072798 0.008611 0.086872
0.072855 0.006777 0.084080
0.045087 0.008422 0.086096
0.061107 0.006373 0.088344
0.009322 0.004933 0.085976
0.011076 0.005893 0.084778
0.005369 0.006842 0.084747
0.025737 0.004946 0.087058
0.045267 0.004979 0.087460
0.077592 0.005886 0.088432
0.106760 0.004163 0.085268
0.118650 0.006409 0.084540
0.088976 0.008805 0.085804
-0.008482 0.005496 0.085260
0.061367 0.007844 0.087853
-0.003262 0.007386 0.085106
0.025994 0.006826 0.084541
0.009257 0.007356 0.084936
0.080761 0.007389 0.084167
-0.028755 0.007582 0.085733
0.026209 0.008244 0.086143
0.093972 0.004905 0.084457
0.054189 0.007945 0.087677
0.107920 0.004494 0.084689
0.006385 0.005491 0.087451
0.079851 0.008638 0.086999
-0.016422 0.007812 0.086428
0.035378 0.006660 0.084435
-0.027658 0.005524 0.085517
0.009229 0.007770 0.087188
0.069204 0.006356 0.084090
-0.051647 0.006851 0.085338
0.082256 0.008497 0.085140
0.094976 0.004104 0.085859
0.113990 0.008124 0.088291
0.106450 0.004009 0.086731
-0.049180 0.007239 0.085575
-0.002240 0.005539 0.087381
-0.048856 0.006171 0.087216
0.106460 0.004629 0.087975
0.045534 0.006911 0.088150
0.101290 0.004053 0.085735
0.117150 0.005877 0.083770
0.025861 0.005989 0.084582
0.043670 0.005559 0.087944
0.092701 0.005893 0.088592
0.055481 0.008241 0.085209
-0.020910 0.006134 0.087494
0.109880 0.003932 0.086484
0.013325 0.005204 0.085279
0.112640 0.004803 0.084306
0.115420 0.004955 0.088380
0.038077 0.004842 0.085377
0.049317 0.008161 0.087313
0.113940 0.008989 0.087008
0.066458 0.008524 0.085561
0.097776 0.008792 0.085415
0.094269 0.006783 0.083872
0.058583 0.006510 0.084196
0.055355 0.004524 0.086774
0.096714 0.008313 0.084650
0.017035 0.007739 0.087366
0.105660 0.008693 0.087514
0.064525 0.008601 0.086474
-0.036494 0.005506 0.086819
0.050076 0.008477 0.086129
-0.013785 0.005228 0.085776
0.073188 0.007562 0.088194
0.041481 0.007722 0.087702
0.095242 0.005541 0.088491
0.103800 0.008425 0.084676
0.097963 0.008255 0.087976
0.018209 0.007610 0.087498
0.065606 0.006260 0.084142
0.036560 0.006040 0.084468
-0.037357 0.006889 0.087313
0.007024 0.005735 0.087629
0.004832 0.004947 0.086332
0.040761 0.005729 0.087990
-0.023293 0.005872 0.087362
0.058497 0.004726 0.087344
0.032738 0.007461 0.084732
-0.030716 0.007259 0.085342
0.083070 0.005442 0.088328
0.091843 0.005121 0.088214
0.110880 0.003992 0.086882
0.112830 0.003931 0.085841
0.038779 0.007110 0.084499
0.093640 0.004761 0.087936
0.077121 0.006790 0.084040
0.061676 0.007588 0.088058
0.088043 0.006856 0.088583
-0.005391 0.007932 0.086288
0.021004 0.007920 0.085326
0.042009 0.008382 0.086040
0.105670 0.007473 0.083940
0.073861 0.007048 0.084114
0.071963 0.007295 0.088306
0.098747 0.006358 0.083798
0.072562 0.004306 0.086065
-0.033002 0.005398 0.085856
0.035313 0.008309 0.086001
0.081196 0.004692 0.087665
0.110650 0.005014 0.088365
0.085271 0.006876 0.083968
-0.042164 0.006037 0.085281
0.106700 0.009034 0.086238
0.110480 0.003961 0.086684
0.069355 0.008584 0.085655
0.067168 0.008036 0.084767
0.086381 0.004147 0.086335
0.058641 0.007548 0.088044
0.103330 0.008116 0.084353
-0.053433 0.005774 0.085597
0.029932 0.006697 0.084491
0.073347 0.004382 0.086952
0.042611 0.006563 0.084356
0.004378 0.004962 0.086393
0.003531 0.007698 0.087194
0.014235 0.008025 0.086809
0.057200 0.007521 0.088041
0.016362 0.008120 0.086583
0.110160 0.008218 0.088163
0.091611 0.004159 0.086743
0.029097 0.005126 0.087388
0.087689 0.007921 0.084402
0.089516 0.004986 0.084446
0.038595 0.008016 0.085174
0.013281 0.007018 0.084729
0.055395 0.005411 0.084528
-0.048114 0.005683 0.085637
0.103050 0.004888 0.084356
0.096429 0.007734 0.088366
0.013477 0.007499 0.084986
0.011769 0.007775 0.087224
-0.001541 0.005690 0.087495
0.041926 0.005505 0.084629
-0.046219 0.006457 0.087295
0.055693 0.004863 0.087480
0.048496 0.006777 0.088204
0.078608 0.004664 0.084944
-0.043368 0.007158 0.087090
0.064518 0.006432 0.088383
0.108630 0.009057 0.086133
-0.017385 0.005402 0.087010
0.038299 0.006285 0.088112
0.005078 0.005499 0.085086
0.071002 0.005162 0.084533
0.019583 0.004981 0.085504
0.074426 0.004269 0.086404
-0.026978 0.007530 0.086914
0.078780 0.005933 0.088461
0.081407 0.008746 0.086702
-0.004320 0.007768 0.085570
0.070689 0.005316 0.088098
0.093026 0.008395 0.087725
0.111240 0.009070 0.086336
0.019967 0.006143 0.087919
0.091296 0.004793 0.084585
-0.035386 0.005492 0.085694
0.093558 0.004161 0.085652
0.082902 0.004182 0.086330
0.108160 0.008971 0.086892
0.082227 0.004188 0.086332
0.029515 0.005480 0.084792
0.077821 0.005363 0.088216
0.020535 0.008044 0.085589
-0.049794 0.006574 0.087261
-0.035879 0.005964 0.085248
0.058585 0.004699 0.085233
0.109980 0.005710 0.083804
0.071479 0.006492 0.084069
0.013380 0.005747 0.084822
0.049912 0.005848 0.088129
0.069578 0.006023 0.084145
0.082615 0.008247 0.087759
-0.004331 0.005065 0.086486
0.033263 0.008305 0.086352
-0.002827 0.007861 0.085735
0.037262 0.008025 0.085205
-0.039750 0.007137 0.087154
0.026778 0.004766 0.085923
0.058398 0.008033 0.087652
0.109430 0.005589 0.083866
0.062908 0.004958 0.084806
-0.007421 0.007671 0.087046
0.115600 0.008529 0.087919
-0.021829 0.006491 0.087538
-0.008168 0.005794 0.087488
0.038342 0.004973 0.087347
0.007389 0.008058 0.086278
0.115600 0.006905 0.088849
-0.020999 0.006993 0.085074
0.003919 0.007568 0.087350
0.109290 0.006168 0.083728
0.111080 0.008779 0.085083
0.087091 0.008658 0.087151
0.054718 0.005008 0.087638
0.084574 0.008317 0.087693
-0.010453 0.007256 0.085100
-0.050824 0.006174 0.085310
0.085940 0.008537 0.085142
0.070650 0.004925 0.084736
0.078930 0.007190 0.088430
0.028016 0.007587 0.087643
-0.023446 0.007392 0.085369
0.087438 0.005037 0.088102
0.090392 0.006530 0.083888
0.063398 0.006856 0.084179
0.070651 0.005831 0.084169
-0.055621 0.005614 0.086608
0.025463 0.006965 0.087941
0.039579 0.007446 0.084640
0.085855 0.005607 0.088416
0.117400 0.007951 0.084213
0.022832 0.007801 0.087376
0.077918 0.004760 0.087696
0.060437 0.004474 0.086778
0.012515 0.006621 0.087873
0.010900 0.006909 0.087806
0.030757 0.007646 0.084884
-0.000785 0.007480 0.087364
0.104270 0.007434 0.083941
0.092666 0.007623 0.084135
-0.004158 0.005759 0.085004
0.092310 0.005003 0.084396
0.105230 0.004454 0.087747
0.071804 0.007952 0.084612
0.064122 0.004761 0.087487
0.087687 0.008008 0.088052
-0.006639 0.007473 0.085212
0.038782 0.004959 0.087337
0.023738 0.006537 0.087991
0.118030 0.005750 0.084131
-0.015595 0.007727 0.086776
-0.044351 0.007542 0.086119
0.060682 0.005652 0.088170
0.074306 0.008605 0.086930
0.014262 0.006064 0.087836
0.035045 0.006227 0.088075
0.091262 0.007037 0.088583
0.015633 0.004877 0.085905
-0.029631 0.006120 0.087398
-0.045325 0.005462 0.086039
0.069253 0.008234 0.084971
0.104580 0.008514 0.084770
-0.016599 0.006577 0.084934
0.028418 0.005851 0.084612
-0.047547 0.007520 0.086281
-0.005441 0.005534 0.087340
0.064679 0.006413 0.084128
0.078788 0.006698 0.088519
-0.030392 0.006312 0.085079
0.097786 0.006630 0.083825
0.054258 0.004988 0.087607
0.097135 0.006890 0.083854
0.110140 0.007132 0.088755
0.034818 0.006923 0.084472
0.018993 0.007773 0.085181
0.098516 0.004568 0.087781
0.056278 0.008127 0.087481
0.035594 0.008316 0.086488
0.057076 0.005481 0.084478
-0.034200 0.007430 0.086933
0.057021 0.004488 0.086662
0.013864 0.005391 0.085065
0.093337 0.005535 0.084064
0.106200 0.008861 0.085371
0.086368 0.007518 0.088358
0.027282 0.005790 0.084652
0.008346 0.007978 0.086771
0.080639 0.005002 0.087997
0.098885 0.005287 0.084120
0.051878 0.007834 0.084765
0.064906 0.008036 0.084801
-0.020215 0.005254 0.086656
0.079958 0.006354 0.088528
0.067854 0.006080 0.084152
0.064543 0.004500 0.085547
0.109880 0.008805 0.087398
-0.050741 0.006731 0.087223
-0.007619 0.005802 0.085021
0.015750 0.008118 0.086016
0.104600 0.008899 0.086988
0.025196 0.004963 0.087083
0.105010 0.008539 0.084794
0.022201 0.004852 0.086766
0.064956 0.008607 0.086032
0.066539 0.008506 0.086983
0.098262 0.008881 0.086856
-0.033845 0.005856 0.087224
0.054412 0.006729 0.084256
0.003036 0.007291 0.084965
-0.022793 0.005373 0.085652
0.076770 0.007498 0.084248
-0.032406 0.007664 0.086328
-0.040858 0.007553 0.085989
0.027377 0.004802 0.086779
-0.044583 0.005467 0.086499
0.059800 0.008144 0.087516
0.049628 0.005540 0.088002
0.003177 0.006505 0.087785
0.068488 0.008376 0.087333
0.077261 0.007808 0.084446
0.045407 0.006164 0.088172
0.050649 0.004980 0.087543
0.049681 0.006544 0.088247
-0.052187 0.007140 0.085513
0.112540 0.007661 0.083938
0.047583 0.005303 0.087812
-0.007876 0.007763 0.086898
0.083647 0.007151 0.084051
-0.024025 0.007638 0.086780
0.021763 0.005208 0.087374
0.064108 0.008621 0.086193
0.023262 0.007860 0.087299
0.032489 0.006084 0.088033
0.086461 0.008784 0.085830
0.018622 0.008169 0.086268
0.000039 0.007982 0.086322
0.080274 0.006906 0.084019
0.016855 0.006546 0.084605
0.058157 0.008341 0.087197
0.098001 0.005949 0.088667
-0.004940 0.007643 0.087129
0.065380 0.006918 0.084165
-0.018343 0.006260 0.084970
-0.014656 0.005937 0.087487
0.040190 0.004895 0.087283
0.108420 0.004649 0.084489
0.035292 0.004998 0.085201
-0.026727 0.007220 0.087251
0.113970 0.007881 0.084063
0.089416 0.004159 0.085860
0.044518 0.007007 0.088123
-0.018163 0.006826 0.087531
-0.057701 0.005574 0.086371
0.061167 0.004394 0.086335
0.026156 0.004765 0.086004
-0.047301 0.005644 0.085680
0.104650 0.006771 0.083770
0.086753 0.004701 0.084752
-0.049141 0.005522 0.086557
0.007487 0.005511 0.085045
0.027866 0.004753 0.085955
0.005235 0.007481 0.085071
0.003948 0.006020 0.084795
0.050627 0.008212 0.085257
0.098381 0.007371 0.083979
0.014788 0.006317 0.087883
-0.025815 0.006523 0.085019
0.096931 0.008790 0.087070
0.075570 0.004404 0.085494
0.063361 0.008215 0.085037
0.104190 0.004018 0.086655
-0.056272 0.005559 0.086156
0.013302 0.007962 0.086955
0.031530 0.006716 0.088045
0.097924 0.008931 0.086440
0.007242 0.007992 0.085784
0.049112 0.007615 0.084645
0.041333 0.007263 0.084528
0.058563 0.008406 0.085490
0.039636 0.008205 0.087042
0.111080 0.004310 0.087666
0.063550 0.006110 0.084189
0.072096 0.006884 0.084097
-0.056213 0.006441 0.087195
0.072750 0.007324 0.088301
0.097783 0.008086 0.084398
0.011154 0.007940 0.085582
-0.023598 0.006733 0.085016
0.100570 0.005694 0.083912
0.015121 0.004987 0.085614
0.116990 0.005453 0.083898
0.113610 0.009097 0.086293
0.070281 0.004731 0.084989
0.065150 0.004875 0.084870
0.032745 0.008123 0.087069
0.010283 0.006659 0.084679
0.012279 0.007166 0.087720
0.014748 0.007193 0.087735
-0.025311 0.007512 0.085540
0.074750 0.004434 0.087094
-0.032060 0.005807 0.085298
0.057472 0.004987 0.087655
0.104870 0.004036 0.086792
0.023981 0.008163 0.085811
0.053118 0.008083 0.087490
-0.017263 0.007467 0.087164
0.072415 0.006810 0.088436
0.107120 0.008906 0.085445
0.053113 0.008323 0.087103
0.092077 0.007435 0.088458
0.051567 0.008043 0.087520
0.067165 0.004360 0.086054
0.010830 0.008086 0.086350
0.007365 0.007391 0.087543
-0.022593 0.007450 0.087102
0.012370 0.005288 0.085175
0.009142 0.007970 0.085693
-0.023039 0.006854 0.085044
-0.010763 0.007427 0.087281
-0.020867 0.005207 0.086360
0.053006 0.005900 0.084330
-0.029374 0.005525 0.085545
-0.042328 0.006572 0.087335
-0.054199 0.007264 0.085681
-0.039072 0.006461 0.085143
0.075223 0.007659 0.084366
0.045925 0.007994 0.085038
0.021129 0.005175 0.087326
0.029453 0.007849 0.087421
0.105280 0.007780 0.084095
0.059228 0.006276 0.084202
0.020056 0.004996 0.087034
0.091622 0.005994 0.088612
0.092999 0.008525 0.084958
0.037928 0.005158 0.084956
0.039368 0.008349 0.086538
-0.028311 0.006310 0.087458
0.064410 0.007966 0.084725
0.020909 0.004808 0.086100
0.114120 0.008499 0.084609
0.068700 0.007984 0.084682
0.086410 0.006317 0.083927
-0.025819 0.005733 0.087235
0.096444 0.005513 0.084041
0.112210 0.009042 0.086774
-0.052588 0.005799 0.085566
0.040948 0.005132 0.087576
0.115030 0.007035 0.083692
0.027148 0.007662 0.084939
-0.037530 0.007329 0.087021
0.030069 0.005196 0.087486
0.056988 0.004449 0.086168
0.030205 0.008008 0.087205
0.112900 0.004959 0.088353
0.065227 0.005238 0.084542
0.070350 0.005928 0.088371
0.096549 0.004735 0.084567
0.111460 0.009037 0.086747
0.058809 0.008217 0.087395
0.038775 0.004655 0.086589
0.043372 0.007111 0.088082
0.060206 0.004640 0.087199
0.109170 0.009042 0.086423
-0.001995 0.007595 0.087247
0.032388 0.007358 0.087848
0.110580 0.005904 0.083762
0.013063 0.004883 0.086123
0.054781 0.004682 0.087164
0.090759 0.004712 0.087835
0.115480 0.003874 0.086475
0.061367 0.008596 0.086175
-0.033329 0.007639 0.086508
0.100350 0.008387 0.084683
-0.029345 0.007136 0.085240
-0.013025 0.005631 0.087316
-0.006380 0.005077 0.086083
-0.040214 0.007012 0.085281
-0.007236 0.006865 0.087633
0.062518 0.004468 0.085692
0.079976 0.005109 0.088064
0.081241 0.004415 0.085302
-0.059826 0.005602 0.086408
0.060941 0.007592 0.084489
0.028505 0.004858 0.086933
0.016619 0.004919 0.086789
0.042651 0.005494 0.084626
0.009955 0.005873 0.084799
0.102920 0.005756 0.083864
0.107980 0.005020 0.084182
0.116990 0.003933 0.086635
0.111070 0.006052 0.088808
0.028384 0.008154 0.086858
0.043458 0.005214 0.087701
-0.001856 0.005253 0.087068
-0.037716 0.007580 0.085967
0.023585 0.005887 0.084647
0.072937 0.004632 0.085086
0.000788 0.007824 0.085573
0.019032 0.006915 0.087885
-0.019871 0.007582 0.085541
0.107480 0.009048 0.086169
0.032917 0.005534 0.087798
0.113430 0.004796 0.084301
0.044155 0.005134 0.084897
0.079012 0.005268 0.084342
0.068377 0.008212 0.084957
-0.029973 0.007283 0.085350
0.099950 0.008607 0.084969
0.011333 0.005020 0.085633
0.118160 0.008624 0.086541
0.108150 0.007286 0.088701
-0.013922 0.005743 0.087384
0.019516 0.005943 0.084664
0.049777 0.004808 0.085227
0.021193 0.005997 0.084627
0.116020 0.007899 0.084051
-0.036001 0.007012 0.087270
0.111730 0.006300 0.083681
-0.012513 0.007700 0.085614
0.058812 0.008533 0.086613
0.064760 0.008073 0.087703
0.002012 0.006357 0.087761
0.087754 0.008800 0.086779
0.062669 0.005703 0.084314
0.112950 0.008146 0.088260
0.116820 0.007094 0.083710
0.086011 0.006917 0.088552
0.009575 0.006742 0.087822
0.062054 0.007598 0.084480
0.033139 0.005255 0.084935
0.079801 0.008757 0.086047
0.067782 0.007976 0.084686
0.075603 0.004281 0.086010
0.094012 0.005280 0.088351
0.084517 0.007273 0.088452
0.038374 0.007990 0.087372
0.064896 0.007256 0.088248
0.007270 0.005917 0.084808
0.097645 0.008532 0.084896
0.025261 0.008179 0.085832
-0.001423 0.006560 0.087745
-0.004018 0.007400 0.087390
0.118100 0.006823 0.084089
-0.003266 0.005860 0.087578
0.005159 0.005977 0.087709
-0.043528 0.006007 0.085310
0.100270 0.008624 0.087521
0.028242 0.006935 0.087974
0.045045 0.005202 0.084828
0.074312 0.007617 0.084348
0.002638 0.007298 0.087555
0.053204 0.004504 0.085965
0.039396 0.005883 0.084479
0.083477 0.008806 0.086119
0.053566 0.005586 0.088072
-0.021440 0.005482 0.087043
0.103110 0.003983 0.086336
-0.018846 0.007625 0.086916
-0.003845 0.006619 0.087710
0.071402 0.004800 0.084871
-0.038917 0.007377 0.085585
-0.003840 0.005343 0.087146
0.048631 0.005816 0.088104
0.103990 0.005044 0.084213
0.050738 0.004536 0.085875
-0.028240 0.005964 0.085166
0.079414 0.008461 0.085130
-0.032334 0.007542 0.086805
0.103330 0.008929 0.085707
0.044448 0.006750 0.084354
0.045874 0.006815 0.084346
0.115650 0.009073 0.086796
-0.000548 0.006996 0.087661
0.048174 0.007874 0.087659
0.024927 0.005960 0.084598
0.087178 0.007821 0.084338
0.108900 0.005580 0.088647
0.019192 0.004833 0.086008
0.077094 0.004268 0.086550
-0.040918 0.005803 0.087103
0.055649 0.007472 0.084468
0.061175 0.004437 0.085835
0.054526 0.004518 0.086694
0.023666 0.004924 0.085545
0.054273 0.008491 0.086581
0.056344 0.007838 0.087794
0.040522 0.004768 0.087018
0.001736 0.004991 0.086163
-0.059227 0.007335 0.086608
0.002556 0.005900 0.084866
0.110190 0.003965 0.085744
0.094274 0.004500 0.084911
0.109870 0.005916 0.088779
0.089658 0.008816 0.086791
0.106480 0.005894 0.083804
0.073585 0.008674 0.086650
0.036836 0.004641 0.086395
0.072996 0.008555 0.085478
0.117530 0.006873 0.083824
0.104030 0.008928 0.086893
-0.045986 0.007120 0.087088
0.024417 0.004922 0.086977
-0.017991 0.005404 0.085526
0.102340 0.008563 0.084863
-0.059510 0.007172 0.085652
-0.059173 0.006388 0.087161
-0.048805 0.007092 0.087076
0.106250 0.004110 0.085429
0.086721 0.005055 0.084423
0.053639 0.005877 0.084329
0.056802 0.005958 0.084283
0.073256 0.005788 0.088351
0.026365 0.006057 0.087959
0.091516 0.005803 0.083968
0.040257 0.004840 0.085343
0.084696 0.004367 0.085338
0.038992 0.007578 0.084740
0.069671 0.004720 0.085015
0.031099 0.005597 0.087821
-0.040341 0.007398 0.086873
0.038061 0.008183 0.087055
0.099919 0.008105 0.084386
-0.058806 0.007351 0.085929
0.024751 0.004759 0.086388
0.108370 0.008348 0.084516
-0.005932 0.006984 0.084915
0.078680 0.004314 0.085655
0.085392 0.004229 0.086792
0.094663 0.004370 0.087417
0.079069 0.008026 0.087927
0.030310 0.007857 0.085110
-0.036007 0.007604 0.086009
0.023603 0.008013 0.085452
0.091062 0.008409 0.084849
0.118480 0.005870 0.088063
0.041819 0.006738 0.088144
0.008456 0.006874 0.084726
0.051827 0.006355 0.084261
-0.025364 0.005702 0.085301
0.018272 0.005903 0.087819
0.075786 0.008187 0.084816
0.083782 0.007892 0.088100
0.108290 0.006187 0.083735
0.040878 0.004600 0.086391
0.070667 0.004558 0.087267
0.039297 0.004698 0.086840
0.095337 0.004200 0.085493
0.109690 0.004508 0.087879
0.076951 0.004937 0.087891
0.050233 0.008435 0.086711
0.010552 0.005986 0.084740
0.065472 0.004517 0.085473
0.031230 0.006430 0.084455
-0.010784 0.005393 0.085419
0.070520 0.005423 0.084361
0.046360 0.007840 0.084848
0.080609 0.004710 0.087677
0.007886 0.006518 0.087833
0.054904 0.005572 0.084458
-0.007577 0.006342 0.084849
0.049009 0.004568 0.086667
-0.039454 0.007555 0.086566
0.019617 0.006939 0.084635
0.075198 0.004974 0.087909
0.091145 0.004144 0.086636
0.065986 0.004785 0.087544
0.098153 0.008588 0.084970
0.085288 0.008440 0.084974
0.003935 0.007186 0.087621
0.006137 0.005380 0.085173
0.067903 0.004385 0.086693
0.104880 0.006248 0.083757
0.010610 0.005029 0.086887
-0.002310 0.007853 0.086808
0.035623 0.008066 0.087216
-0.020043 0.005462 0.085477
-0.031177 0.007609 0.086655
0.071552 0.005262 0.088070
0.060439 0.007728 0.087939
0.101610 0.008959 0.086530
0.103150 0.007753 0.084102
0.111580 0.004825 0.084301
0.022715 0.008098 0.085655
0.028949 0.006184 0.088011
0.115600 0.006307 0.088875
-0.000599 0.005655 0.085027
0.116290 0.003992 0.085469
0.109130 0.007039 0.088761
-0.021747 0.007647 0.086822
0.009843 0.007492 0.087490
0.052416 0.007295 0.088094
0.100270 0.008931 0.085889
0.096115 0.005869 0.083911
0.103650 0.003983 0.086428
0.068160 0.007584 0.084398
0.035170 0.008114 0.085403
-0.012056 0.007612 0.085458
0.068453 0.007572 0.088139
0.107560 0.007427 0.088629
-0.052879 0.007395 0.086625
0.100370 0.008803 0.087133
-0.002805 0.007422 0.085125
-0.000435 0.006196 0.084804
0.059661 0.004678 0.087268
-0.050936 0.005554 0.085938
-0.012979 0.005152 0.085965
0.078651 0.005486 0.088297
-0.008894 0.006606 0.084861
0.043798 0.005880 0.084434
0.102580 0.008262 0.088029
-0.048919 0.007447 0.086592
0.077737 0.007800 0.088100
0.088399 0.005044 0.084411
0.117300 0.008943 0.085509
0.005848 0.006336 0.084718
-0.013647 0.006868 0.087568
0.096281 0.008931 0.086250
0.073834 0.006055 0.088442
-0.027323 0.007512 0.085570
0.058932 0.005847 0.088223
0.063116 0.004529 0.085506
0.094470 0.004290 0.085270
0.029681 0.007852 0.085114
0.053504 0.007666 0.087902
0.104060 0.007604 0.088509
0.061584 0.006093 0.084212
0.014406 0.005427 0.087502
0.115300 0.007873 0.088505
0.100650 0.005943 0.088693
0.027050 0.006591 0.088023
0.070127 0.005254 0.084467
-0.021189 0.007768 0.086395
0.114850 0.003917 0.086679
-0.040689 0.005446 0.085943
0.014385 0.008121 0.086340
0.024445 0.007568 0.087613
0.017308 0.006851 0.084628
0.082101 0.004266 0.086816
0.060228 0.008123 0.087555
0.033131 0.004885 0.085400
0.089858 0.006603 0.088646
-0.028844 0.007705 0.086257
0.075078 0.005447 0.088241
-0.011131 0.005681 0.085138
0.075817 0.004662 0.087547
0.032273 0.004687 0.086402
-0.054480 0.006604 0.087208
0.080251 0.008759 0.086423
0.034194 0.004760 0.086856
0.090827 0.004274 0.087123
0.087530 0.004546 0.084961
0.001046 0.007837 0.086951
0.015492 0.008117 0.086517
0.077449 0.008108 0.087837
0.024914 0.004945 0.085454
0.012219 0.007928 0.087013
0.020728 0.006409 0.084558
0.076551 0.007022 0.084077
0.112710 0.006575 0.088870
0.068675 0.005390 0.088125
0.016659 0.007908 0.087118
-0.046240 0.007074 0.085396
0.012435 0.004899 0.086008
0.026705 0.008254 0.086172
0.112590 0.007007 0.088801
0.060832 0.005613 0.084376
0.021955 0.008135 0.086728
0.076241 0.004297 0.086663
0.086611 0.004450 0.085114
0.103610 0.004039 0.085702
0.043787 0.008415 0.086127
0.051764 0.008388 0.086884
0.057288 0.008176 0.087428
0.006202 0.006019 0.087735
-0.034325 0.006731 0.087387
0.058495 0.008172 0.085060
0.083073 0.008190 0.087840
0.079016 0.008751 0.086373
0.033680 0.007381 0.087851
0.080322 0.004513 0.087392
0.074408 0.007984 0.084604
0.041199 0.006401 0.084358
0.115150 0.008224 0.088222
-0.008868 0.006340 0.087652
-0.037777 0.007349 0.085535
0.006281 0.005053 0.085685
0.114160 0.004541 0.084515
0.104000 0.004498 0.087782
0.062902 0.007713 0.087983
0.088582 0.008672 0.087155
-0.004809 0.005871 0.084959
-0.020911 0.007591 0.085573
0.052768 0.006666 0.088266
0.102260 0.007890 0.088338
0.073349 0.008458 0.087299
0.070295 0.008162 0.087671
0.073454 0.007772 0.084467
-0.013292 0.006001 0.087525
-0.020774 0.005905 0.085114
0.016983 0.005033 0.087041
0.055961 0.008267 0.085253
0.090748 0.004324 0.085284
0.081695 0.004242 0.086660
-0.019390 0.007400 0.085317
-0.019518 0.007797 0.086248
0.017747 0.007456 0.087622
0.106160 0.008984 0.085858
0.071088 0.005950 0.084143
0.015884 0.007250 0.087720
0.070708 0.004512 0.085337
0.064813 0.005958 0.084204
0.102880 0.005304 0.084070
0.081732 0.005298 0.084299
0.086440 0.008789 0.086773
-0.029320 0.007666 0.085983
0.020753 0.007336 0.087733
0.045597 0.005807 0.084448
0.108290 0.005705 0.083824
0.021620 0.007592 0.084955
0.014751 0.008050 0.085736
0.009982 0.007162 0.084815
-0.052571 0.006237 0.087201
0.072065 0.006353 0.084062
0.075521 0.008714 0.086405
-0.013404 0.007859 0.086227
0.032889 0.007604 0.087691
0.078025 0.006876 0.088480
0.059071 0.007709 0.084593
-0.020351 0.007768 0.086496
0.081062 0.004446 0.087267
-0.014302 0.006184 0.084943
0.008776 0.007274 0.087632
-0.028016 0.007154 0.087289
0.047322 0.004824 0.087296
0.044487 0.004881 0.085212
0.064479 0.005298 0.088011
0.027536 0.008248 0.086091
0.117670 0.008589 0.087470
0.095145 0.005071 0.084303
0.061995 0.008523 0.086806
-0.018235 0.005858 0.085109
0.115450 0.007515 0.083855
0.094449 0.005604 0.088505
0.058575 0.004460 0.085863
-0.004348 0.005369 0.085343
0.051119 0.004911 0.085057
0.004002 0.005255 0.085365
0.116040 0.008827 0.085072
0.052068 0.004678 0.085413
0.072510 0.005339 0.084379
0.061190 0.004824 0.087518
0.011111 0.004940 0.086645
0.051354 0.008481 0.086371
0.109280 0.008620 0.084826
0.066345 0.008027 0.084768
0.084802 0.005054 0.088083
-0.024924 0.007275 0.085284
0.110110 0.006617 0.083704
-0.020488 0.007028 0.087431
0.030600 0.005408 0.087682
0.016622 0.006802 0.087882
0.047066 0.008445 0.086301
0.072908 0.004935 0.087828
0.112390 0.008593 0.087772
0.043112 0.006664 0.084360
0.042952 0.006535 0.088180
-0.055027 0.006829 0.085365
0.080364 0.008419 0.085023
0.012371 0.007395 0.084927
0.054250 0.008504 0.086045
0.093195 0.007339 0.084021
0.097491 0.005480 0.084045
0.071982 0.004923 0.084721
0.012618 0.007739 0.087290
-0.047086 0.007037 0.085381
0.019166 0.006750 0.084601
0.101070 0.008101 0.084370
0.055374 0.008376 0.087019
-0.020690 0.005257 0.085894
-0.037616 0.007602 0.086455
-0.035583 0.005433 0.086683
-0.020085 0.006983 0.085061
-0.039369 0.007457 0.085710
0.027537 0.007486 0.087721
0.027492 0.007854 0.085149
-0.019216 0.005407 0.085542
0.116550 0.003862 0.086217
-0.059884 0.006457 0.085345
-0.042557 0.007532 0.085967
0.023851 0.004951 0.087024
-0.039675 0.005408 0.086026
0.077857 0.008479 0.085203
-0.042257 0.007422 0.086807
0.099079 0.008592 0.084956
-0.031872 0.007165 0.087231
0.102580 0.008815 0.085354
0.097395 0.004137 0.086943
-0.056099 0.005971 0.087039
0.115020 0.004714 0.084351
-0.020832 0.007369 0.087201
0.110520 0.006490 0.088841
-0.027665 0.006651 0.085048
0.069713 0.004400 0.085673
0.109220 0.008988 0.085707
0.024015 0.007183 0.084678
0.046552 0.008410 0.086645
-0.023036 0.006124 0.085040
0.036029 0.008206 0.086935
0.032661 0.005227 0.087563
-0.057544 0.007280 0.086749
0.003401 0.005331 0.087241
0.056891 0.004505 0.085751
0.056930 0.005565 0.088099
0.042207 0.008152 0.087205
0.020589 0.008179 0.086090
0.039649 0.008316 0.085801
0.016707 0.004837 0.086377
-0.026974 0.005913 0.085176
0.088713 0.007871 0.088181
0.092164 0.008519 0.084964
0.035758 0.006959 0.088044
0.053035 0.008278 0.085344
0.099761 0.007516 0.088503
0.084230 0.006558 0.088588
0.097196 0.005551 0.088514
0.049566 0.004510 0.086369
-0.042146 0.005691 0.086976
0.083813 0.006612 0.083959
0.007327 0.007587 0.085137
0.072778 0.008312 0.085011
0.044656 0.004783 0.087145
0.081830 0.008777 0.086392
0.101610 0.008534 0.087672
0.064868 0.005442 0.084412
0.101890 0.005304 0.084080
0.076765 0.008508 0.087270
-0.035585 0.005838 0.087192
-0.037324 0.005397 0.086512
0.038963 0.006591 0.084394
0.059321 0.008512 0.086759
0.010893 0.007328 0.084898
0.114290 0.007300 0.088761
0.107720 0.008984 0.085771
0.082661 0.008767 0.086609
-0.006063 0.007734 0.085537
0.000086 0.007319 0.085019
0.003463 0.006400 0.084730
-0.010357 0.005251 0.085614
0.074718 0.008683 0.086680
0.080219 0.007792 0.084400
0.118650 0.004959 0.087056
-0.006827 0.005722 0.087454
-0.057793 0.006187 0.085378
0.050172 0.006867 0.084309
0.034566 0.008033 0.085255
0.063823 0.008468 0.087010
0.068726 0.005012 0.087856
0.034027 0.007710 0.084890
-0.000866 0.005218 0.085500
0.071805 0.007525 0.084314
0.073426 0.004299 0.086516
0.101770 0.005027 0.088267
0.092182 0.005638 0.088494
0.078777 0.008670 0.085615
0.082944 0.004399 0.085299
0.115140 0.004183 0.087492
-0.023296 0.007707 0.085875
0.093729 0.004174 0.086948
0.021189 0.005252 0.085089
-0.038532 0.006572 0.087373
0.053040 0.005460 0.084530
0.033135 0.004734 0.086715
0.116180 0.006257 0.088876
0.078036 0.008678 0.086837
-0.000698 0.005006 0.086263
0.100060 0.005895 0.083867
-0.033398 0.006643 0.085103
0.109220 0.008750 0.087493
0.089760 0.004508 0.087576
0.104690 0.007685 0.088478
0.050882 0.007877 0.084823
0.089100 0.008078 0.084495
0.026904 0.007980 0.085308
-0.000303 0.005248 0.085448
-0.035914 0.005371 0.086027
0.103560 0.004214 0.087290
0.009563 0.007910 0.085554
0.047766 0.008436 0.086474
0.002653 0.005526 0.087430
0.078318 0.006129 0.088493
0.022896 0.005507 0.084854
0.069605 0.007012 0.088372
0.072391 0.008554 0.085490
0.099370 0.004202 0.085373
0.065999 0.008218 0.085001
0.115850 0.005027 0.088436
0.101140 0.005237 0.088406
0.034955 0.004764 0.085662
0.102440 0.008997 0.086136
-0.002430 0.007625 0.087196
0.110110 0.004128 0.085269
0.118960 0.006366 0.086552
0.074080 0.004382 0.086967
0.110880 0.007255 0.083808
0.004443 0.005245 0.085371
0.089994 0.004109 0.086360
0.114540 0.007724 0.088566
0.118280 0.004533 0.086934
0.078552 0.004954 0.084612
-0.017209 0.007432 0.085322
0.017164 0.007705 0.085128
0.116110 0.006878 0.088859
0.074551 0.005838 0.084129
0.081620 0.004236 0.085843
-0.030771 0.006784 0.085099
0.091272 0.005302 0.088334
0.103260 0.004914 0.088206
0.095198 0.008112 0.088061
0.021164 0.004915 0.085640
0.083397 0.008497 0.087414
-0.050763 0.006663 0.085274
0.090523 0.006086 0.083928
0.110140 0.004791 0.088203
0.057587 0.007971 0.084834
0.103330 0.007740 0.088438
0.029819 0.008249 0.086611
-0.052848 0.006613 0.087223
0.115590 0.009013 0.085492
-0.038234 0.005511 0.085716
0.089162 0.004817 0.087934
0.062385 0.008392 0.087178
0.078960 0.004285 0.086747
0.085618 0.006051 0.088558
0.102620 0.004355 0.084978
0.049078 0.006023 0.084347
0.065480 0.004828 0.087587
0.025329 0.005028 0.085327
0.050333 0.007196 0.088118
0.104350 0.007001 0.088720
-0.008334 0.007867 0.085946
0.067321 0.005964 0.088353
0.114440 0.003992 0.085520
0.094812 0.006710 0.083861
0.117230 0.007603 0.083953
0.042952 0.007018 0.088106
0.099064 0.004759 0.084515
0.000279 0.007945 0.085903
0.033902 0.008010 0.085238
0.012664 0.008033 0.086742
-0.000737 0.007491 0.085149
0.091746 0.008687 0.087204
0.016497 0.006082 0.087865
0.118450 0.004984 0.087462
-0.004589 0.005269 0.087045
-0.015418 0.005332 0.085585
-0.021809 0.007061 0.087401
-0.041091 0.007540 0.086561
0.057585 0.004807 0.085096
0.003659 0.007462 0.085077
0.070392 0.006718 0.084099
0.072683 0.008264 0.087565
-0.037891 0.005982 0.087262
0.118910 0.005158 0.086637
0.069100 0.004602 0.087324
0.096799 0.008935 0.086101
0.012247 0.004999 0.086859
0.057453 0.008538 0.086056
0.094945 0.004728 0.084593
0.087568 0.004837 0.084595
0.048815 0.004519 0.086283
0.067000 0.004448 0.085619
0.026808 0.006221 0.087993
0.113490 0.005643 0.088718
-0.037212 0.006743 0.085150
-0.013177 0.006979 0.087533
-0.004965 0.005112 0.085844
