ply
format ascii 1.0
element vertex 1523
property float x
property float y
property float z
end_header
201.822418 0.000000 290.242493
260.610046 393.700806 344.036072
183.218109 195.490799 0.000000
74.208351 0.000000 21.913555
355.081726 339.718353 0.000000
352.853943 157.231201 393.700806
151.486786 78.745003 0.000000
172.757889 393.700806 108.125221
0.000000 272.481445 386.154846
216.975586 0.000000 275.976044
389.612457 0.000000 195.831161
339.565887 16.729851 393.700806
46.814827 393.700806 185.824829
237.264435 393.700806 204.540497
393.347076 393.700806 106.809204
388.950104 91.653740 393.700806
17.342981 355.289185 0.000000
393.700806 356.542969 146.032364
240.186310 234.915665 393.700806
110.524033 393.700806 57.454376
393.700806 364.908752 306.809967
187.923874 55.897099 0.000000
190.404739 217.571350 0.000000
308.173065 393.700806 74.961365
0.000000 356.962524 137.480286
200.410919 393.700806 143.903854
107.144409 0.000000 232.209076
0.000000 342.487640 247.591461
44.677956 15.041373 0.000000
393.700806 315.289734 363.026245
93.495346 393.700806 51.186123
365.189484 220.215607 0.000000
169.224136 0.000000 243.819214
89.379044 65.325401 393.700806
393.700806 47.891537 222.783066
132.283386 0.000000 341.888794
201.581970 0.000000 142.794617
87.187141 0.000000 348.809753
307.006592 272.616119 393.700806
329.251526 0.000000 176.400375
0.000000 349.524078 73.371269
109.196022 115.542831 393.700806
241.085358 51.620171 393.700806
314.386688 203.116089 393.700806
241.686569 294.810760 0.000000
249.164673 0.000000 263.063324
273.447418 393.700806 329.617157
215.263824 393.700806 257.324585
238.467636 185.261871 393.700806
143.382660 393.700806 305.926086
101.250732 0.000000 170.320221
308.714172 276.572479 0.000000
65.456932 186.079498 0.000000
35.788109 393.700806 80.570862
67.652069 0.000000 286.226013
0.000000 173.567139 294.850555
334.438873 0.000000 342.571869
280.644165 393.700806 239.351044
46.916107 393.700806 92.136841
0.000000 219.853058 386.595154
26.185965 317.621887 393.700836
203.219070 333.478088 0.000000
21.181015 9.787194 0.000000
304.221313 0.000000 217.505478
393.700806 292.854309 212.791595
0.000000 309.450623 101.425781
77.643784 160.338165 0.000000
356.449005 13.604432 0.000000
275.259949 34.807537 393.700775
0.000000 58.346992 11.803765
0.000000 27.345839 157.220734
213.515350 2.663032 0.000000
286.604797 393.700836 20.416798
296.582916 0.000000 270.134003
0.000000 20.924915 291.101166
346.721069 283.101288 0.000000
334.786224 0.000000 149.561020
122.389908 0.000000 258.641724
114.141167 356.361053 0.000000
0.000000 150.405243 97.372940
170.707260 133.473557 0.000000
393.700806 102.635216 18.399345
361.896790 29.075203 0.000000
163.059616 393.700806 56.304428
38.798309 165.763138 393.700806
102.830528 393.700806 19.522564
12.164347 175.702118 393.700806
353.989532 393.700806 305.083618
326.409760 393.700806 100.470383
309.421997 0.000000 392.031067
329.325867 0.000000 91.663170
3.266241 393.700806 105.654846
0.000000 156.180267 138.144760
340.642456 98.607216 0.000000
393.700775 122.689598 337.786316
0.000000 190.864105 126.476440
0.000000 368.680084 0.034326
390.567322 102.662285 0.000000
0.000000 357.217499 377.201508
391.534729 272.410675 0.000000
238.102173 117.141846 393.700806
378.874176 294.742584 0.000000
289.352173 0.000000 69.261963
393.700806 84.390068 243.899948
322.003662 0.000000 323.887146
0.000000 25.827068 238.892258
381.275146 0.000000 145.531250
74.992599 0.000000 172.585510
0.000000 190.489761 44.687176
393.700806 317.055481 23.430071
67.756355 393.700806 92.387321
393.700775 379.126221 60.322037
393.700806 371.359924 179.370926
198.560623 67.083664 0.000000
390.119690 357.840240 393.700775
293.659119 323.130035 0.000000
336.314606 388.324585 0.000000
0.000000 276.684265 25.647762
0.000000 71.670082 170.309692
102.627800 77.413376 393.700806
143.969299 393.700806 15.753414
349.145050 257.085083 393.700806
173.795654 0.000000 342.067108
393.700806 57.919994 180.352539
304.375916 393.700806 252.181122
201.501923 0.000000 78.517792
61.082211 17.843872 393.700806
347.533997 154.108124 0.000000
0.000000 173.263229 122.914948
371.441986 0.000000 186.263397
309.577118 76.312485 393.700806
393.700806 105.128006 292.042175
274.138916 0.000000 56.987511
243.121307 263.132385 393.700836
305.862915 41.464642 0.000000
0.000000 146.582397 119.717789
347.859558 0.000000 64.482491
163.231308 0.000000 131.783264
352.143768 393.700806 59.930996
295.793396 111.171921 393.700836
393.700806 224.259705 351.559021
290.405334 393.700806 287.011078
94.773102 393.442627 0.000000
88.567909 108.882927 393.700806
281.159729 293.563110 393.700806
290.704529 393.700806 73.012665
180.348511 210.551071 393.700836
390.555237 393.700806 281.522461
332.380402 0.000000 308.842255
183.643585 144.827011 0.000000
130.124359 243.028351 393.700806
178.959717 393.700806 345.972534
390.740021 0.000000 8.179471
349.212677 264.395599 0.000000
366.547882 393.700836 71.906509
343.516998 393.700806 99.527191
358.522705 0.000000 17.182518
113.575989 393.700806 146.652023
207.229752 0.000000 60.045628
56.918087 393.700806 81.361145
387.798798 242.946152 0.000000
48.383919 370.460449 393.700836
326.668396 393.700806 233.577927
393.700806 204.517090 246.172272
393.700806 103.789383 54.165676
0.000000 253.896561 16.556742
393.700806 336.303619 363.244720
133.910355 201.222809 393.700836
0.000000 180.963013 94.397125
393.700806 119.608391 22.692593
217.378448 63.534172 0.000000
381.059265 393.700806 377.819946
138.645950 124.467422 0.000000
0.000000 22.365282 138.124298
189.540054 0.000000 59.960938
36.742794 393.700806 362.187622
94.774017 157.553192 0.000000
83.730652 0.000000 213.274429
143.087402 393.700806 166.846390
182.589081 393.700806 45.653873
260.454132 309.004578 0.000000
80.621880 393.700836 253.685364
121.578224 393.700806 0.276810
93.142914 130.013367 393.700806
83.386070 393.700806 235.565735
194.402725 393.700806 120.939896
393.700806 335.081940 116.808495
393.700806 65.769531 255.552155
124.109192 393.700806 334.257568
75.652542 393.700806 0.936286
180.858307 393.700806 84.271164
277.247681 393.700806 366.597565
0.000000 197.353867 163.643326
228.010132 393.700806 299.161072
212.462692 356.969086 393.700806
393.700806 104.091682 221.163605
316.729462 290.716980 393.700806
56.486340 393.700806 27.571514
378.486877 69.367043 0.000000
178.519089 381.892944 393.700806
393.700806 325.962128 300.856720
182.468170 382.804504 0.000000
393.700806 203.990524 167.388763
393.700806 226.223129 370.317627
296.703094 208.080078 393.700806
370.820343 393.700806 125.301666
100.495949 129.459351 0.000000
393.700806 86.282280 181.460068
260.240570 382.083923 0.000000
80.870323 0.000000 0.410099
4.169228 393.700806 182.635498
324.440247 393.700806 269.128723
359.338654 393.700806 218.989426
0.000000 250.869965 248.514404
53.309483 74.935760 0.000000
0.000000 10.160622 184.490936
319.011658 393.700806 339.900635
393.700806 76.627457 266.816650
0.000000 45.603985 191.613724
309.936584 393.700806 35.561634
393.700806 4.407834 157.831940
276.742493 206.300079 393.700806
97.157059 0.000000 98.665413
0.000000 238.505157 23.922724
261.784027 0.000000 385.260681
126.134476 0.000000 169.345413
132.071167 0.000000 98.396645
126.239967 393.700806 68.060577
11.805897 311.043793 0.000000
46.226479 393.700806 131.377319
142.379059 348.696228 0.000000
252.040390 0.680481 0.000000
393.700775 350.854340 124.496506
393.700806 175.817352 271.280365
121.278305 41.658772 393.700806
266.103729 0.000000 258.292480
76.256195 356.355377 0.000000
117.812836 0.000000 43.004047
310.090027 217.546753 393.700806
289.964661 228.354324 0.000000
87.059395 339.210938 0.000000
393.700806 13.409239 323.270996
118.688080 393.700806 18.032471
0.136950 54.091988 393.700806
393.700806 189.322189 137.779236
0.000000 292.819519 240.138016
270.013550 0.000000 338.960754
393.700806 143.720291 256.659180
254.741791 0.000000 172.200882
0.000000 152.494263 259.651947
354.305328 0.000000 50.039978
84.400589 0.000000 123.116058
342.685669 0.196812 393.700806
83.474808 27.429073 393.700806
393.700806 326.750092 74.601318
16.091518 0.000000 89.027771
347.915222 218.686920 0.000000
0.000000 141.185043 201.342117
0.000000 354.469452 218.363510
264.170471 195.594482 0.000000
393.700806 21.748751 65.708702
317.267242 393.700806 129.107986
136.454651 393.700806 380.340179
393.700806 298.648895 171.489868
113.542091 298.296600 0.000000
277.506927 224.566940 393.700775
207.157852 0.000000 325.431915
393.700806 65.226349 17.575838
59.370148 0.000000 119.940086
0.000000 200.773941 282.205292
393.700806 201.899384 373.800049
0.000000 233.831512 234.174194
393.700806 124.346512 118.694855
393.700806 21.112482 155.937180
0.000000 240.160690 78.174438
22.574863 0.000000 150.989182
0.000000 288.284058 386.008728
62.826607 393.700806 313.583710
112.670670 95.689232 0.000000
281.738983 0.000000 264.958954
0.000000 32.856335 254.284973
0.000000 224.103027 72.248489
0.000000 226.930847 326.698486
246.796143 268.881073 0.000000
267.148163 360.141174 0.000000
0.000000 177.706161 7.903506
285.427979 393.700806 317.892639
38.096943 201.410339 393.700806
211.392670 0.000000 20.223528
320.823730 0.000000 264.867432
0.000000 44.923763 346.082520
332.799805 192.292664 393.700806
349.184937 0.000000 158.221100
39.049633 312.192139 0.000000
288.632660 0.000000 124.277733
0.000000 379.478546 242.986465
175.055664 228.126968 0.000000
17.711849 283.853668 393.700806
0.000000 106.047653 42.681534
0.000000 280.619446 206.899979
393.700806 288.768524 375.135437
321.510681 393.700806 314.400330
173.848450 393.700836 329.218658
393.700806 303.781128 251.003281
393.700806 131.179337 390.772614
122.276215 284.093384 0.000000
342.565277 393.700806 248.294937
314.694946 0.000000 33.199787
228.483414 355.911316 0.000000
98.197533 88.852600 0.000000
393.700806 314.634705 171.061737
47.013729 113.188263 393.700806
115.825302 185.546494 393.700806
393.613342 393.700806 337.409302
352.194397 0.000000 358.771515
242.207031 0.000000 348.970764
192.180450 132.024109 393.700806
0.000000 15.304549 329.056335
149.531067 0.000000 75.163055
82.555748 372.410950 0.000000
222.947571 253.897568 393.700806
30.513988 136.602524 393.700806
325.684357 349.872589 0.000000
393.700806 202.974960 334.519714
370.456512 258.992889 0.000000
0.000000 393.546112 329.851990
393.700806 96.089073 165.441498
82.714981 0.000000 285.025055
277.385315 321.241760 0.000000
0.000000 252.802017 154.292572
175.899139 393.700806 313.947388
393.700806 172.466232 130.178055
266.308624 0.000000 299.754395
340.476471 66.733032 393.700806
0.000000 72.764275 211.321075
108.957413 0.000000 295.096558
0.000000 342.468262 162.773529
99.867256 359.344482 0.000000
393.700806 3.461223 138.148300
393.700806 360.047211 38.889782
393.700806 311.422241 186.224380
0.000000 136.526352 218.384247
393.700806 43.180679 125.707771
80.035713 0.000000 377.199860
0.000000 342.430115 31.175184
27.835432 393.700806 198.445511
199.330566 176.939606 393.700775
248.254242 237.032150 0.000000
79.501808 146.621338 393.700806
125.140213 24.179371 393.700806
63.877926 6.169199 0.000000
360.987976 393.700806 92.263947
393.700806 128.337143 353.540649
393.700806 63.332237 54.450794
258.395233 230.085419 393.700806
0.000000 104.412231 191.291351
393.700806 388.545349 77.056816
283.282990 33.691010 0.000000
222.405365 0.000000 168.376984
128.202667 393.700806 215.105270
0.000000 70.587181 254.961365
240.240143 0.000000 291.891785
393.700806 200.321533 390.155762
216.947067 0.000000 291.441345
62.209534 393.700806 186.758255
393.700806 222.439423 245.898132
150.613342 48.054485 393.700806
393.700806 233.603897 63.922466
76.265854 0.000000 200.159637
0.000000 20.223646 66.451073
30.132816 393.700806 273.173279
379.706421 0.000000 242.969055
46.031448 393.700806 114.455353
393.700806 306.620026 11.584056
393.700806 234.033096 27.381260
371.177826 393.700806 365.462311
393.700806 317.075775 126.064163
183.819672 53.979191 393.700806
0.000000 291.412933 257.426758
225.563980 248.071075 0.000000
169.828491 393.700806 258.465820
17.071615 393.700806 73.313950
298.934235 0.000000 135.248199
393.700806 161.614944 18.470739
129.358093 393.700806 51.225594
393.700806 224.915176 82.549431
235.944504 0.000000 320.436523
141.938232 66.822235 393.700806
78.888954 41.815430 393.700806
0.000000 292.802032 69.042648
333.876709 7.074344 0.000000
221.977264 71.609161 393.700806
0.000000 122.064285 338.875458
0.000000 0.265264 117.033989
211.945847 393.700806 360.262085
376.815033 0.000000 304.367950
0.000000 234.062851 152.148468
143.883881 374.704773 393.700806
0.000000 201.425430 384.562561
0.000000 317.165009 364.806732
0.095367 0.000000 0.245130
20.861315 393.700806 98.787827
234.383682 0.000000 178.973465
0.000000 371.854034 391.704742
65.696861 363.793152 393.700806
128.485870 393.700806 84.726501
0.000000 255.605606 62.048519
32.550873 243.573318 0.000000
0.000000 29.581646 336.842377
112.195526 0.000000 130.796295
0.000000 271.049957 282.283447
123.199776 77.898064 393.700806
393.700836 26.635393 281.810638
1.109562 0.000000 41.162125
20.314953 57.644642 393.700806
336.511719 228.494934 393.700806
0.000000 106.361748 62.168186
35.578735 0.000000 16.646732
393.700806 87.326019 10.031446
0.000000 319.581879 0.489650
294.056793 0.000000 97.392067
126.271835 364.467133 393.700806
370.420441 99.519440 0.000000
31.470650 393.700806 32.711475
283.262390 252.973785 393.700806
393.700806 198.831467 118.668724
0.000000 114.746178 131.706329
255.982101 0.000000 27.284567
316.019196 195.464050 0.000000
63.492371 39.507484 0.000000
0.000000 189.665619 209.773865
139.161011 0.000000 291.624084
393.700806 14.296198 124.581551
393.700806 310.388611 287.850494
393.700806 126.527649 308.653992
63.293423 393.700806 132.475769
393.700806 25.898735 227.199875
241.581268 0.000000 122.387444
10.199388 143.221741 0.000000
139.380402 0.000000 36.760860
34.265232 346.942078 0.000000
222.179886 393.700775 72.810547
393.700806 210.516357 76.250114
393.700806 75.970474 342.873413
0.000000 84.709885 21.619144
0.000000 184.066116 361.876648
193.464325 42.014664 393.700806
119.717461 387.641632 393.700806
393.700806 102.396446 370.366180
393.700806 134.690918 202.103806
393.700806 45.445259 172.461609
288.102051 393.700806 336.509979
169.171326 0.000000 146.355103
393.700806 360.024231 64.307808
189.568756 393.700836 197.970413
393.700806 228.068619 191.080948
350.254547 0.000000 173.597839
362.864014 63.752121 0.000000
0.000000 355.340210 43.502808
252.496628 393.700806 46.736988
0.000000 78.876472 316.285217
0.000000 380.615875 222.737854
93.351532 393.700775 195.490097
51.231228 144.993256 393.700806
169.339920 0.000000 326.776398
393.700806 107.249786 117.499863
0.000000 175.453537 382.299377
0.000000 158.031662 209.938278
94.357399 0.000000 297.288330
94.339417 31.310297 0.000000
135.973068 393.700806 262.262268
95.112213 393.700806 256.351624
393.700806 213.642990 361.889069
393.700806 291.941071 155.383759
393.700806 60.252319 231.390610
0.000000 191.614822 260.651764
393.700775 4.030682 283.203918
0.000000 253.842926 38.401733
258.229431 393.700806 190.685638
375.829407 393.700806 297.679749
0.000000 27.067221 124.144745
389.732666 219.306610 393.700806
393.700806 161.538559 248.791641
393.700806 125.497887 260.815155
47.063385 289.087524 0.000000
100.806664 177.373276 393.700806
393.700775 7.704018 104.280548
345.623444 31.316196 0.000000
0.000000 149.793427 225.793365
0.000000 198.310593 351.117493
188.259521 247.985611 0.000000
0.000000 52.681686 167.702652
150.889938 393.700806 267.508118
0.000000 127.297180 286.317688
0.000000 214.692062 225.201630
93.445435 0.000000 15.115598
312.900421 393.700806 281.442169
129.056519 393.700806 101.221695
119.771736 0.000000 392.073578
32.987370 0.000000 233.360260
393.700806 143.305923 218.799973
13.873944 61.123486 0.000000
169.358673 393.700806 21.915339
339.976746 307.510132 0.000000
266.216705 19.754107 393.700806
0.000000 135.018143 251.848038
0.000000 3.727332 376.738922
393.700836 282.043243 223.904861
367.512360 274.788910 0.000000
172.777405 207.158325 0.000000
393.700806 253.288025 180.012253
0.000000 1.976950 169.790604
378.252106 393.700836 13.229509
393.700806 201.671387 43.205658
267.260010 45.902290 0.000000
199.488876 18.900679 393.700806
393.700806 373.877014 208.163681
161.541351 313.104187 393.700806
234.747818 0.000000 274.344299
274.017120 0.000000 353.141754
393.700806 232.850067 116.080482
216.419830 143.259552 393.700806
233.245834 0.000000 155.053421
227.689972 122.043518 0.000000
393.700806 60.553699 3.272125
296.329651 0.000000 290.145416
0.000000 68.467766 376.448486
393.700806 334.325745 11.846893
291.729858 136.276672 393.700806
161.854218 83.948761 393.700806
393.700806 207.357742 14.107012
0.000000 300.884827 336.691589
141.138458 372.527740 0.000000
62.727058 0.000000 387.394470
166.926987 0.000000 182.440414
46.838692 393.700806 259.695892
230.012909 0.000000 48.013420
393.700806 100.312325 191.092484
393.700806 177.763306 87.867027
375.274506 131.739929 393.700806
179.827850 90.413292 0.000000
54.555382 254.144440 0.000000
206.159485 393.700806 198.977570
365.539154 0.000000 36.331333
19.239302 0.000000 204.750000
38.512089 65.780800 0.000000
87.197273 393.700775 369.423859
304.951385 26.535004 393.700806
139.172531 393.700806 149.576782
249.137848 393.700806 80.087433
346.831421 235.698959 0.000000
13.966261 214.044510 393.700806
44.565620 12.403868 393.700806
202.568817 338.894897 393.700806
377.445709 26.201077 0.000000
0.000000 98.601387 240.382172
100.866318 393.700806 158.544144
257.170776 393.700806 276.554443
0.000000 330.582153 271.320740
70.226387 273.226288 393.700836
0.000000 326.370850 110.139236
264.209412 70.226852 0.000000
309.969666 393.700806 227.396576
393.700806 260.813141 370.434937
371.493042 0.000000 254.976288
0.000000 360.685547 155.005035
393.700806 32.612942 38.880440
306.860962 170.404739 0.000000
166.721008 384.311127 0.000000
0.000000 232.643372 171.212967
393.700806 135.041763 241.415436
352.876038 280.598938 393.700806
7.169986 393.700806 157.008621
0.000000 368.948303 124.958260
374.383026 0.000000 67.579185
236.976364 0.000000 233.117203
393.700806 240.264923 336.968994
289.233429 349.531158 0.000000
79.726845 286.155731 393.700806
86.062584 254.509796 0.000000
393.700806 262.367401 387.633698
330.244446 297.293396 393.700806
153.539597 112.162521 0.000000
0.000000 208.886292 133.885513
204.451660 121.338005 0.000000
345.124207 0.000000 100.512421
371.998779 118.939056 0.000000
223.846405 128.847977 393.700806
198.957977 0.000000 189.753769
0.000000 267.203918 195.043564
393.700806 111.091217 387.149109
393.700806 143.594559 155.864868
0.000000 125.361717 175.490326
14.154930 393.700806 211.797821
295.706696 12.681217 393.700806
393.700806 167.415756 213.837204
337.767090 342.182404 393.700806
393.700806 335.713501 346.725067
0.000000 110.652672 208.127106
231.768463 0.000000 196.188416
203.666016 393.700806 231.173553
299.300293 393.700806 150.137695
245.634674 393.700806 289.813049
393.700806 350.834839 344.615814
0.000000 151.675552 19.123775
235.026245 393.700806 139.088669
8.642697 108.476097 0.000000
80.651756 319.209930 0.000000
64.873817 393.700806 51.415508
329.059753 107.619827 393.700775
261.683929 185.459900 393.700775
36.684151 76.778252 393.700806
135.466995 0.000000 246.209564
0.000000 39.130051 224.396057
323.308716 24.045271 393.700806
393.700806 392.990692 154.336182
0.000000 200.468750 323.569916
200.116776 241.839172 393.700775
0.000000 213.844620 153.314529
0.000000 10.259556 79.706711
0.000000 365.697723 96.483238
113.466492 393.700806 129.594025
275.774445 92.706322 393.700806
0.000000 268.443756 86.246155
14.799717 38.489830 0.000000
244.441040 213.226868 393.700806
294.076721 393.700806 354.617004
0.000000 248.729446 305.722534
393.700806 369.586548 25.498255
393.700806 32.984295 323.542145
254.861145 0.000000 339.166016
302.852539 393.142120 393.700806
250.256058 0.000000 191.110596
393.700806 54.017757 343.995697
304.544586 393.700806 167.419373
36.681942 0.000000 248.350937
0.000000 318.106262 81.733482
0.000000 176.034348 276.432404
0.000000 132.771118 354.333862
271.794342 0.000000 31.929411
54.074841 0.000000 46.578804
218.436325 0.000000 78.149979
0.000000 54.014343 57.369438
68.517540 393.700806 114.734039
393.700806 269.546661 173.318329
346.217834 83.309036 393.700775
239.187134 383.647095 393.700806
40.319729 99.536758 393.700806
333.142212 265.485962 393.700806
206.839798 393.700806 337.509155
0.000000 34.808365 319.344604
393.700806 288.311188 277.189819
106.102371 393.700806 245.628128
128.328766 152.846527 393.700806
223.000275 306.144196 393.700806
204.875305 76.096054 393.700806
357.131561 359.013977 0.000000
209.221725 0.000000 359.031067
10.574955 0.000000 299.618256
305.115234 393.700836 7.517015
0.000000 76.623444 152.003403
393.700806 258.822144 156.922562
108.515068 312.225250 0.000000
393.700806 302.180450 121.010597
174.329132 290.703430 0.000000
0.000000 336.782318 383.080444
121.481667 0.000000 285.356323
393.700806 66.770134 151.926895
0.000000 280.849213 122.822884
40.360867 182.376190 393.700806
53.020447 152.679794 0.000000
296.270172 169.345093 393.700806
0.000000 199.242874 181.742920
8.728420 288.071747 0.000000
365.283813 393.700806 278.808960
162.313660 393.551270 393.700806
80.958458 207.173477 393.700806
0.000000 167.326080 164.468842
57.719170 87.021286 393.700806
393.700775 39.693645 346.685608
393.700806 288.395752 11.006982
330.105896 0.000000 371.471558
0.000000 380.861145 164.190903
393.700806 391.028320 212.660477
294.901794 0.000000 381.988617
22.513802 151.840271 0.000000
0.000000 216.746567 180.521988
393.700775 137.904266 142.034409
258.713043 44.760674 393.700806
55.815952 111.400757 0.000000
56.499481 0.000000 187.293457
34.505402 393.700806 248.984283
30.465202 297.172943 0.000000
379.172821 320.303741 393.700806
184.213577 0.000000 191.039017
393.700775 363.259308 132.802505
181.368973 393.700806 299.818359
13.731262 0.000000 163.391357
393.700806 252.512772 203.435959
294.358704 0.000000 205.222809
186.714935 393.700806 18.732332
18.140745 0.000000 244.020660
328.628082 393.700836 119.205643
247.369690 393.700806 366.138672
191.831223 263.902100 0.000000
0.000000 13.231434 364.961273
0.000000 152.443253 288.018677
342.820435 393.700806 264.528778
285.390106 279.454620 0.000000
393.700806 357.881592 86.994324
375.482788 0.000000 354.892731
186.104950 77.288246 0.000000
78.274605 303.750244 393.700775
203.164597 0.000000 340.580750
45.039875 0.000000 324.691986
82.448219 393.700806 139.862030
293.140045 393.700806 40.849789
0.000000 17.975212 27.713036
393.671326 322.820129 0.000000
334.836639 393.700806 331.632843
326.344574 29.445047 0.000000
305.180237 0.359669 0.000000
393.700806 35.936440 97.739204
312.867004 0.000000 170.930740
0.000000 56.298069 247.233627
216.177658 332.582031 393.700806
122.744682 0.000000 226.904663
393.700806 213.837280 264.532410
157.183609 278.220947 0.000000
143.156326 290.029999 0.000000
241.774399 151.128922 393.700806
163.114624 393.700806 95.014076
225.332748 277.139709 0.000000
62.815132 393.700775 330.260986
393.700806 292.427948 65.893387
142.071228 331.221344 393.700775
363.787872 381.892761 0.000000
195.339706 105.974220 0.000000
0.960503 0.000000 137.018814
193.395020 308.557678 0.000000
25.255827 37.208141 393.700806
0.000000 251.177322 384.008484
242.651764 393.700806 380.112427
0.000000 42.474102 19.540119
382.258270 280.513367 393.700806
393.700806 229.636292 133.038055
91.010803 393.700806 341.524506
0.000000 205.068298 98.850670
130.333740 96.653564 0.000000
0.000000 103.286850 102.843407
0.000000 8.054254 97.279190
0.000000 270.084320 254.421539
270.373291 26.351248 0.000000
393.700806 280.295502 31.524710
0.000000 115.309601 295.295532
139.937744 202.463608 0.000000
32.175949 393.700806 119.867805
0.000000 109.971184 150.019318
200.665771 219.391815 393.700806
160.362061 0.000000 41.733154
275.481842 337.044067 0.000000
11.510901 0.000000 73.255234
19.978329 77.275291 393.700806
0.000000 147.069168 358.078217
393.700806 183.979431 153.732025
0.000000 74.298531 338.422638
219.562683 89.689262 393.700836
159.142273 201.978683 0.000000
0.000000 292.006317 197.154007
0.000000 84.553276 371.783997
218.098892 372.537659 0.000000
356.404236 321.860138 0.000000
108.482361 0.000000 276.713501
243.066254 393.700806 328.666748
393.700806 391.705017 25.268703
102.986412 42.607044 393.700806
235.605591 107.169487 0.000000
309.275208 393.700806 183.193787
318.099213 393.700806 53.858456
259.689148 393.700806 18.274221
61.430832 338.919250 393.700806
328.175446 262.622772 0.000000
0.000000 307.945892 51.022434
194.617096 372.100800 393.700806
13.253351 170.121933 0.000000
191.969818 393.700806 288.745453
330.285522 86.696800 393.700836
116.074463 339.427368 393.700806
27.584562 216.978516 0.000000
393.700806 265.640228 25.846775
304.457031 0.000000 352.062592
46.215096 393.700806 12.846068
258.406708 332.040649 0.000000
82.091911 301.784973 0.000000
0.000000 134.070801 157.028702
347.209229 48.048222 393.700806
218.200775 0.000000 151.067108
161.534409 378.556091 393.700806
393.700806 222.644119 225.162430
314.243042 174.915894 393.700806
393.700806 73.828217 375.103058
99.459763 393.700806 179.521896
220.192291 393.700806 129.171860
160.545044 218.370728 0.000000
153.405426 0.000000 364.033875
0.000000 223.168060 101.475739
270.924347 283.943115 0.000000
174.259628 0.000000 357.915863
0.000000 34.144524 93.279678
204.171234 393.700806 214.704742
393.700806 243.147766 353.749420
205.054855 389.663879 393.700806
5.092283 0.000000 194.361816
306.090576 301.040833 393.700806
393.700806 374.782288 320.640381
106.133369 0.000000 257.858582
81.250565 245.653000 393.700806
153.560745 59.004681 0.000000
213.879333 293.240540 393.700806
393.700806 299.565918 364.511047
74.927361 22.153568 0.000000
177.447372 162.991638 0.000000
393.700806 82.392418 298.728577
29.826212 0.000000 357.679138
178.250244 38.463982 0.000000
237.400528 370.014282 0.000000
178.704575 252.962204 393.700806
348.472198 317.860321 393.700806
374.447510 393.700806 347.594330
315.249603 47.969143 393.700806
0.000000 158.100082 39.144764
235.642609 393.700806 86.337448
393.700806 271.094238 324.917938
130.422943 393.700775 136.649094
24.358847 334.200623 393.700806
0.000000 343.055176 301.027344
306.925964 0.000000 111.793068
393.700806 318.514832 250.782898
393.700836 304.176025 100.439560
393.700806 48.078518 248.837646
0.000000 289.127258 286.271973
0.000000 137.192062 382.767578
184.088303 293.058746 393.700806
393.700806 349.059967 50.190552
253.056671 0.000000 279.884705
25.503654 184.996140 393.700806
355.255219 393.700806 110.485397
224.407928 0.000000 63.548973
278.047729 0.000000 316.840668
383.032379 0.000000 330.039612
393.681763 0.000000 119.402191
393.700806 187.123474 383.095886
378.921173 393.700806 34.154915
0.000000 392.137573 350.075378
98.410088 291.049805 0.000000
53.206650 393.700806 371.734589
9.476177 17.063585 393.700806
322.771912 139.872711 393.700775
0.000000 146.695770 170.336136
393.700806 279.440491 202.765656
190.305206 393.700806 389.559875
249.122177 0.000000 309.064667
82.393143 393.700806 268.315063
393.700806 146.941742 340.123840
329.680420 0.000000 76.152496
393.700806 245.246704 266.102814
393.700806 207.078568 134.944946
393.700806 361.701660 258.677185
0.000000 234.806946 383.643982
156.119247 393.700806 159.339371
16.075514 0.000000 10.561615
309.713318 67.316902 0.000000
0.000000 354.597290 180.578888
272.472778 387.662903 393.700806
393.700806 131.172607 167.235199
152.339020 194.765854 393.700775
291.757141 172.815750 0.000000
173.548874 272.105408 0.000000
393.700806 143.056641 274.864380
53.210026 0.000000 294.842346
147.485428 122.496307 393.700806
75.866371 213.129578 0.000000
393.700806 168.206375 58.344128
325.578613 393.700806 210.120697
11.077735 159.179321 393.700806
212.279694 393.700806 155.900574
301.267761 393.700806 310.102814
0.000000 127.231209 319.430420
151.638443 0.000000 246.646713
169.874603 285.985748 393.700806
123.553978 239.837402 0.000000
202.235535 393.700806 49.328476
280.754730 76.281914 393.700806
393.700806 35.597256 149.957779
393.700806 222.665588 314.161926
325.543579 66.662979 0.000000
217.661102 274.896179 393.700806
203.619049 0.000000 232.470795
351.576080 393.700806 81.086792
0.000000 27.891760 372.960602
10.731957 0.000000 263.856293
393.700806 35.386669 306.715515
262.305786 393.700806 370.290985
0.000000 207.555634 117.343208
393.700806 286.304016 122.189827
0.000000 261.203552 118.043060
0.000000 298.748962 38.330269
393.700806 187.180786 282.010284
0.000000 222.840393 293.712952
287.887360 0.000000 233.305481
75.800613 79.157471 0.000000
42.403217 0.000000 221.308136
393.700806 215.916901 27.150808
393.700806 19.401735 87.047287
16.654032 393.700806 297.067993
147.275192 226.850189 393.700775
213.323395 234.563599 0.000000
393.700806 199.576584 28.134007
0.000000 261.771423 270.956238
218.471558 0.000000 114.647682
393.700806 358.820923 325.230316
60.219868 0.000000 219.175674
259.859131 0.000000 156.151505
34.519093 0.000000 296.367706
18.143373 229.673203 0.000000
281.922363 0.000000 108.505424
377.264099 393.700806 218.142975
393.700806 254.736389 116.590324
0.000000 101.605034 86.373138
25.823362 155.705170 393.700806
14.179054 306.768494 393.700806
256.131927 367.091248 393.700806
393.700775 113.662567 160.246445
242.761215 393.700806 13.829310
242.397537 71.006516 0.000000
327.677063 0.000000 203.172745
0.000000 314.628174 187.473145
201.641907 145.141815 393.700775
393.700806 241.787003 14.378938
378.053772 0.000000 274.445282
226.478836 159.673080 393.700775
393.700806 325.767090 224.621765
393.700806 48.258057 106.706703
317.264740 393.700806 86.460297
229.299881 393.700806 161.813660
241.040298 0.000000 207.569473
164.076508 32.912182 393.700806
0.000000 191.554993 195.068222
115.820206 393.700806 42.595196
0.000000 14.985007 201.016098
256.796600 0.000000 353.637787
325.950684 393.700806 367.240112
257.481567 0.000000 241.405838
0.000000 268.452911 50.739254
0.000000 341.578247 143.053268
47.907330 217.702545 393.700806
0.000000 85.129845 261.733337
0.000000 327.497467 199.241119
0.000000 114.413628 77.381126
27.023010 265.651581 0.000000
18.369543 123.783798 0.000000
131.040436 113.354370 393.700806
379.170380 0.000000 44.025822
0.000000 324.526154 318.404663
266.613129 249.221130 0.000000
198.154449 194.659058 0.000000
393.700836 218.582535 166.822845
265.423157 0.000000 92.781860
0.000000 30.847353 182.852112
0.000000 19.220715 273.856842
0.000000 235.031525 350.463867
212.138519 393.700806 7.805393
339.702667 0.000000 11.374045
0.000000 161.385406 272.807678
325.020874 393.700775 18.933603
163.125885 91.143860 0.000000
17.608198 0.000000 365.714111
0.000000 234.002258 273.049347
254.142548 252.324402 393.700806
393.700806 359.559875 356.357025
250.396149 0.000000 144.278915
221.078735 393.700806 22.313822
251.019119 393.700806 169.235565
120.846664 64.460480 0.000000
44.079468 0.000000 108.499840
152.984299 235.485886 0.000000
0.000000 274.396545 109.296722
183.013397 393.700806 265.815826
101.395111 154.768127 393.700806
174.158096 193.178802 393.700836
0.000000 344.107544 99.345345
59.727753 362.022827 0.000000
354.384277 104.026421 0.000000
276.785797 0.000000 245.162674
393.700775 108.972633 309.254364
27.867285 229.163391 393.700806
0.000000 58.262886 224.753326
178.305634 0.000000 373.684998
299.688049 118.585373 0.000000
0.000000 86.939499 57.484810
393.700836 50.952164 327.615326
393.700806 190.678787 342.622437
393.700836 248.562103 65.575516
0.000000 166.053619 16.715302
393.700806 268.668640 49.485470
293.752106 152.040421 393.700806
249.751495 253.170609 0.000000
126.494530 393.700806 159.508469
38.786907 393.700806 300.612366
0.000000 97.006660 342.258240
237.697403 66.829643 393.700806
290.453613 50.632622 0.000000
393.700806 188.484070 0.223055
0.000000 352.022339 286.001373
295.453033 393.700806 193.092255
221.199860 234.313354 393.700806
361.523682 393.700806 264.645264
235.590164 259.148193 0.000000
322.193024 393.700806 162.863037
0.000000 299.882507 137.010895
119.709648 0.000000 212.313568
104.927643 52.274002 0.000000
89.913300 393.700806 300.719421
79.008728 393.700806 324.501923
0.000000 372.406250 16.034494
393.700806 4.473423 82.746040
12.872961 0.000000 104.935295
252.957291 367.215393 0.000000
96.331673 393.700806 127.166374
235.161362 190.514801 0.000000
257.836517 274.053772 393.700806
393.700806 355.264709 236.687683
53.858433 126.435677 393.700806
113.049881 393.700806 76.380165
0.532683 0.000000 252.943329
393.700806 175.413284 13.560761
201.608353 13.602907 0.000000
216.067947 324.064819 0.000000
0.000000 324.439667 64.397606
59.324341 271.313416 0.000000
110.689682 26.154308 0.000000
0.000000 140.394440 40.949440
0.000000 340.874451 316.033875
35.707878 60.476894 393.700806
393.700806 289.359070 260.314117
393.700806 237.474426 41.838337
393.700806 179.161987 234.968475
204.201385 0.000000 214.625748
367.787109 148.162140 393.700806
189.177292 0.000000 304.676483
182.727249 324.902710 0.000000
107.768890 382.885040 0.000000
393.700775 316.303558 109.328415
216.527863 0.000000 187.733246
0.000000 291.236908 361.479950
295.822327 0.000000 187.550766
334.162903 312.425446 393.700806
91.693909 393.700806 221.786102
244.042938 92.731285 0.000000
98.872459 0.000000 317.872803
306.750336 225.784851 0.000000
209.004852 393.700806 107.325630
359.098511 300.354919 0.000000
206.211807 348.894348 0.000000
258.453613 393.700806 322.427063
154.377029 0.000000 313.779724
0.000000 359.568878 25.809048
393.700806 156.396210 285.174805
0.000000 384.549469 382.966125
78.814522 393.700806 46.447578
47.821842 213.958603 0.000000
393.700806 345.810730 210.219788
360.769440 5.101263 393.700775
300.995178 289.063568 0.000000
309.178406 359.210510 0.000000
295.943848 393.700806 232.865280
109.132492 0.000000 358.722229
393.700806 330.180786 185.887085
60.191181 21.797150 0.000000
0.000000 257.103912 221.142410
201.680634 0.000000 96.303185
393.700806 237.052826 146.174179
393.700806 129.455948 79.643845
97.095924 393.700836 358.683044
379.041107 393.700806 141.429153
333.944153 281.021912 393.700806
125.029785 0.000000 300.855988
79.113525 0.000000 67.683868
70.957787 227.537689 393.700806
0.000000 149.304977 374.649719
152.115402 393.700806 28.072475
393.700806 158.932083 269.894287
0.000000 344.764557 263.473206
393.700806 135.549484 101.988670
0.000000 244.090164 192.880783
247.573318 393.700806 61.970436
73.877823 393.700806 290.329498
132.158752 185.710861 393.700806
0.000000 272.188232 65.638092
55.549629 393.700806 231.949615
0.000000 329.134979 296.706696
73.018600 125.074829 0.000000
41.564613 0.000000 370.536987
393.700806 327.281891 205.648758
73.791824 332.048279 0.000000
357.665924 61.974018 393.700806
393.700806 367.040161 161.702301
313.368866 0.000000 127.100502
156.037476 393.700806 292.686462
299.408112 202.951157 0.000000
114.063477 0.000000 193.408264
17.805105 0.000000 280.738098
93.104126 11.725478 0.000000
52.485928 284.999420 393.700806
318.069794 0.000000 63.231331
393.700775 307.891876 71.503830
0.000000 373.568604 285.596222
369.690491 21.502609 393.700806
33.579967 279.622650 0.000000
393.700806 269.338257 129.093628
78.806519 393.700806 212.872086
235.657928 54.252930 0.000000
218.250977 134.788193 0.000000
363.344299 318.624725 393.700806
243.121262 171.082657 393.700806
47.064018 258.060364 393.700806
264.698975 105.984406 0.000000
30.769812 0.000000 74.022453
0.000000 120.453033 32.571991
288.148865 0.000000 173.002792
163.105240 248.160065 393.700806
378.123474 173.240036 0.000000
393.700806 142.278503 25.263626
393.700806 269.543518 275.157562
0.000000 171.995926 50.826504
0.000000 393.402100 293.473450
0.000000 0.242431 312.844391
124.207779 49.740761 0.000000
103.877289 244.576157 0.000000
0.000000 333.066956 227.750183
256.365112 110.454590 393.700806
159.079987 0.000000 112.951607
184.333145 0.000000 324.969299
261.291290 0.000000 68.549637
45.483063 266.608521 0.000000
393.700775 63.065002 209.406387
365.203674 393.700806 175.593384
0.000000 13.020941 259.915405
0.004780 393.700775 15.055993
26.180473 0.000000 34.775299
0.000000 242.264877 367.713898
218.357330 38.399448 0.000000
138.389511 393.700806 344.925781
269.267792 149.814362 0.000000
141.736526 220.677399 0.000000
13.219672 393.700806 387.511841
0.000000 160.629395 110.228188
129.772537 34.478802 0.000000
15.098655 138.459610 393.700806
150.329819 0.000000 339.933411
93.905251 393.700806 103.971954
58.789707 344.336792 0.000000
0.000000 27.583664 15.998046
278.871735 264.241913 0.000000
0.000000 285.595581 176.546417
0.000000 176.499130 138.723770
60.884880 393.700806 151.162949
214.293427 393.700806 59.203159
127.849762 311.075562 0.000000
37.098164 393.700806 50.912155
112.977043 240.880692 393.700806
197.700638 232.366043 0.000000
7.369012 393.700806 279.196533
86.228287 46.982697 0.000000
393.700806 157.704163 68.989281
304.956390 393.700806 209.314270
393.700806 213.920517 53.445679
0.000000 78.374130 95.205147
135.011673 0.000000 197.457169
222.489883 393.700806 284.499054
0.000000 279.445435 7.803904
377.977844 393.700806 197.018173
277.731079 393.700806 158.456146
56.743626 0.000000 65.681068
371.530121 82.837067 0.000000
165.441223 393.700806 211.065262
34.873478 0.000000 56.110363
0.000000 103.967941 223.478745
228.450165 393.700806 224.178406
177.443695 0.127000 393.700806
0.000000 43.375874 0.896064
51.285316 393.700806 66.280182
334.025940 393.700806 54.943352
90.198372 140.481354 0.000000
298.393768 0.000000 366.483551
22.385746 96.235672 393.700806
154.158035 149.381805 0.000000
0.000000 381.802582 302.842377
60.256779 170.882401 393.700806
0.000000 337.826904 50.621056
120.731842 151.632019 0.000000
151.461319 0.000000 176.965790
393.700806 344.710480 257.041504
0.000000 282.717041 47.054371
362.401978 393.700806 158.637436
0.000000 332.454102 124.954834
393.700806 337.615173 62.883141
191.710632 0.000000 380.050720
287.673462 391.756897 393.700806
280.765503 0.000000 197.792084
19.597609 0.000000 220.153122
266.149292 0.000000 108.220871
206.661591 161.440414 393.700806
329.546356 118.309570 0.000000
373.984100 0.000000 16.066339
363.875244 183.682007 393.700806
393.700775 64.795364 193.245361
0.000000 213.145737 10.573127
330.977417 209.445877 0.000000
393.700806 247.820221 236.900787
73.907181 267.792908 0.000000
376.394684 0.000000 83.572289
91.503578 0.000000 77.424042
285.416412 0.000000 24.464611
4.971614 73.110794 393.700775
37.726212 0.000000 140.082092
0.000000 131.299438 113.292572
0.000000 312.866150 170.139236
0.000000 39.323837 148.496429
21.513546 101.071106 0.000000
267.438660 153.530853 393.700806
0.000000 42.408051 128.139481
61.230618 0.000000 29.314646
40.489838 111.681770 0.000000
268.038391 257.888947 393.700806
274.170197 173.255646 393.700806
339.519897 253.477417 0.000000
0.000000 327.216492 250.852127
214.308014 199.078140 0.000000
339.729340 393.700806 160.120895
311.932465 96.047600 393.700806
0.000000 316.860840 224.425598
317.909607 374.759033 0.000000
393.700806 333.104004 331.913879
275.681854 393.700775 91.485153
393.700775 119.027359 369.014374
46.118484 0.000000 344.763550
115.841331 393.700806 280.782867
62.256607 188.901459 393.700806
0.000000 118.253036 268.778992
255.520752 287.205750 0.000000
0.000000 280.917480 148.593552
0.000000 378.201843 187.169449
393.700806 329.991394 133.380615
302.292633 393.700806 61.388351
271.270477 0.000000 17.082527
0.000000 215.777084 316.980743
361.164032 393.700806 15.307154
51.850716 133.111542 0.000000
250.649780 155.418442 0.000000
149.920059 0.000000 143.718369
0.000000 186.742401 66.208206
315.803528 0.000000 364.315826
146.185074 393.700806 208.694168
194.171356 102.772812 393.700775
393.700806 303.170593 272.453918
343.494629 203.846313 393.700806
45.916512 236.148499 0.000000
60.509865 203.278656 0.000000
51.301956 0.000000 88.460526
0.000000 12.130795 9.247639
93.810982 0.000000 245.503387
235.438004 37.628147 393.700806
0.000000 209.456665 240.499603
43.203209 393.700806 168.447174
236.442200 393.700806 111.619560
0.000000 242.018707 114.090736
323.299133 0.000000 111.096420
232.021790 386.575897 0.000000
393.700806 90.017570 227.019272
316.719543 119.299805 393.700806
0.000000 39.418945 79.287704
116.232674 0.000000 244.279541
342.938660 0.000000 117.133713
147.050598 393.700806 91.718361
147.267212 0.000000 213.336960
83.955093 370.014038 393.700806
181.247879 0.000000 47.457783
0.000000 299.627228 181.824234
20.994705 0.000000 134.620148
273.707794 0.000000 150.745407
65.915825 0.000000 312.955536
223.424072 393.700806 370.341431
393.700806 58.382164 134.505554
0.000000 320.142365 149.542892
104.914391 357.893677 393.700806
393.700806 63.817169 116.898865
393.700806 118.869827 181.173370
325.878815 393.700806 180.921265
393.700775 97.216965 274.537750
348.441528 393.700806 206.800949
393.700806 143.533676 306.640778
393.700806 245.592316 378.139587
0.000000 294.999054 116.011650
0.000000 277.614044 348.881531
113.867989 393.700806 173.701111
169.438126 108.470085 393.700806
339.527435 141.736832 393.700775
371.340729 362.549927 0.000000
377.883667 132.430481 0.000000
159.263199 393.700836 244.017273
372.446625 103.226059 393.700806
364.533325 393.700806 203.740234
283.932709 393.700806 53.014297
393.700806 366.927551 287.947266
205.217697 247.115784 0.000000
146.976898 393.599762 393.700806
293.707123 136.312363 0.000000
233.811462 34.086033 0.000000
227.810303 393.700806 38.176823
4.598968 353.879730 393.700806
0.000000 0.266625 151.946793
270.727539 348.552551 393.700806
291.268188 93.241730 393.700806
0.000000 70.550827 291.571655
54.616066 243.951355 393.700806
335.901062 126.106697 393.700806
393.700806 80.831718 141.257965
228.927399 393.700806 332.412537
216.938324 163.898178 0.000000
393.700806 385.885773 377.843292
393.700806 55.288120 271.901886
350.789429 240.829437 393.700806
393.700806 127.564720 59.397743
125.111420 286.149414 393.700806
0.000000 278.586700 227.542526
0.000000 55.672947 204.785202
393.700806 266.298187 105.191666
126.769913 58.113239 393.700806
393.700806 284.211212 45.558647
393.700806 257.904266 334.611603
0.000000 301.382996 2.321495
122.482170 6.340198 0.000000
393.700806 253.684982 85.655144
393.700806 379.392883 277.158783
85.128296 0.000000 363.563416
106.496857 393.700806 231.072433
195.336517 393.700806 71.833786
393.700806 169.180511 43.745598
182.910080 151.544800 393.700836
393.700806 153.345764 112.806831
393.700806 145.072250 178.539902
393.700806 221.382782 286.400238
393.700806 367.475647 226.110092
0.000000 260.826569 0.629185
393.700806 250.763184 137.936249
393.700806 290.383789 336.815735
393.700806 261.454102 293.261169
263.647156 393.700806 235.825562
0.000000 335.368500 335.853394
393.700806 261.589081 217.662689
393.700806 82.850761 211.962769
207.602005 0.000000 263.706055
233.230667 0.000000 14.905010
393.700806 346.272125 314.147858
296.007050 366.876953 0.000000
0.000000 170.349426 196.111710
228.607635 22.259895 393.700806
182.945969 393.700775 174.843704
393.700806 144.708649 324.201904
393.700806 186.931854 178.810928
393.700806 264.285522 350.411591
133.527954 76.398560 0.000000
0.000000 100.302185 263.769287
393.700806 115.434631 143.131287
145.046356 284.700958 393.700806
74.784027 0.000000 139.271881
174.968414 17.049347 0.000000
278.840698 132.755371 0.000000
379.641754 0.000000 99.692291
25.903477 112.347168 393.700806
267.122559 311.335205 393.700806
0.000000 244.280457 320.362915
393.700806 177.957825 326.758026
105.601768 393.700806 212.436172
393.700806 382.980743 230.700912
393.700806 386.709778 198.440338
302.874451 240.330292 393.700806
225.380447 203.202927 393.700806
0.000000 130.849030 87.264870
393.700806 104.777458 99.977608
242.415894 356.010193 393.700806
65.810051 233.042694 0.000000
393.700806 111.149010 269.636536
393.700806 22.973366 379.585266
393.700806 156.818069 365.267517
76.080841 0.000000 155.663910
336.572876 393.700836 75.309464
379.589600 393.700806 159.438263
207.273407 204.705078 393.700806
68.923508 323.891571 393.700806
0.000000 309.388336 249.038315
367.266632 277.665771 393.700806
168.635040 264.370331 393.700806
351.719666 85.174240 0.000000
393.700806 58.167778 372.772522
229.319229 0.000000 29.793829
198.748413 393.700806 367.395355
0.000000 47.318886 328.321045
232.806534 313.149109 0.000000
322.323517 393.700806 252.987640
393.700775 389.822937 311.363159
246.216919 393.700806 226.100586
393.700806 141.137146 366.655090
321.122253 46.313892 0.000000
344.083008 199.044067 0.000000
75.444023 393.700806 192.799728
0.000000 179.886200 343.113464
115.749855 0.000000 337.800018
9.482583 40.054276 393.700806
84.789421 183.760529 0.000000
323.709991 393.700806 145.805725
346.254700 393.700806 290.265015
393.700806 72.763336 327.971466
0.000000 227.938919 308.470062
129.577286 393.700806 316.240295
346.895966 0.000000 233.532471
393.700806 21.602226 177.560669
363.363220 163.215424 0.000000
95.189468 63.156136 0.000000
393.700775 343.344086 27.807102
307.412964 0.000000 334.553619
151.911972 329.455505 0.000000
75.420990 393.700806 62.835289
90.743996 50.711658 393.700806
0.000000 271.062378 297.924164
393.700806 271.923859 81.699959
86.169464 393.700806 91.560341
393.700806 319.172791 87.304306
0.000000 66.448601 271.761078
255.339218 25.842793 0.000000
355.200867 393.700806 321.368103
0.000000 123.651886 50.852505
217.530518 0.000000 97.478943
62.633621 166.283752 0.000000
0.000000 368.824951 172.813309
87.581169 0.000000 229.625275
204.473175 0.000000 158.627747
313.890594 259.108032 0.000000
186.069489 0.000000 250.547424
136.073837 345.550049 393.700806
293.430359 65.751411 0.000000
221.204391 218.993225 393.700806
0.000000 162.868546 64.893806
0.000000 81.668694 276.341217
0.000000 214.094009 37.819031
390.198242 393.700806 362.788910
100.419609 0.000000 207.929611
0.000000 93.749870 325.006744
0.000000 363.998749 357.598633
393.700806 307.736298 146.347763
393.700806 305.502014 329.786346
0.000000 299.265503 217.488297
237.891663 0.000000 107.098312
0.000000 155.351654 242.895966
184.401917 0.000000 166.855652
0.000000 89.264130 164.943176
271.308960 0.000000 285.909698
345.167572 0.000000 317.648712
393.700806 25.673786 266.899414
200.666260 88.711685 0.000000
393.700806 65.342400 388.233368
264.355530 229.626648 0.000000
393.700806 168.749084 341.156738
37.141605 328.859985 0.000000
0.000000 192.406311 245.458939
13.714499 393.700806 323.859497
247.045898 393.700806 99.569214
90.159912 0.000000 389.371033
318.994415 6.132380 0.000000
74.850487 7.651906 393.700806
27.799974 0.000000 98.464622
102.142792 259.780334 0.000000
57.918774 0.000000 355.948761
393.700806 104.834854 330.525970
0.000000 153.535507 3.125693
216.799744 31.699770 393.700806
348.784027 376.188477 0.000000
314.554535 393.700806 298.106567
329.092224 318.719910 0.000000
209.799988 46.236893 393.700806
303.212494 393.700806 101.927612
366.449829 0.000000 135.591324
141.361038 255.833099 0.000000
289.294617 28.470114 393.700806
157.988083 0.000000 93.855522
179.370514 393.700775 160.106674
155.961502 373.661133 0.000000
113.212479 66.246925 393.700806
0.000000 57.056877 182.208054
360.908386 223.472595 393.700806
0.000000 55.738205 368.620605
281.923615 373.104370 0.000000
0.000000 369.402161 204.276505
76.801247 0.000000 100.793945
0.000000 217.868454 279.490356
0.000000 356.943085 309.329590
238.674347 10.395967 393.700806
167.548492 393.700775 140.431015
109.921669 140.559326 0.000000
373.572235 329.304657 0.000000
168.864410 393.700806 274.990936
300.555054 393.700806 132.738358
309.914581 307.368683 0.000000
393.700806 265.735046 195.594574
357.514038 393.700806 144.808441
393.700806 360.340393 189.914429
0.000000 164.109802 182.458160
246.269043 321.621460 0.000000
219.779373 0.000000 255.608200
0.000000 136.507660 271.418701
274.992889 181.896927 0.000000
366.354004 0.000000 292.061279
