ply
format ascii 1.0
element vertex 1706
property float x
property float y
property float z
end_header
-0.146420 -0.001545 0.010829
-0.148720 -0.001365 0.010700
-0.140580 0.000094 0.009593
-0.144690 0.002325 0.009356
-0.142920 -0.000637 0.014254
-0.144110 -0.002337 0.015759
-0.140050 -0.001439 0.015999
-0.142910 0.001224 0.009458
-0.142770 0.000742 0.015837
-0.144380 0.001223 0.014170
-0.144650 -0.000067 0.015728
-0.141830 -0.001137 0.011095
-0.142630 -0.002336 0.009473
-0.141290 -0.001388 0.014347
-0.144310 -0.002096 0.010951
-0.142250 -0.002208 0.015867
-0.141230 0.000712 0.014351
-0.140960 0.001814 0.009571
-0.143560 0.001854 0.010995
-0.141500 0.002112 0.015911
-0.142270 -0.000526 0.009494
-0.143330 -0.000226 0.011008
-0.137810 0.001823 0.009775
-0.136570 -0.001589 0.014653
-0.139830 0.001183 0.011218
-0.136940 0.000182 0.011408
-0.137490 -0.002388 0.011371
-0.138080 -0.000857 0.009756
-0.138870 0.000592 0.014501
-0.139300 -0.000777 0.011252
-0.136200 0.002232 0.011457
-0.136390 0.001221 0.014665
-0.137640 0.000991 0.016159
-0.137110 -0.002399 0.016192
-0.135290 -0.000758 0.011516
-0.136610 -0.002218 0.009853
-0.135990 -0.000208 0.009894
-0.139470 -0.001977 0.009665
-0.136720 -0.000620 0.016219
-0.139730 0.000721 0.016021
-0.130360 0.001889 0.016660
-0.132960 0.000671 0.011671
-0.133520 -0.000490 0.014853
-0.133970 -0.002120 0.016398
-0.131820 0.001760 0.014976
-0.132330 -0.000651 0.016514
-0.133660 -0.001418 0.010047
-0.130480 0.000881 0.010278
-0.134800 0.000020 0.016345
-0.132110 0.000121 0.010158
-0.134210 0.000572 0.010012
-0.130390 -0.000909 0.010283
-0.131410 -0.001249 0.011785
-0.131470 -0.000780 0.015001
-0.134590 -0.001880 0.014782
-0.133530 0.001550 0.016430
-0.130310 0.000649 0.015087
-0.126350 0.000758 0.015380
-0.125870 0.000100 0.010617
-0.125690 -0.002242 0.015427
-0.126990 0.002009 0.012112
-0.129180 0.001490 0.011950
-0.129820 -0.000221 0.016699
-0.128160 0.002280 0.010449
-0.126380 -0.002001 0.012157
-0.129450 -0.002429 0.010353
-0.127930 0.000230 0.010466
-0.129530 -0.002042 0.016720
-0.127840 -0.001620 0.010472
-0.126770 0.000279 0.012129
-0.126640 -0.001812 0.016934
-0.128770 -0.000380 0.011980
-0.128060 0.001768 0.016830
-0.127510 0.000088 0.016870
-0.127350 -0.001542 0.015305
-0.128600 0.000109 0.015214
-0.120400 -0.000744 0.017437
-0.124220 0.001348 0.015548
-0.122420 -0.001721 0.010896
-0.123920 -0.000721 0.010774
-0.123920 -0.001582 0.012351
-0.124240 0.000949 0.012325
-0.120610 -0.001703 0.012621
-0.121310 0.001067 0.015786
-0.122660 -0.000102 0.012455
-0.121060 0.000068 0.011007
-0.121210 0.002368 0.010997
-0.123600 0.001919 0.010800
-0.120670 -0.002552 0.011039
-0.123050 0.000527 0.017221
-0.123140 -0.002403 0.017213
-0.124510 0.002237 0.017102
-0.124370 -0.000643 0.017112
-0.122410 -0.000763 0.015695
-0.121420 0.001268 0.012556
-0.121770 0.002116 0.017327
-0.116870 0.001445 0.016164
-0.116400 -0.002573 0.011389
-0.117020 -0.000053 0.011338
-0.117950 0.001997 0.012911
-0.115210 -0.002295 0.016308
-0.115720 0.002154 0.018177
-0.115170 0.001776 0.013090
-0.118060 0.001347 0.011253
-0.115660 -0.001526 0.018222
-0.118830 -0.001203 0.012767
-0.118280 -0.002225 0.017611
-0.117340 -0.000315 0.016607
-0.119460 0.001077 0.012717
-0.118000 -0.002524 0.013599
-0.119200 0.000906 0.017536
-0.119240 -0.000382 0.011156
-0.115660 0.000364 0.018221
-0.115370 -0.001784 0.013071
-0.119750 -0.002054 0.015913
-0.115240 0.000407 0.011344
-0.115070 0.001665 0.016322
-0.116710 0.000746 0.012951
-0.119510 0.001936 0.015933
-0.117150 -0.001994 0.016137
-0.115060 0.000016 0.013099
-0.119550 0.000166 0.015930
-0.112980 0.001526 0.010271
-0.112800 -0.001436 0.016525
-0.114130 -0.002026 0.019563
-0.112080 -0.001505 0.013367
-0.110740 -0.002224 0.009094
-0.112500 -0.000957 0.020991
-0.112730 0.001253 0.020789
-0.114110 0.000125 0.016407
-0.111190 0.000265 0.013447
-0.111350 -0.002526 0.016654
-0.111390 0.001536 0.009333
-0.110790 -0.002128 0.022485
-0.113170 0.000505 0.013270
-0.110100 -0.001435 0.013547
-0.110760 -0.000068 0.022512
-0.112060 -0.000214 0.009407
-0.110240 0.001531 0.022972
-0.114110 0.000374 0.019584
-0.112650 0.002335 0.013317
-0.111070 0.001014 0.016709
-0.114440 -0.001284 0.011059
-0.105360 0.001420 0.023105
-0.108610 -0.002434 0.007889
-0.108470 0.000064 0.013706
-0.105670 0.001891 0.020314
-0.106710 0.000642 0.017119
-0.107360 -0.001860 0.025492
-0.109660 -0.001097 0.016842
-0.106840 0.002136 0.006796
-0.105160 -0.000691 0.027417
-0.109410 0.000976 0.008037
-0.109100 -0.000729 0.023964
-0.105540 0.001069 0.027083
-0.105850 -0.001414 0.006029
-0.106340 0.000436 0.006104
-0.105670 -0.001531 0.025944
-0.108560 -0.002577 0.016923
-0.109700 -0.000934 0.008183
-0.109260 0.000683 0.016879
-0.107950 -0.001756 0.013757
-0.108920 0.002271 0.024127
-0.104900 -0.001269 0.021054
-0.107180 0.001570 0.025645
-0.107940 -0.000384 0.007020
-0.105940 -0.000207 0.013954
-0.105960 -0.001980 0.023251
-0.105470 -0.001928 0.018575
-0.107770 -0.000977 0.017019
-0.104890 0.002272 0.017284
-0.107770 -0.000010 0.025129
-0.101360 -0.000333 0.028607
-0.103500 -0.000104 0.004335
-0.103050 -0.001812 0.028450
-0.101970 0.000724 0.008282
-0.104380 0.001486 0.005189
-0.101900 -0.001807 0.011217
-0.103610 0.000241 0.019573
-0.104430 0.000489 0.025198
-0.103060 0.001242 0.017241
-0.101760 -0.000375 0.004412
-0.102540 -0.002505 0.004329
-0.103310 -0.000990 0.023431
-0.103360 0.000280 0.021667
-0.103300 0.000123 0.014213
-0.101410 0.001515 0.005105
-0.102920 -0.000838 0.015748
-0.102960 -0.002601 0.025683
-0.102120 0.001063 0.011077
-0.102610 0.002020 0.020079
-0.102300 0.001063 0.013018
-0.102670 -0.002520 0.022260
-0.103280 0.001669 0.026030
-0.103400 -0.000032 0.028418
-0.102170 -0.001738 0.013871
-0.104400 -0.002157 0.014104
-0.102970 -0.001210 0.020659
-0.104150 -0.002164 0.005198
-0.100810 0.002317 0.028658
-0.103330 0.000830 0.023432
-0.103530 -0.000941 0.025684
-0.101980 -0.000375 0.006770
-0.101910 -0.001246 0.009309
-0.101120 -0.002084 0.003394
-0.102790 -0.001149 0.018445
-0.101440 -0.002156 0.007529
-0.104590 0.000052 0.017318
-0.101440 0.001984 0.007194
-0.095362 -0.001574 0.029159
-0.098784 0.001307 0.028844
-0.097366 0.001054 0.003709
-0.098932 -0.001665 0.003564
-0.099495 0.000145 0.003513
-0.097162 0.000196 0.028993
-0.097441 -0.001854 0.028967
-0.095598 0.001294 0.003872
-0.097293 -0.000816 0.003716
-0.094921 -0.002396 0.003934
-0.099623 -0.000473 0.028766
-0.093998 0.001195 0.029285
-0.092340 -0.001445 0.029438
-0.091498 -0.000157 0.004250
-0.093125 -0.001657 0.004099
-0.094726 -0.000586 0.003952
-0.090346 -0.000746 0.029622
-0.092664 0.001773 0.004143
-0.090138 0.001114 0.029641
-0.092232 0.000305 0.029448
-0.283080 0.004781 0.008650
-0.283410 0.004640 0.011278
-0.284200 0.003141 0.010245
-0.283170 0.002420 0.011477
-0.281620 0.005770 0.011621
-0.280960 0.004430 0.008444
-0.281250 0.002759 0.011654
-0.281810 0.006210 0.009639
-0.280550 0.007350 0.008720
-0.284080 0.003051 0.008383
-0.278280 0.002480 0.008691
-0.276060 0.005358 0.012133
-0.279280 0.005490 0.008600
-0.275690 0.006099 0.008930
-0.276480 0.004219 0.008857
-0.277550 0.007019 0.008760
-0.277060 0.003478 0.012041
-0.279510 0.006379 0.011816
-0.277810 0.005128 0.011972
-0.279710 0.004149 0.011797
-0.274960 0.003737 0.012235
-0.273790 0.004948 0.009105
-0.270770 0.005846 0.014264
-0.271910 0.006707 0.012516
-0.270660 0.005447 0.009395
-0.272240 0.003177 0.012485
-0.270640 0.002847 0.010915
-0.273820 0.005237 0.012340
-0.270860 0.003736 0.014258
-0.272670 0.007098 0.009210
-0.269930 0.003068 0.007931
-0.270790 0.004386 0.012531
-0.271790 0.003258 0.009289
-0.269970 0.007067 0.009459
-0.274650 0.002619 0.009026
-0.270660 0.005567 0.011162
-0.270040 0.006596 0.012689
-0.268840 0.003347 0.009557
-0.265720 0.006854 0.014508
-0.268890 0.004325 0.014354
-0.264870 0.002464 0.014547
-0.266740 0.004915 0.014457
-0.266720 0.002895 0.012884
-0.268000 0.007316 0.012824
-0.268520 0.003316 0.012797
-0.265840 0.005156 0.008128
-0.267380 0.004157 0.008055
-0.266690 0.006916 0.009662
-0.266270 0.004256 0.009682
-0.268100 0.005847 0.009594
-0.269510 0.002416 0.014322
-0.269040 0.005977 0.007974
-0.267460 0.006585 0.014423
-0.266380 0.006035 0.012901
-0.268010 0.005085 0.012822
-0.264900 0.004065 0.012972
-0.259940 0.006334 0.009968
-0.260980 0.005125 0.008355
-0.262180 0.004065 0.009880
-0.263480 0.005246 0.008243
-0.260500 0.007305 0.008373
-0.264410 0.004946 0.009771
-0.260270 0.003305 0.008381
-0.264700 0.006586 0.008184
-0.263700 0.006004 0.013031
-0.263030 0.007076 0.008265
-0.261860 0.007155 0.009895
-0.260330 0.005663 0.014755
-0.262520 0.004474 0.013087
-0.262670 0.002984 0.014654
-0.260390 0.004355 0.009950
-0.260320 0.006573 0.013183
-0.261210 0.002444 0.013148
-0.264750 0.005104 0.014554
-0.263560 0.002824 0.013037
-0.261060 0.003833 0.014727
-0.262720 0.005694 0.014653
-0.256410 0.003692 0.014900
-0.259320 0.005705 0.008418
-0.255530 0.002614 0.008557
-0.256790 0.006474 0.008512
-0.256620 0.005062 0.013320
-0.258580 0.004533 0.014820
-0.258400 0.005553 0.013253
-0.257920 0.003094 0.008469
-0.256940 0.003914 0.010078
-0.257640 0.005834 0.010053
-0.255210 0.004633 0.010143
-0.259500 0.002533 0.014785
-0.256620 0.004634 0.008517
-0.256430 0.006682 0.014901
-0.258910 0.003863 0.013234
-0.259640 0.002624 0.009977
-0.255180 0.006672 0.013374
-0.258610 0.006632 0.014820
-0.255580 0.003162 0.013358
-0.251880 0.007131 0.015051
-0.253620 0.003041 0.015005
-0.253870 0.004112 0.013422
-0.251650 0.005603 0.008676
-0.250970 0.003132 0.008693
-0.253500 0.005261 0.015009
-0.250090 0.003052 0.010289
-0.252650 0.003623 0.008649
-0.251830 0.003171 0.013478
-0.252440 0.006471 0.013463
-0.254100 0.005223 0.008611
-0.250950 0.006612 0.010267
-0.252450 0.005262 0.010228
-0.250680 0.003010 0.015081
-0.253280 0.006953 0.010206
-0.253890 0.003383 0.010190
-0.251570 0.004771 0.015059
-0.250130 0.004922 0.010288
-0.247570 0.003841 0.010355
-0.245130 0.004589 0.013647
-0.245950 0.006081 0.008819
-0.249280 0.004870 0.015118
-0.248730 0.004872 0.008751
-0.245350 0.004061 0.008827
-0.247670 0.002712 0.008778
-0.245060 0.005879 0.015221
-0.248080 0.002920 0.015149
-0.249760 0.006251 0.013533
-0.245820 0.007039 0.013637
-0.245450 0.003579 0.015214
-0.248900 0.006702 0.008747
-0.249240 0.007020 0.015120
-0.249740 0.003791 0.013533
-0.247200 0.003600 0.013599
-0.245210 0.005190 0.010402
-0.246900 0.006141 0.010372
-0.247290 0.004509 0.015170
-0.246920 0.005510 0.013607
-0.242120 0.005900 0.010449
-0.244770 0.002629 0.013653
-0.240490 0.003360 0.008899
-0.240460 0.002938 0.015289
-0.242010 0.004469 0.013693
-0.241250 0.005048 0.015278
-0.243950 0.006009 0.013665
-0.242470 0.007238 0.015260
-0.243710 0.003710 0.010424
-0.241130 0.006338 0.013707
-0.241370 0.002528 0.013702
-0.239960 0.005050 0.008907
-0.244170 0.005971 0.008846
-0.243440 0.004908 0.015245
-0.240570 0.007228 0.015288
-0.240990 0.004349 0.010465
-0.242430 0.003840 0.008870
-0.241380 0.006140 0.008887
-0.236220 0.003216 0.015334
-0.235790 0.004068 0.008937
-0.238940 0.002978 0.013739
-0.239190 0.004167 0.015308
-0.239460 0.005278 0.013732
-0.238650 0.007087 0.015317
-0.237910 0.003159 0.008929
-0.235470 0.002547 0.013764
-0.236290 0.005127 0.015333
-0.236700 0.005278 0.010505
-0.236220 0.004197 0.013761
-0.236170 0.007139 0.008935
-0.237180 0.003498 0.010502
-0.235590 0.002778 0.010509
-0.238080 0.007069 0.008928
-0.239090 0.003039 0.010493
-0.238320 0.006199 0.010499
-0.237770 0.004989 0.008928
-0.237380 0.005527 0.013756
-0.230440 0.004767 0.008947
-0.230320 0.003875 0.015355
-0.229900 0.002616 0.010514
-0.232850 0.006197 0.010521
-0.231320 0.006367 0.008953
-0.229880 0.003265 0.013780
-0.233740 0.004686 0.013770
-0.231210 0.004017 0.010526
-0.232200 0.003258 0.008948
-0.230110 0.005935 0.013784
-0.230830 0.005757 0.010523
-0.234090 0.004858 0.008943
-0.234840 0.006117 0.013767
-0.233590 0.007048 0.008945
-0.234400 0.002678 0.008940
-0.232940 0.003567 0.010518
-0.231380 0.006795 0.015352
-0.234520 0.005488 0.010513
-0.232000 0.004935 0.015350
-0.234650 0.004016 0.015339
-0.231630 0.004006 0.013778
-0.232650 0.007196 0.013775
-0.233810 0.005966 0.015343
-0.227890 0.006195 0.013767
-0.227660 0.004956 0.010499
-0.227220 0.005566 0.008922
-0.225460 0.004784 0.015320
-0.229470 0.005525 0.015350
-0.226070 0.005614 0.013753
-0.225690 0.007295 0.010484
-0.225160 0.005275 0.010480
-0.226040 0.002656 0.008912
-0.228410 0.003157 0.008931
-0.228490 0.006736 0.010505
-0.226340 0.003816 0.010488
-0.227680 0.005014 0.015337
-0.227500 0.003035 0.013763
-0.225120 0.006736 0.008908
-0.227230 0.007314 0.015335
-0.226590 0.003304 0.015329
-0.228950 0.006127 0.008936
-0.220560 0.006402 0.015263
-0.220630 0.005414 0.010411
-0.224800 0.002554 0.015315
-0.222960 0.003365 0.008882
-0.224600 0.007204 0.013742
-0.222740 0.006133 0.015300
-0.224310 0.005125 0.008901
-0.221240 0.003483 0.013702
-0.223560 0.002834 0.013732
-0.222170 0.004314 0.010440
-0.223250 0.004544 0.013731
-0.221090 0.003625 0.008847
-0.221070 0.006235 0.008847
-0.222240 0.004143 0.015294
-0.220440 0.004033 0.015260
-0.223160 0.006175 0.010460
-0.221750 0.005623 0.013712
-0.222430 0.005105 0.008872
-0.217560 0.005532 0.013633
-0.218070 0.007202 0.015216
-0.216530 0.003732 0.013613
-0.216390 0.005401 0.015183
-0.216100 0.004063 0.008751
-0.219340 0.004103 0.013666
-0.216840 0.006243 0.010339
-0.218930 0.005492 0.015232
-0.218070 0.002664 0.008789
-0.216250 0.003123 0.010327
-0.218610 0.006434 0.010374
-0.215760 0.004853 0.010314
-0.217610 0.005674 0.008782
-0.218910 0.004584 0.010378
-0.219650 0.002704 0.010391
-0.219820 0.005873 0.013676
-0.214170 0.005513 0.008693
-0.210880 0.004561 0.013462
-0.211260 0.005760 0.015047
-0.214540 0.005981 0.013574
-0.212130 0.005232 0.008632
-0.210640 0.005522 0.010159
-0.210830 0.002802 0.008591
-0.214240 0.007093 0.010269
-0.210650 0.002470 0.015026
-0.213570 0.002453 0.008675
-0.211730 0.006831 0.013489
-0.209940 0.005852 0.008564
-0.212420 0.006282 0.010214
-0.213800 0.003271 0.015124
-0.213980 0.004002 0.010260
-0.212950 0.006913 0.008656
-0.210580 0.007322 0.010158
-0.213820 0.004221 0.013551
-0.214630 0.002601 0.013576
-0.213180 0.006121 0.015105
-0.212130 0.003892 0.010204
-0.212470 0.003101 0.013509
-0.211960 0.004050 0.015067
-0.206810 0.003820 0.013335
-0.204990 0.005830 0.009946
-0.209810 0.006750 0.015002
-0.207350 0.004989 0.014928
-0.206490 0.006591 0.008434
-0.208300 0.004072 0.008510
-0.207900 0.007249 0.014944
-0.207330 0.002451 0.010042
-0.208320 0.005690 0.013384
-0.208510 0.007361 0.010094
-0.205530 0.005789 0.013281
-0.208570 0.002430 0.013390
-0.206020 0.006499 0.014876
-0.206170 0.004731 0.008421
-0.209190 0.005010 0.014983
-0.208280 0.005551 0.010083
-0.208920 0.003381 0.010106
-0.208080 0.003339 0.014949
-0.205840 0.003959 0.014867
-0.200920 0.007140 0.008198
-0.200030 0.004519 0.008149
-0.204320 0.002839 0.013230
-0.204760 0.002740 0.009934
-0.200840 0.002690 0.008192
-0.202790 0.004150 0.009852
-0.200350 0.002887 0.014636
-0.200010 0.004757 0.014621
-0.204580 0.005429 0.014815
-0.204580 0.003641 0.008354
-0.202690 0.004218 0.014735
-0.204130 0.005400 0.008335
-0.204260 0.007329 0.013229
-0.201450 0.003498 0.013109
-0.202210 0.006968 0.013143
-0.202960 0.006458 0.014746
-0.203020 0.002660 0.008288
-0.200930 0.005809 0.009772
-0.202650 0.006100 0.009846
-0.200540 0.003489 0.009751
-0.201220 0.005478 0.013100
-0.203260 0.004839 0.013186
-0.201730 0.004940 0.008234
-0.196040 0.006238 0.009508
-0.199530 0.006617 0.014603
-0.198220 0.002939 0.008051
-0.195930 0.004976 0.014411
-0.199130 0.005049 0.009675
-0.198150 0.006319 0.008047
-0.196100 0.004949 0.007937
-0.198820 0.006078 0.012993
-0.198600 0.004267 0.012981
-0.197700 0.003787 0.014505
-0.196490 0.002439 0.007957
-0.196640 0.003968 0.009541
-0.195280 0.005657 0.012801
-0.198050 0.005657 0.014525
-0.194970 0.004498 0.009451
-0.196250 0.007139 0.007946
-0.199560 0.002468 0.013029
-0.195260 0.003487 0.012800
-0.194990 0.003468 0.007876
-0.196710 0.007057 0.014453
-0.197100 0.005477 0.012900
-0.192090 0.005697 0.007822
-0.189860 0.002757 0.007842
-0.193080 0.004346 0.012682
-0.193780 0.004226 0.014295
-0.191530 0.003615 0.014220
-0.191310 0.006286 0.012651
-0.191730 0.002856 0.012645
-0.189860 0.007127 0.007843
-0.190480 0.007365 0.014231
-0.194470 0.007148 0.009425
-0.191540 0.004897 0.009400
-0.193780 0.002466 0.012720
-0.190000 0.002375 0.012662
-0.194270 0.002678 0.009412
-0.194340 0.005288 0.007843
-0.192340 0.002657 0.009391
-0.192140 0.003808 0.007821
-0.190130 0.006307 0.009413
-0.193110 0.005897 0.009385
-0.191470 0.005445 0.014221
-0.193230 0.006516 0.014266
-0.184950 0.003614 0.012712
-0.187570 0.004176 0.009436
-0.189450 0.003836 0.009418
-0.187800 0.002755 0.012682
-0.187580 0.003076 0.007864
-0.186600 0.004746 0.007873
-0.185670 0.006064 0.014276
-0.187670 0.006834 0.014257
-0.189450 0.004825 0.012667
-0.187190 0.005065 0.012688
-0.189260 0.002725 0.014240
-0.186030 0.007044 0.012699
-0.185740 0.003394 0.014274
-0.188470 0.005746 0.009428
-0.185060 0.003805 0.009468
-0.188960 0.004797 0.007850
-0.189230 0.005765 0.014242
-0.187970 0.004534 0.014253
-0.185280 0.005645 0.009465
-0.186410 0.006696 0.007875
-0.180740 0.005043 0.012786
-0.179930 0.004944 0.007985
-0.184250 0.004673 0.014297
-0.179960 0.002984 0.009557
-0.181470 0.006034 0.009531
-0.181750 0.006533 0.014341
-0.183450 0.004525 0.009496
-0.181100 0.003173 0.012779
-0.180830 0.004093 0.014356
-0.182730 0.004633 0.012750
-0.184730 0.005394 0.012716
-0.181230 0.007005 0.007963
-0.180740 0.007083 0.012787
-0.183220 0.006614 0.012742
-0.184490 0.005486 0.007906
-0.182740 0.005535 0.007937
-0.183730 0.007295 0.009492
-0.181130 0.003645 0.007964
-0.182250 0.003114 0.009517
-0.184050 0.003775 0.007913
-0.175410 0.002912 0.012898
-0.175730 0.004853 0.009654
-0.177870 0.003322 0.012835
-0.176830 0.006973 0.009627
-0.179020 0.007224 0.009575
-0.177880 0.003303 0.009599
-0.178460 0.005052 0.014398
-0.178040 0.005974 0.008023
-0.176970 0.004154 0.008050
-0.176060 0.003113 0.009646
-0.178970 0.005014 0.009574
-0.175310 0.005311 0.012901
-0.176030 0.006723 0.008075
-0.176260 0.004151 0.014449
-0.177610 0.002612 0.014414
-0.178730 0.003224 0.008006
-0.178760 0.006142 0.012820
-0.176300 0.002403 0.008066
-0.175450 0.006591 0.014471
-0.176930 0.006082 0.012860
-0.177320 0.007112 0.014423
-0.173700 0.005741 0.014516
-0.171240 0.005391 0.009770
-0.173040 0.002411 0.012958
-0.174290 0.003073 0.008118
-0.173030 0.004943 0.008151
-0.170030 0.006772 0.008235
-0.173890 0.004452 0.009701
-0.174310 0.006313 0.008118
-0.170320 0.005020 0.014603
-0.172800 0.007302 0.008157
-0.173850 0.007351 0.012939
-0.171290 0.006191 0.013005
-0.173720 0.007262 0.009707
-0.170950 0.002620 0.014585
-0.170330 0.004112 0.008224
-0.172190 0.003252 0.009744
-0.170600 0.002501 0.009789
-0.174030 0.004111 0.012933
-0.172330 0.004220 0.014550
-0.171570 0.003961 0.012996
-0.174410 0.003351 0.014497
-0.169720 0.002432 0.008244
-0.168370 0.006979 0.014668
-0.167710 0.006641 0.009887
-0.167680 0.002911 0.008313
-0.164990 0.004450 0.009977
-0.169720 0.004270 0.013050
-0.166850 0.005931 0.008342
-0.166140 0.006959 0.014744
-0.167670 0.003699 0.014691
-0.164930 0.002919 0.013210
-0.166150 0.005919 0.013170
-0.165180 0.003638 0.014775
-0.167150 0.004850 0.009906
-0.166490 0.005019 0.014731
-0.165790 0.003601 0.008377
-0.169430 0.004531 0.009829
-0.168580 0.004761 0.008284
-0.169330 0.006450 0.013063
-0.168470 0.002960 0.013090
-0.167750 0.004939 0.013115
-0.162390 0.005860 0.008500
-0.164140 0.004489 0.013237
-0.164260 0.007028 0.014807
-0.160280 0.006539 0.010162
-0.160650 0.004437 0.014947
-0.163400 0.004268 0.014835
-0.162280 0.007239 0.010080
-0.162260 0.005378 0.013307
-0.161750 0.007078 0.013328
-0.164520 0.006400 0.008421
-0.162930 0.002428 0.013277
-0.163230 0.004589 0.010038
-0.160240 0.003278 0.010163
-0.160930 0.004869 0.008561
-0.162290 0.002718 0.014878
-0.163840 0.002960 0.008442
-0.160160 0.005867 0.013394
-0.161900 0.002889 0.008520
-0.161380 0.006087 0.014917
-0.159530 0.004888 0.010193
-0.154990 0.004107 0.010389
-0.155880 0.003036 0.013571
-0.158660 0.002478 0.010228
-0.159400 0.007177 0.015000
-0.156730 0.003278 0.010309
-0.156810 0.006067 0.013534
-0.157990 0.002996 0.015057
-0.156980 0.006208 0.010300
-0.159700 0.003037 0.013412
-0.154890 0.004236 0.015192
-0.157630 0.004177 0.013499
-0.159160 0.003969 0.008634
-0.157170 0.005036 0.015092
-0.158930 0.005307 0.015019
-0.157480 0.006708 0.008705
-0.155810 0.006136 0.015149
-0.157540 0.004868 0.008702
-0.157110 0.002498 0.008720
-0.155500 0.005518 0.008790
-0.152980 0.006917 0.010490
-0.152730 0.003665 0.015300
-0.154740 0.006097 0.010402
-0.149880 0.005305 0.013868
-0.152130 0.007145 0.013757
-0.153320 0.005675 0.015272
-0.153730 0.006837 0.008879
-0.154780 0.005556 0.013624
-0.153770 0.004777 0.008876
-0.151660 0.005646 0.010556
-0.153820 0.003926 0.013671
-0.150270 0.007365 0.013849
-0.151770 0.004585 0.013773
-0.150910 0.004854 0.015391
-0.150020 0.006404 0.015435
-0.153950 0.003007 0.008867
-0.150600 0.003946 0.010609
-0.151870 0.003307 0.008970
-0.150400 0.006626 0.009045
-0.152100 0.006207 0.008959
-0.153220 0.003837 0.010477
-0.147110 0.003304 0.014013
-0.146080 0.005875 0.010851
-0.145620 0.005003 0.014100
-0.145140 0.005933 0.015703
-0.147120 0.007124 0.014013
-0.146810 0.006453 0.015606
-0.149280 0.004736 0.009099
-0.148600 0.004394 0.015506
-0.149540 0.002854 0.015459
-0.146450 0.003723 0.015626
-0.149600 0.006896 0.010659
-0.148400 0.004845 0.010718
-0.148080 0.005034 0.013957
-0.145190 0.004224 0.010903
-0.147070 0.003675 0.010793
-0.147280 0.004736 0.009206
-0.145730 0.002495 0.010871
-0.143030 0.004144 0.009452
-0.142710 0.002583 0.014267
-0.144740 0.006365 0.009354
-0.141620 0.002883 0.011109
-0.141310 0.004842 0.015923
-0.143330 0.003352 0.015806
-0.141040 0.007034 0.009568
-0.140460 0.007092 0.014399
-0.142590 0.006873 0.014275
-0.140670 0.002402 0.014384
-0.143960 0.005623 0.014195
-0.140480 0.005232 0.014397
-0.141180 0.004774 0.009559
-0.144740 0.003213 0.014149
-0.143160 0.005382 0.015816
-0.143910 0.005764 0.010977
-0.143350 0.007242 0.015806
-0.141720 0.006043 0.011104
-0.138830 0.004432 0.014505
-0.138390 0.005772 0.011314
-0.135420 0.002721 0.014729
-0.137600 0.005811 0.016163
-0.139570 0.007173 0.011237
-0.135400 0.004862 0.011511
-0.139160 0.003233 0.009687
-0.136260 0.006662 0.011455
-0.137150 0.004333 0.009820
-0.139560 0.006791 0.016033
-0.136580 0.006411 0.014654
-0.138090 0.004131 0.016130
-0.139760 0.002521 0.016020
-0.136270 0.002600 0.016249
-0.139450 0.005843 0.009669
-0.135160 0.004072 0.009950
-0.139660 0.003903 0.011230
-0.138430 0.006171 0.014532
-0.138260 0.002501 0.014542
-0.135120 0.004900 0.016325
-0.136890 0.004421 0.014632
-0.137770 0.003182 0.011354
-0.134100 0.003571 0.011596
-0.131580 0.005161 0.011775
-0.130540 0.002950 0.011851
-0.131820 0.006071 0.010180
-0.133770 0.002392 0.010041
-0.132310 0.004301 0.010143
-0.133350 0.005281 0.011646
-0.133560 0.007010 0.014853
-0.131400 0.002571 0.010211
-0.131900 0.003549 0.016547
-0.133000 0.004780 0.014890
-0.134440 0.006901 0.011575
-0.134040 0.006002 0.010025
-0.130850 0.005819 0.016625
-0.130810 0.007339 0.015052
-0.130750 0.006700 0.011836
-0.132440 0.002541 0.011711
-0.133360 0.006260 0.016441
-0.133560 0.002600 0.014851
-0.134850 0.005650 0.014767
-0.131240 0.004769 0.015020
-0.133950 0.003490 0.016402
-0.126030 0.002730 0.010606
-0.127910 0.002529 0.015265
-0.125980 0.006940 0.010611
-0.128190 0.006838 0.016822
-0.127960 0.006400 0.010465
-0.129410 0.004358 0.016732
-0.127980 0.003710 0.012040
-0.126580 0.004918 0.016941
-0.126020 0.004259 0.012185
-0.127390 0.006158 0.015305
-0.127340 0.005669 0.012087
-0.129660 0.006881 0.010340
-0.129220 0.005810 0.011949
-0.125760 0.003828 0.015424
-0.128830 0.004250 0.010400
-0.126640 0.004550 0.010562
-0.129760 0.003649 0.015129
-0.129260 0.005379 0.015166
-0.125190 0.005588 0.015470
-0.126160 0.002928 0.016970
-0.125490 0.006767 0.017024
-0.127610 0.004418 0.015287
-0.119930 0.005276 0.017478
-0.122120 0.007117 0.015721
-0.123570 0.004918 0.012381
-0.123360 0.003697 0.015619
-0.123490 0.004667 0.017186
-0.120890 0.005548 0.011023
-0.124310 0.006309 0.010744
-0.122640 0.002818 0.012457
-0.120570 0.003298 0.012626
-0.123610 0.003689 0.010800
-0.122490 0.006328 0.010893
-0.123450 0.005797 0.015612
-0.121450 0.007008 0.012555
-0.120330 0.003766 0.015867
-0.124420 0.002989 0.012312
-0.120760 0.005466 0.015832
-0.121390 0.006386 0.017359
-0.121670 0.004376 0.017335
-0.118120 0.003006 0.015521
-0.119480 0.007117 0.012717
-0.118080 0.005296 0.016096
-0.117970 0.006017 0.011262
-0.116110 0.006926 0.012021
-0.117600 0.004277 0.012687
-0.119560 0.003088 0.011132
-0.115970 0.004907 0.011957
-0.115180 0.006845 0.016325
-0.115580 0.005364 0.018293
-0.117640 0.007366 0.016399
-0.116270 0.006915 0.017690
-0.119630 0.004917 0.012704
-0.117050 0.003247 0.011337
-0.116470 0.004535 0.016196
-0.114940 0.002796 0.011495
-0.117500 0.002825 0.017676
-0.119240 0.002915 0.017534
-0.118330 0.004405 0.017609
-0.118390 0.006145 0.017604
-0.111870 0.002682 0.021543
-0.110120 0.006392 0.022859
-0.112420 0.002944 0.016583
-0.110900 0.004105 0.013474
-0.112310 0.003166 0.010258
-0.111470 0.006454 0.016647
-0.114650 0.006934 0.019114
-0.113830 0.002753 0.019827
-0.112690 0.007176 0.010492
-0.113830 0.005806 0.011003
-0.114100 0.003566 0.013187
-0.110480 0.003252 0.022762
-0.111950 0.005346 0.010160
-0.109970 0.006074 0.013561
-0.112140 0.004713 0.021304
-0.110230 0.005652 0.020508
-0.110170 0.003393 0.016795
-0.112020 0.007253 0.019013
-0.114730 0.007296 0.013131
-0.114090 0.005576 0.013189
-0.114750 0.003495 0.016351
-0.110250 0.005866 0.009403
-0.111590 0.006682 0.021696
-0.113200 0.005294 0.016511
-0.110680 0.003706 0.009425
-0.114570 0.004194 0.019176
-0.112170 0.005725 0.013360
-0.113760 0.003996 0.010971
-0.113420 0.005423 0.020186
-0.108350 0.004102 0.020375
-0.107330 0.005763 0.017045
-0.105780 0.007272 0.017198
-0.109730 0.005463 0.017487
-0.106130 0.004619 0.025986
-0.108300 0.006116 0.008532
-0.108640 0.004101 0.023533
-0.106780 0.006843 0.013873
-0.108570 0.004183 0.016924
-0.108690 0.004106 0.008347
-0.106510 0.004136 0.007064
-0.107370 0.003412 0.018848
-0.108610 0.006391 0.023910
-0.106930 0.002761 0.022519
-0.109530 0.004952 0.022012
-0.107430 0.005370 0.024936
-0.106110 0.002413 0.013938
-0.106800 0.004523 0.013871
-0.106520 0.006830 0.025263
-0.109680 0.002824 0.013589
-0.108660 0.007284 0.013690
-0.107420 0.003530 0.025320
-0.105050 0.006379 0.026374
-0.107840 0.002764 0.013769
-0.108610 0.004654 0.013694
-0.107470 0.002763 0.017030
-0.105570 0.003039 0.026699
-0.106820 0.005846 0.007645
-0.105250 0.004182 0.017248
-0.104640 0.005912 0.017309
-0.100430 0.006852 0.014473
-0.103360 0.002413 0.014208
-0.100840 0.005402 0.013450
-0.100070 0.005075 0.003834
-0.102120 0.003016 0.004215
-0.103640 0.006998 0.027221
-0.102390 0.006108 0.028274
-0.101430 0.006119 0.022497
-0.101800 0.005651 0.017579
-0.102580 0.002750 0.022474
-0.101460 0.006599 0.024715
-0.100610 0.005553 0.011514
-0.100500 0.004974 0.008198
-0.101670 0.006468 0.026451
-0.102090 0.004529 0.023770
-0.100860 0.003425 0.006260
-0.104630 0.005543 0.014085
-0.100200 0.002475 0.003448
-0.100030 0.005037 0.028730
-0.100640 0.007310 0.018395
-0.102880 0.002379 0.024277
-0.101450 0.003722 0.013861
-0.103000 0.003872 0.016558
-0.101940 0.004010 0.020220
-0.101850 0.004298 0.028562
-0.101250 0.006010 0.020196
-0.101520 0.003053 0.012128
-0.104080 0.004118 0.027510
-0.102960 0.005445 0.005278
-0.102060 0.003141 0.018222
-0.102510 0.007361 0.017514
-0.103790 0.003416 0.005295
-0.102380 0.004498 0.026760
-0.104830 0.004655 0.006197
-0.101410 0.006115 0.004521
-0.099972 0.006603 0.008529
-0.100270 0.005124 0.006198
-0.101450 0.002494 0.009160
-0.103650 0.002448 0.028151
-0.103620 0.007243 0.014183
-0.100960 0.004073 0.009797
-0.104740 0.003593 0.014072
-0.097149 0.006006 0.028996
-0.096825 0.003204 0.003760
-0.096594 0.005794 0.003782
-0.099039 0.006967 0.028823
-0.098577 0.003137 0.028864
-0.096296 0.003056 0.029074
-0.095285 0.006386 0.029168
-0.098718 0.003765 0.003585
-0.092851 0.005973 0.004127
-0.090189 0.003222 0.004372
-0.093044 0.002905 0.029374
-0.094424 0.003975 0.029247
-0.094838 0.003834 0.003943
-0.090672 0.005434 0.029593
-0.090724 0.006082 0.004323
-0.092505 0.006255 0.029425
-0.094617 0.005694 0.003964
-0.092467 0.004003 0.004162
-0.280470 0.007500 0.010474
-0.277300 0.008438 0.012019
-0.275050 0.010168 0.012227
-0.276720 0.009768 0.010741
-0.275650 0.007378 0.012171
-0.279420 0.008259 0.011744
-0.275870 0.009199 0.008915
-0.279130 0.008290 0.009218
-0.274930 0.010538 0.009781
-0.274460 0.007398 0.009045
-0.270710 0.010377 0.011740
-0.272830 0.011378 0.009666
-0.270710 0.009017 0.009391
-0.272780 0.011447 0.011588
-0.271090 0.011647 0.009356
-0.270860 0.009146 0.013376
-0.273680 0.008677 0.012354
-0.270690 0.008567 0.011548
-0.273780 0.009398 0.009108
-0.271220 0.011957 0.012420
-0.269100 0.010207 0.007973
-0.266380 0.011595 0.012903
-0.264950 0.009356 0.008173
-0.269850 0.011656 0.014309
-0.268200 0.007987 0.009590
-0.269370 0.007805 0.014332
-0.269820 0.008418 0.007938
-0.266140 0.009256 0.009689
-0.265910 0.008984 0.014499
-0.267090 0.007757 0.008069
-0.267000 0.011407 0.008075
-0.268960 0.011897 0.009914
-0.267630 0.012185 0.014417
-0.267820 0.010275 0.012833
-0.267340 0.010596 0.009632
-0.267670 0.009295 0.014414
-0.265400 0.009875 0.012950
-0.269080 0.010536 0.011150
-0.269220 0.009196 0.012692
-0.265570 0.007615 0.012940
-0.263050 0.009776 0.008265
-0.262610 0.009085 0.009860
-0.262270 0.007643 0.014674
-0.261450 0.011355 0.009913
-0.262210 0.010723 0.014678
-0.264040 0.009784 0.014590
-0.260600 0.009535 0.008370
-0.260060 0.008933 0.013193
-0.263520 0.011165 0.009816
-0.263490 0.007864 0.013042
-0.264100 0.008086 0.009788
-0.263530 0.010424 0.013041
-0.261260 0.009203 0.014722
-0.260560 0.010764 0.013175
-0.260100 0.008694 0.009962
-0.261980 0.008844 0.013115
-0.257500 0.009584 0.010060
-0.258930 0.008535 0.008432
-0.257440 0.009342 0.014864
-0.255560 0.008532 0.014934
-0.255840 0.011302 0.013351
-0.255250 0.010472 0.014946
-0.259400 0.010674 0.009989
-0.258690 0.011045 0.008442
-0.258730 0.012272 0.014817
-0.256060 0.010484 0.008540
-0.257660 0.007664 0.010053
-0.255340 0.007503 0.010139
-0.259000 0.010483 0.014806
-0.255660 0.008604 0.008554
-0.256740 0.012242 0.014892
-0.256420 0.008552 0.013329
-0.258350 0.008313 0.013257
-0.257960 0.011193 0.013272
-0.255480 0.011233 0.010135
-0.252840 0.008591 0.013454
-0.253060 0.008943 0.008640
-0.250670 0.011852 0.008703
-0.249890 0.008452 0.008723
-0.252740 0.009341 0.015030
-0.253930 0.007871 0.014995
-0.251520 0.009742 0.010253
-0.250540 0.010981 0.013515
-0.249930 0.008231 0.013529
-0.254570 0.009572 0.013397
-0.254200 0.007603 0.008608
-0.253370 0.012191 0.015014
-0.252780 0.010751 0.013456
-0.251610 0.007603 0.008677
-0.254700 0.009243 0.010164
-0.253730 0.010873 0.008623
-0.253400 0.011583 0.010205
-0.250660 0.009220 0.015084
-0.248210 0.009470 0.013575
-0.246780 0.007929 0.015184
-0.248940 0.008241 0.010320
-0.245530 0.010081 0.008827
-0.246930 0.007551 0.008800
-0.247260 0.010731 0.010364
-0.248960 0.010382 0.008747
-0.249070 0.009940 0.015126
-0.247280 0.009779 0.015172
-0.245900 0.009261 0.010393
-0.247470 0.011902 0.008787
-0.245080 0.010579 0.015223
-0.248680 0.011710 0.015137
-0.246060 0.010130 0.013631
-0.248350 0.007400 0.013570
-0.245070 0.010920 0.010406
-0.249790 0.010272 0.010299
-0.241760 0.011908 0.013700
-0.244370 0.009159 0.013659
-0.244380 0.007750 0.010415
-0.240210 0.008008 0.013722
-0.241550 0.009198 0.015275
-0.243380 0.010500 0.008859
-0.241620 0.007910 0.008884
-0.243580 0.010949 0.013672
-0.240300 0.009918 0.013721
-0.242720 0.012198 0.015259
-0.240070 0.007389 0.010479
-0.244470 0.007869 0.015231
-0.243090 0.009120 0.010436
-0.241630 0.009850 0.008885
-0.242930 0.010428 0.015255
-0.240910 0.011770 0.008896
-0.240150 0.009759 0.010479
-0.242280 0.008909 0.013691
-0.241540 0.011139 0.010459
-0.243660 0.008040 0.008853
-0.236510 0.009907 0.015334
-0.236480 0.007857 0.015333
-0.235040 0.011067 0.013768
-0.237440 0.008017 0.013758
-0.237280 0.008128 0.010504
-0.239130 0.011289 0.008923
-0.235220 0.009197 0.013767
-0.238780 0.010157 0.015316
-0.236130 0.009998 0.010509
-0.238130 0.009638 0.013753
-0.236070 0.011858 0.010511
-0.237270 0.009429 0.008933
-0.237360 0.012159 0.008933
-0.235350 0.010708 0.008939
-0.235070 0.007638 0.010512
-0.237990 0.010459 0.010503
-0.239680 0.008439 0.008913
-0.231560 0.008477 0.008953
-0.234840 0.009008 0.008942
-0.233360 0.007716 0.015345
-0.230140 0.008357 0.010518
-0.232280 0.012038 0.008952
-0.230220 0.008355 0.015357
-0.232350 0.010067 0.010523
-0.232960 0.008337 0.010520
-0.234320 0.010658 0.010516
-0.231240 0.010776 0.013781
-0.230740 0.010867 0.008952
-0.231060 0.008096 0.013781
-0.232940 0.010246 0.013775
-0.233830 0.009646 0.015343
-0.233090 0.009428 0.008947
-0.232340 0.011276 0.015349
-0.231550 0.009695 0.015353
-0.225780 0.010486 0.008914
-0.225840 0.011674 0.013753
-0.229240 0.010265 0.015351
-0.226860 0.010155 0.013760
-0.229300 0.011056 0.010514
-0.229630 0.009467 0.008943
-0.227400 0.012004 0.015337
-0.227740 0.009184 0.015339
-0.225470 0.007574 0.015321
-0.225320 0.008526 0.008910
-0.228500 0.008057 0.008933
-0.225060 0.010145 0.010482
-0.225140 0.010844 0.015320
-0.227240 0.009426 0.008925
-0.228040 0.008435 0.013768
-0.226820 0.010086 0.010494
-0.229830 0.009495 0.013782
-0.228620 0.010935 0.013774
-0.225270 0.008984 0.013748
-0.227510 0.008486 0.010499
-0.226450 0.007374 0.013756
-0.221050 0.007703 0.013700
-0.221100 0.010113 0.013701
-0.221910 0.007404 0.010436
-0.223090 0.011235 0.010460
-0.220680 0.009375 0.008841
-0.223170 0.011985 0.008889
-0.222840 0.008995 0.010455
-0.223220 0.009574 0.013732
-0.221460 0.011435 0.008856
-0.223420 0.010333 0.015307
-0.223180 0.008243 0.015304
-0.223010 0.011484 0.013732
-0.221140 0.009243 0.015275
-0.222680 0.008215 0.008878
-0.220650 0.010504 0.010414
-0.222770 0.010185 0.008881
-0.219070 0.008743 0.013663
-0.218700 0.011212 0.015229
-0.219250 0.011763 0.013667
-0.215090 0.007381 0.015160
-0.217420 0.012062 0.013632
-0.215050 0.007703 0.008721
-0.215870 0.008173 0.010319
-0.219680 0.008102 0.015246
-0.216310 0.011674 0.008759
-0.218390 0.010164 0.008798
-0.217720 0.009632 0.015210
-0.217190 0.007454 0.008773
-0.215980 0.010731 0.015177
-0.216810 0.007722 0.013620
-0.217530 0.012113 0.010355
-0.217040 0.009922 0.013624
-0.219780 0.008944 0.010396
-0.215490 0.009853 0.008736
-0.215080 0.009872 0.013587
-0.218100 0.008403 0.010364
-0.215960 0.010703 0.010323
-0.219170 0.007394 0.008811
-0.219100 0.011304 0.010384
-0.214490 0.011763 0.010278
-0.210100 0.010191 0.010144
-0.210700 0.009711 0.013458
-0.211930 0.008892 0.010199
-0.214500 0.011701 0.013575
-0.213870 0.011123 0.008687
-0.211480 0.010352 0.008613
-0.210220 0.010840 0.015017
-0.213040 0.007921 0.015101
-0.211110 0.008630 0.015043
-0.214040 0.009772 0.010264
-0.212760 0.008723 0.008651
-0.210330 0.008202 0.008577
-0.212730 0.009511 0.013519
-0.213560 0.011381 0.015119
-0.211600 0.011332 0.010190
-0.214390 0.009431 0.015143
-0.214360 0.008091 0.013568
-0.206720 0.009029 0.014906
-0.206510 0.007779 0.013323
-0.207260 0.011121 0.008468
-0.205580 0.009829 0.013285
-0.206320 0.008891 0.008429
-0.208700 0.009102 0.008528
-0.205390 0.008070 0.009963
-0.208850 0.009060 0.014975
-0.208770 0.010880 0.013400
-0.206480 0.012121 0.010011
-0.208890 0.008290 0.013403
-0.207280 0.011109 0.014928
-0.205190 0.010650 0.009955
-0.209280 0.010792 0.008546
-0.206920 0.009731 0.010029
-0.205700 0.011999 0.014864
-0.199910 0.007449 0.009718
-0.200880 0.009500 0.008197
-0.203930 0.010688 0.014789
-0.201260 0.011848 0.014677
-0.200730 0.008128 0.014655
-0.202840 0.011769 0.013170
-0.201560 0.010308 0.013116
-0.202660 0.008588 0.014735
-0.203870 0.011190 0.008326
-0.204410 0.008148 0.014809
-0.202870 0.011050 0.009858
-0.202170 0.008960 0.009827
-0.203360 0.009559 0.013191
-0.200760 0.010789 0.009765
-0.204460 0.007381 0.008349
-0.203830 0.009140 0.008324
-0.202570 0.007770 0.008270
-0.199670 0.011017 0.014610
-0.195690 0.012347 0.012825
-0.197860 0.008447 0.014516
-0.199100 0.010319 0.008101
-0.195970 0.010716 0.014414
-0.195990 0.011858 0.009508
-0.198290 0.011937 0.012966
-0.198140 0.010789 0.009624
-0.198460 0.008619 0.009640
-0.195140 0.008406 0.014370
-0.196110 0.009178 0.009514
-0.199730 0.009258 0.013038
-0.197750 0.008509 0.008027
-0.194990 0.010517 0.012787
-0.197770 0.010257 0.012937
-0.195410 0.007437 0.012809
-0.196820 0.010029 0.007978
-0.198430 0.011959 0.008065
-0.198530 0.007897 0.012978
-0.196160 0.009167 0.012850
-0.189910 0.009357 0.007843
-0.191990 0.010365 0.014218
-0.190670 0.009165 0.014229
-0.193200 0.007456 0.012689
-0.191270 0.012057 0.007832
-0.191440 0.009216 0.012650
-0.192710 0.008256 0.014239
-0.193930 0.008618 0.007821
-0.192590 0.010508 0.007818
-0.191150 0.010757 0.009404
-0.193270 0.009836 0.012694
-0.189980 0.012235 0.012665
-0.191600 0.007657 0.007827
-0.190340 0.008117 0.009411
-0.192230 0.008627 0.009394
-0.193920 0.011668 0.007821
-0.193850 0.010327 0.009392
-0.193990 0.010906 0.014309
-0.189110 0.010105 0.014245
-0.188470 0.010777 0.007857
-0.187440 0.008684 0.014259
-0.188060 0.008486 0.009433
-0.187000 0.009496 0.007870
-0.188260 0.007875 0.012679
-0.185740 0.007685 0.009457
-0.186810 0.012234 0.014267
-0.184990 0.009836 0.007898
-0.186620 0.010035 0.012695
-0.186840 0.012096 0.007873
-0.189630 0.009225 0.012667
-0.187590 0.011096 0.009438
-0.185540 0.010774 0.014278
-0.188060 0.007637 0.007861
-0.185630 0.010415 0.009460
-0.189590 0.011966 0.009420
-0.188650 0.011035 0.012677
-0.185200 0.008594 0.014282
-0.184910 0.007666 0.007899
-0.184920 0.012316 0.007900
-0.187360 0.010554 0.014261
-0.189060 0.010086 0.009424
-0.182740 0.011364 0.012752
-0.181470 0.010755 0.007960
-0.182550 0.009755 0.009514
-0.182390 0.009423 0.014331
-0.180140 0.008754 0.009555
-0.181240 0.009623 0.012778
-0.180100 0.009312 0.014371
-0.182790 0.008015 0.007936
-0.183740 0.008484 0.012734
-0.183410 0.011525 0.009500
-0.182780 0.012275 0.007938
-0.183270 0.007733 0.014315
-0.183690 0.010793 0.014308
-0.181350 0.011033 0.014350
-0.181690 0.007854 0.009528
-0.181360 0.011494 0.009535
-0.184230 0.009205 0.009484
-0.179400 0.011192 0.014384
-0.176480 0.010433 0.008064
-0.175310 0.009902 0.012902
-0.177300 0.008194 0.008043
-0.177960 0.010592 0.012836
-0.175930 0.011083 0.009651
-0.175230 0.008293 0.009669
-0.177550 0.009082 0.014418
-0.176250 0.007782 0.012877
-0.175200 0.012343 0.008098
-0.179820 0.009534 0.007988
-0.179400 0.008503 0.012810
-0.177920 0.009643 0.009600
-0.176520 0.011021 0.014445
-0.178440 0.011493 0.009587
-0.179360 0.007432 0.014383
-0.175180 0.008551 0.014478
-0.170240 0.008512 0.008229
-0.170380 0.010020 0.013029
-0.172130 0.007390 0.014556
-0.172970 0.009131 0.012962
-0.170620 0.012001 0.009790
-0.169900 0.012362 0.008242
-0.170220 0.007710 0.014607
-0.172440 0.011432 0.009740
-0.171830 0.012192 0.008183
-0.173030 0.010213 0.008152
-0.173860 0.010172 0.009704
-0.171230 0.011610 0.013007
-0.171490 0.007432 0.009763
-0.174780 0.008933 0.008107
-0.171810 0.010510 0.014565
-0.173680 0.010881 0.012945
-0.171460 0.009642 0.009765
-0.172080 0.012250 0.014559
-0.170650 0.010272 0.008215
-0.174720 0.010501 0.014490
-0.171270 0.008140 0.013005
-0.166390 0.010431 0.008359
-0.168880 0.011320 0.013080
-0.167890 0.009160 0.013113
-0.168970 0.009081 0.009845
-0.166030 0.010229 0.013175
-0.165550 0.010170 0.009960
-0.166100 0.008839 0.014746
-0.168990 0.009089 0.014648
-0.167530 0.011909 0.014698
-0.165390 0.012038 0.014771
-0.165920 0.008089 0.013178
-0.166980 0.008750 0.009912
-0.165150 0.007390 0.009973
-0.166670 0.007961 0.008349
-0.168400 0.010221 0.008291
-0.166480 0.012261 0.008356
-0.168400 0.008431 0.008291
-0.168220 0.010991 0.009871
-0.161360 0.010107 0.014919
-0.163960 0.008720 0.008440
-0.160790 0.012288 0.013370
-0.163090 0.011060 0.008473
-0.161680 0.007887 0.014905
-0.161750 0.009550 0.008528
-0.161950 0.009298 0.013321
-0.163830 0.010678 0.014822
-0.160170 0.008948 0.013394
-0.164290 0.008878 0.014806
-0.162410 0.011468 0.013302
-0.161510 0.007619 0.008538
-0.163820 0.011670 0.010019
-0.161230 0.008779 0.010123
-0.163700 0.009519 0.010023
-0.164510 0.011299 0.013227
-0.161010 0.010539 0.010134
-0.163810 0.008259 0.013250
-0.161500 0.011867 0.014914
-0.159390 0.007459 0.008626
-0.156000 0.009886 0.013569
-0.155220 0.008316 0.013603
-0.158900 0.010957 0.013448
-0.157640 0.008708 0.010273
-0.154890 0.011566 0.013621
-0.155140 0.010677 0.010385
-0.155350 0.008418 0.008798
-0.157110 0.010526 0.015097
-0.158410 0.009489 0.008668
-0.157900 0.008627 0.013490
-0.159590 0.011567 0.014993
-0.157730 0.011158 0.010270
-0.156200 0.010138 0.008760
-0.156040 0.012176 0.015142
-0.159480 0.009127 0.014997
-0.159190 0.011069 0.008635
-0.156910 0.008536 0.015104
-0.159160 0.009978 0.010210
-0.152410 0.009197 0.008945
-0.150540 0.009744 0.015411
-0.153910 0.011877 0.008871
-0.154810 0.008957 0.010401
-0.152220 0.010995 0.013753
-0.150240 0.009906 0.010628
-0.151470 0.011255 0.015365
-0.154090 0.010805 0.015234
-0.151800 0.007865 0.015348
-0.150360 0.010845 0.013846
-0.151350 0.008745 0.013796
-0.150820 0.010726 0.009025
-0.154290 0.008295 0.015224
-0.152370 0.010496 0.010522
-0.153290 0.009246 0.013700
-0.154100 0.009857 0.008861
-0.150490 0.008606 0.009041
-0.151610 0.008406 0.010559
-0.145700 0.008723 0.015671
-0.149250 0.009355 0.013901
-0.147260 0.009503 0.015581
-0.145420 0.010253 0.014112
-0.148100 0.008126 0.009160
-0.149190 0.008174 0.015477
-0.148130 0.011404 0.013957
-0.149280 0.012186 0.009101
-0.146060 0.009075 0.010853
-0.148690 0.010804 0.015503
-0.146620 0.010935 0.009247
-0.147310 0.007645 0.010781
-0.145930 0.007655 0.009285
-0.148710 0.010336 0.009129
-0.146370 0.008734 0.014057
-0.147530 0.010835 0.010769
-0.145270 0.009635 0.009324
-0.148430 0.009285 0.010718
-0.144880 0.007574 0.010921
-0.141120 0.011194 0.009564
-0.143260 0.008374 0.011015
-0.142240 0.010402 0.015871
-0.140790 0.010373 0.011158
-0.141120 0.009124 0.009564
-0.139880 0.009551 0.016013
-0.141010 0.010812 0.014367
-0.141650 0.007892 0.015904
-0.143320 0.012242 0.015810
-0.143050 0.009954 0.009452
-0.140660 0.011452 0.015963
-0.144340 0.008073 0.014174
-0.142700 0.011463 0.014270
-0.144590 0.010533 0.015736
-0.141410 0.009042 0.014343
-0.143240 0.009513 0.014237
-0.144320 0.011824 0.010954
-0.142320 0.011564 0.011070
-0.142960 0.007414 0.009456
-0.136750 0.009681 0.016220
-0.137790 0.010532 0.011355
-0.135370 0.011192 0.011514
-0.136630 0.007422 0.009854
-0.135710 0.009872 0.009916
-0.136360 0.011940 0.016246
-0.138220 0.012261 0.016123
-0.136340 0.007720 0.016246
-0.136310 0.011652 0.009877
-0.136630 0.008702 0.011430
-0.137120 0.010901 0.014619
-0.137740 0.009043 0.009782
-0.139650 0.010083 0.009657
-0.139630 0.008103 0.009657
-0.138910 0.009143 0.011281
-0.139080 0.008282 0.014490
-0.138150 0.008171 0.016126
-0.138860 0.011592 0.014505
-0.135360 0.009271 0.014735
-0.137290 0.008881 0.014608
-0.132770 0.011151 0.010112
-0.132600 0.007561 0.011700
-0.131500 0.010279 0.016579
-0.132310 0.011650 0.014943
-0.133880 0.010560 0.014833
-0.132400 0.008991 0.010138
-0.133810 0.007842 0.010040
-0.129890 0.008661 0.010323
-0.130820 0.010911 0.010255
-0.134770 0.008872 0.011553
-0.133550 0.010351 0.011634
-0.130290 0.009390 0.011871
-0.131820 0.010961 0.011758
-0.130070 0.009399 0.015107
-0.133170 0.008159 0.016455
-0.131960 0.008980 0.014967
-0.133220 0.010950 0.016453
-0.134390 0.009420 0.016375
-0.131030 0.008109 0.016612
-0.127780 0.011360 0.012057
-0.125830 0.010309 0.012201
-0.128170 0.010540 0.010451
-0.128390 0.009670 0.012012
-0.128300 0.009999 0.015238
-0.125200 0.009417 0.017048
-0.128010 0.008350 0.010462
-0.126340 0.010840 0.010586
-0.125530 0.009179 0.010646
-0.127960 0.007590 0.012043
-0.127480 0.012188 0.016876
-0.129470 0.010248 0.016728
-0.126150 0.010518 0.015397
-0.126600 0.008308 0.016940
-0.127250 0.008258 0.015315
-0.128870 0.007499 0.015195
-0.127000 0.010118 0.016912
-0.120600 0.007968 0.011048
-0.120970 0.009368 0.012595
-0.123500 0.010799 0.010811
-0.122800 0.008188 0.012445
-0.124150 0.007997 0.017134
-0.121320 0.012348 0.012568
-0.123840 0.008279 0.010783
-0.120960 0.010157 0.015817
-0.123080 0.010307 0.015644
-0.120230 0.007926 0.015877
-0.121950 0.009618 0.010938
-0.122190 0.012018 0.010919
-0.124700 0.007969 0.012290
-0.123940 0.009738 0.012353
-0.123660 0.011197 0.017174
-0.121790 0.008166 0.017326
-0.124640 0.007558 0.015515
-0.121960 0.010696 0.017314
-0.119870 0.010896 0.017484
-0.124580 0.011588 0.015522
-0.117660 0.007717 0.012713
-0.115570 0.010924 0.018166
-0.116960 0.012095 0.017723
-0.117920 0.009397 0.011268
-0.118910 0.010636 0.015986
-0.116670 0.009916 0.012958
-0.115790 0.008636 0.011878
-0.118910 0.011018 0.011187
-0.115350 0.010565 0.016299
-0.119090 0.009737 0.012750
-0.115600 0.008614 0.018277
-0.117960 0.011127 0.012971
-0.119600 0.008996 0.017506
-0.116170 0.008735 0.016225
-0.114910 0.010366 0.011487
-0.116090 0.011737 0.012015
-0.117630 0.009835 0.017667
-0.117120 0.010805 0.016140
-0.110500 0.009313 0.016736
-0.113150 0.011314 0.016497
-0.111900 0.010213 0.020855
-0.110850 0.008536 0.009670
-0.111400 0.011746 0.009919
-0.113080 0.008323 0.020418
-0.113510 0.008654 0.016765
-0.111360 0.007545 0.013434
-0.113690 0.010873 0.019474
-0.114310 0.007556 0.011218
-0.114310 0.010816 0.013169
-0.113340 0.008705 0.013256
-0.110620 0.010555 0.013501
-0.109860 0.010232 0.022258
-0.111240 0.008502 0.021656
-0.112980 0.009266 0.010624
-0.112990 0.012226 0.010628
-0.105590 0.011632 0.017218
-0.109280 0.007556 0.008970
-0.106570 0.008584 0.013895
-0.108840 0.008691 0.023277
-0.108500 0.012146 0.008625
-0.108350 0.007513 0.016946
-0.108240 0.009356 0.008508
-0.107370 0.012344 0.013818
-0.105180 0.011859 0.025160
-0.108820 0.011661 0.022683
-0.109830 0.010846 0.009216
-0.109670 0.008714 0.013592
-0.108120 0.009854 0.013744
-0.106590 0.009682 0.017119
-0.106670 0.007935 0.007803
-0.108320 0.009423 0.016949
-0.106530 0.009000 0.024816
-0.108320 0.011273 0.016950
-0.106150 0.009615 0.007574
-0.107880 0.010261 0.023623
-0.105760 0.010563 0.013974
-0.104820 0.009779 0.025839
-0.100780 0.012157 0.028148
-0.099922 0.011048 0.024607
-0.100620 0.009867 0.027787
-0.103030 0.010982 0.016919
-0.101910 0.009241 0.017570
-0.102340 0.008788 0.027762
-0.100280 0.008267 0.028708
-0.099865 0.009620 0.018655
-0.103640 0.011305 0.006451
-0.100600 0.008899 0.023896
-0.099936 0.007782 0.012550
-0.100350 0.009195 0.004613
-0.101200 0.011051 0.017636
-0.103550 0.010413 0.014192
-0.102130 0.007535 0.005276
-0.103590 0.008771 0.017412
-0.104820 0.007825 0.006927
-0.102200 0.010598 0.027484
-0.102430 0.009935 0.005910
-0.103470 0.011599 0.026402
-0.104770 0.009113 0.014071
-0.100990 0.010735 0.005267
-0.100440 0.008709 0.021433
-0.100550 0.008692 0.014471
-0.101050 0.010572 0.014427
-0.101020 0.008108 0.025517
-0.098260 0.010784 0.005579
-0.099371 0.008213 0.008029
-0.098452 0.011985 0.004136
-0.099847 0.011798 0.026596
-0.099119 0.007645 0.003550
-0.095462 0.010626 0.029153
-0.098357 0.010045 0.003852
-0.099740 0.010769 0.021590
-0.098945 0.008924 0.006056
-0.099094 0.010132 0.012205
-0.099691 0.007793 0.009937
-0.098694 0.011632 0.013444
-0.096673 0.007764 0.003775
-0.098928 0.012340 0.018657
-0.098178 0.010306 0.028903
-0.096452 0.008016 0.029061
-0.098283 0.011213 0.007418
-0.098647 0.010733 0.009563
-0.099409 0.007384 0.005326
-0.095713 0.009924 0.003864
-0.099297 0.010091 0.014234
-0.093681 0.009525 0.029317
-0.092431 0.010985 0.029433
-0.093488 0.011093 0.004070
-0.093916 0.007483 0.004029
-0.092652 0.009023 0.004146
-0.090632 0.011032 0.004333
-0.090921 0.008623 0.004306
-0.090485 0.011804 0.029613
-0.091850 0.009145 0.029486
-0.093324 0.007815 0.029350
-0.265640 0.012586 0.008449
-0.265490 0.012584 0.014472
-0.264960 0.012585 0.012390
-0.265280 0.012586 0.010598
-0.269420 0.012586 0.012175
-0.269440 0.012587 0.007985
-0.267820 0.012586 0.011465
-0.267050 0.012586 0.009479
-0.260100 0.012584 0.010921
-0.263240 0.012586 0.008559
-0.260290 0.012375 0.008383
