ply
format ascii 1.0
element vertex 1702
property float x
property float y
property float z
end_header
0.065106 0.092334 -0.020100
0.065318 0.096563 -0.016993
0.063979 0.096420 -0.012952
0.065114 0.094703 -0.018591
0.062284 0.095393 -0.019807
0.062531 0.093101 -0.016514
0.065635 0.096734 -0.010831
0.065623 0.094730 -0.013113
0.063599 0.094953 -0.014457
0.069823 0.096528 -0.006591
0.067393 0.093653 -0.012451
0.068202 0.097069 -0.014377
0.069763 0.094828 -0.008585
0.067431 0.093655 -0.017755
0.071455 0.094227 -0.007463
0.070612 0.092639 -0.010154
0.070309 0.095063 -0.014405
0.067720 0.095118 -0.010443
0.071139 0.092315 -0.016144
0.068994 0.094107 -0.016277
0.068102 0.096319 -0.008673
0.067530 0.095832 -0.015980
0.072116 0.095194 -0.005660
0.072082 0.095617 -0.011897
0.073926 0.092199 -0.013782
0.074920 0.094489 -0.003461
0.074077 0.094540 -0.010995
0.075362 0.096445 -0.007479
0.075064 0.092205 -0.005898
0.072623 0.097136 -0.002913
0.073519 0.096190 -0.009727
0.075523 0.095761 -0.001367
0.072985 0.092560 -0.007706
0.073860 0.093826 -0.005338
0.075210 0.092743 -0.011814
0.076153 0.096899 0.000589
0.072005 0.093391 -0.014485
0.075420 0.094746 -0.009341
0.081641 0.094905 -0.002553
0.077351 0.093591 -0.008583
0.081282 0.094964 0.003887
0.078831 0.094175 -0.006358
0.077719 0.093771 -0.001277
0.080463 0.096760 -0.001718
0.078403 0.095344 0.001237
0.078387 0.096866 -0.003792
0.081565 0.093510 -0.004128
0.081064 0.093431 0.001906
0.077201 0.095465 -0.006637
0.080798 0.092464 -0.006060
0.079808 0.094900 -0.004504
0.079354 0.093439 0.000096
0.083577 0.093723 -0.001583
0.085911 0.093755 0.001168
0.086740 0.094706 0.003082
0.084643 0.094176 0.006834
0.085892 0.096181 0.010303
0.082764 0.096743 0.000708
0.081941 0.095998 0.005760
0.082976 0.094311 0.005016
0.084682 0.095709 0.008416
0.089433 0.096403 0.014687
0.089801 0.092565 0.004513
0.091067 0.094039 0.014232
0.088999 0.092833 0.010592
0.090988 0.096045 0.016151
0.088834 0.095513 0.006312
0.087677 0.092315 0.008530
0.086918 0.094272 0.009604
0.087253 0.096055 0.005008
0.089588 0.093997 0.012448
0.090210 0.096694 0.009085
0.091244 0.094437 0.008043
0.087832 0.095186 0.011585
0.090559 0.093456 0.006280
0.087993 0.092551 0.002383
0.088417 0.094275 0.004595
0.095906 0.095580 0.021459
0.093987 0.092815 0.016427
0.095850 0.096451 0.023679
0.095401 0.094028 0.019308
0.094771 0.096402 0.014101
0.094552 0.092863 0.010323
0.092981 0.094946 0.017382
0.096167 0.096262 0.026026
0.096122 0.097043 0.029951
0.092885 0.093358 0.008884
0.096276 0.093650 0.013121
0.093931 0.095304 0.012039
0.091974 0.095574 0.010029
0.098904 0.092698 0.023797
0.100710 0.096490 0.021106
0.098421 0.093917 0.015872
0.096941 0.093558 0.020650
0.100860 0.094035 0.018837
0.098545 0.097043 0.019140
0.097481 0.094480 0.024106
0.099093 0.095228 0.017963
0.100520 0.094704 0.029856
0.097785 0.095071 0.029870
0.100400 0.097046 0.029867
0.098458 0.093585 0.027966
0.098407 0.093467 0.025798
0.097354 0.096406 0.017115
0.096784 0.094899 0.014951
0.103820 0.096592 0.025086
0.103440 0.094807 0.022205
0.104500 0.095957 0.027734
0.102380 0.093793 0.020370
0.103630 0.093365 0.029646
0.106400 0.093484 0.029126
0.105880 0.093466 0.022271
0.103090 0.096267 0.029685
0.104270 0.092278 0.021050
0.105410 0.094538 0.024038
0.105720 0.094399 0.026953
0.107080 0.092587 0.025994
-0.143360 0.098509 0.042857
-0.140810 0.101680 0.042599
-0.140700 0.101600 0.045115
-0.138430 0.097390 0.032354
-0.141820 0.097766 0.038026
-0.142360 0.099486 0.045522
-0.142400 0.099910 0.040308
-0.139560 0.098442 0.035354
-0.139880 0.099303 0.046050
-0.141140 0.100350 0.038687
-0.139310 0.100260 0.037134
-0.135040 0.098848 0.037062
-0.135800 0.097607 0.028555
-0.135900 0.101830 0.033751
-0.135190 0.098648 0.044044
-0.137880 0.099991 0.034603
-0.134400 0.099882 0.040897
-0.134590 0.100040 0.029591
-0.135760 0.100530 0.045774
-0.133490 0.101510 0.038450
-0.136120 0.097647 0.042176
-0.134360 0.101720 0.031237
-0.137780 0.098854 0.045909
-0.137910 0.101790 0.036787
-0.134280 0.097290 0.025842
-0.136210 0.099535 0.031485
-0.137820 0.101020 0.045913
-0.134060 0.100120 0.043051
-0.133980 0.098933 0.027341
-0.130490 0.101060 0.024910
-0.130150 0.098152 0.020563
-0.133210 0.098719 0.034059
-0.128400 0.100830 0.021681
-0.130500 0.098227 0.029264
-0.129540 0.101320 0.032004
-0.129410 0.097900 0.027250
-0.133010 0.101310 0.044946
-0.131240 0.100020 0.032661
-0.131950 0.101810 0.027958
-0.132020 0.100490 0.026293
-0.131020 0.099368 0.023397
-0.129630 0.099918 0.030248
-0.132730 0.098652 0.025075
-0.132990 0.101010 0.036475
-0.127410 0.098281 0.016922
-0.124570 0.097860 0.020371
-0.126430 0.101100 0.027320
-0.124630 0.100940 0.024575
-0.125490 0.099065 0.023276
-0.125960 0.098034 0.014567
-0.127680 0.098062 0.025033
-0.128030 0.101310 0.029876
-0.124130 0.099476 0.013932
-0.124240 0.101120 0.016247
-0.126250 0.100990 0.018898
-0.128070 0.099500 0.019462
-0.125670 0.099551 0.016170
-0.124640 0.102180 0.026260
-0.128150 0.099713 0.027899
-0.126380 0.099735 0.025442
-0.122680 0.101150 0.022109
-0.120790 0.100790 0.018980
-0.120420 0.097338 0.013822
-0.122760 0.099370 0.011867
-0.123170 0.097463 0.017873
-0.121600 0.101550 0.013133
-0.118460 0.100540 0.015345
-0.119780 0.097954 0.005819
-0.119750 0.101660 0.010698
-0.120990 0.099153 0.017054
-0.123230 0.099534 0.020727
-0.119270 0.100660 0.008708
-0.121720 0.098379 0.009091
-0.121590 0.097401 0.015560
-0.115030 0.098190 -0.000514
-0.116940 0.098029 0.001944
-0.115680 0.101630 0.012904
-0.114760 0.100390 0.002037
-0.115980 0.098353 0.008923
-0.117590 0.097955 0.010657
-0.116540 0.100080 0.004113
-0.117740 0.100490 0.006350
-0.118110 0.102120 0.016955
-0.114120 0.099078 0.007282
-0.113240 0.100740 0.008255
-0.118120 0.099168 0.013029
-0.113910 0.101650 0.010425
-0.115640 0.099955 0.010601
-0.111430 0.101720 0.007439
-0.111640 0.097612 -0.004903
-0.108900 0.100130 0.001947
-0.110790 0.100260 -0.003128
-0.112840 0.100400 -0.000530
-0.108310 0.098504 -0.006881
-0.113070 0.099042 -0.002106
-0.109700 0.101870 0.005486
-0.111950 0.098426 0.003357
-0.108630 0.099050 0.000037
-0.108660 0.101320 -0.003909
-0.110340 0.098247 0.001005
-0.110000 0.099030 -0.004961
-0.110290 0.100030 0.003540
-0.111840 0.100080 0.005547
-0.105980 0.100880 -0.000608
-0.107290 0.100550 -0.005786
-0.105300 0.102110 -0.005983
-0.107080 0.097463 -0.008511
-0.107070 0.097270 -0.003482
-0.104680 0.100760 -0.002280
-0.105160 0.098027 -0.009147
-0.106250 0.102170 0.001617
-0.103880 0.097472 -0.005805
-0.104010 0.100430 -0.008477
-0.105430 0.098925 -0.003311
-0.107750 0.098465 -0.001895
-0.105900 0.099790 -0.007685
-0.099986 0.101940 -0.009644
-0.101870 0.097980 -0.010756
-0.098787 0.098340 -0.012047
-0.101940 0.101070 -0.009144
-0.101580 0.098422 -0.006416
-0.099370 0.098631 -0.007287
-0.101230 0.101840 -0.004032
-0.102790 0.099975 -0.004445
-0.100430 0.100170 -0.006122
-0.098994 0.102070 -0.005576
-0.100310 0.099743 -0.010603
-0.097554 0.100920 -0.011321
-0.094195 0.099138 -0.013337
-0.097869 0.100900 -0.006911
-0.096385 0.098667 -0.008572
-0.094109 0.100750 -0.008485
-0.095549 0.101170 -0.012062
-0.096585 0.098708 -0.012819
-0.095844 0.102020 -0.007194
-0.095180 0.097237 -0.013621
-0.093042 0.097319 -0.014163
-0.088929 0.097681 -0.015113
-0.091840 0.099640 -0.013796
-0.090147 0.101030 -0.013823
-0.090491 0.097925 -0.010570
-0.091566 0.100330 -0.009654
-0.092661 0.097971 -0.010028
-0.090279 0.102080 -0.009311
-0.093141 0.101190 -0.013011
-0.088032 0.098968 -0.010883
-0.087624 0.101020 -0.014477
-0.085317 0.099485 -0.011404
-0.085719 0.099173 -0.015502
-0.084349 0.101850 -0.015074
-0.083479 0.098160 -0.016246
-0.088210 0.101670 -0.010110
-0.083271 0.099407 -0.011922
-0.078276 0.099351 -0.012657
-0.079791 0.100230 -0.016503
-0.082095 0.097672 -0.012354
-0.080986 0.099701 -0.012299
-0.082266 0.099884 -0.016183
-0.081808 0.101960 -0.015662
-0.076196 0.100550 -0.012782
-0.073541 0.098316 -0.017432
-0.077446 0.099121 -0.016890
-0.076843 0.097641 -0.013001
-0.075674 0.100290 -0.016982
-0.075714 0.097408 -0.017266
-0.073694 0.098004 -0.013338
-0.077848 0.101590 -0.016596
-0.068377 0.098344 -0.013779
-0.070915 0.098516 -0.013608
-0.068302 0.098957 -0.017986
-0.069135 0.101170 -0.017666
-0.072799 0.100570 -0.017294
-0.072110 0.100240 -0.013299
-0.069300 0.100570 -0.013599
-0.070362 0.098062 -0.017832
-0.064673 0.098036 -0.014028
-0.066237 0.099477 -0.013922
-0.064208 0.100290 -0.014058
-0.063408 0.099374 -0.018469
-0.064907 0.100920 -0.018146
-0.066148 0.097204 -0.018289
-0.065784 0.102090 -0.013825
-0.062408 0.098677 -0.014180
-0.058982 0.101360 -0.018736
-0.059760 0.099596 -0.014358
-0.060695 0.097233 -0.014297
-0.061639 0.100580 -0.018532
-0.060191 0.098689 -0.018689
-0.057860 0.098386 -0.014487
-0.054955 0.098634 -0.014682
-0.054976 0.101100 -0.014679
-0.055591 0.097578 -0.019000
-0.057089 0.100020 -0.018897
-0.054875 0.099780 -0.019046
-0.057168 0.100680 -0.014532
-0.050144 0.099930 -0.015005
-0.052067 0.101770 -0.014874
-0.050610 0.100280 -0.019333
-0.050253 0.097670 -0.015000
-0.052626 0.099714 -0.014838
-0.052539 0.098702 -0.019204
-0.048368 0.099260 -0.019485
-0.048663 0.102000 -0.019463
-0.044503 0.100960 -0.015384
-0.044840 0.098421 -0.015364
-0.046597 0.100410 -0.019603
-0.046394 0.097789 -0.019619
-0.047681 0.099469 -0.015171
-0.044092 0.098725 -0.019773
-0.040743 0.097503 -0.020000
-0.042028 0.100080 -0.019911
-0.042115 0.097855 -0.015548
-0.039761 0.100690 -0.020063
-0.040341 0.098988 -0.015666
-0.042407 0.100590 -0.015526
-0.034437 0.099374 -0.020423
-0.037499 0.101640 -0.020215
-0.034207 0.098175 -0.016080
-0.036204 0.100390 -0.015944
-0.038089 0.101670 -0.015816
-0.036746 0.098117 -0.015909
-0.037610 0.098992 -0.020209
-0.035415 0.101300 -0.020355
-0.034086 0.100360 -0.016086
-0.031380 0.100230 -0.016269
-0.028979 0.098841 -0.016432
-0.032241 0.099092 -0.020571
-0.031281 0.101390 -0.020634
-0.030962 0.098000 -0.016299
-0.029037 0.100700 -0.020785
-0.024800 0.097961 -0.016714
-0.027778 0.098018 -0.020872
-0.023368 0.100590 -0.021167
-0.027225 0.102020 -0.016547
-0.024775 0.101890 -0.016712
-0.025615 0.100290 -0.021016
-0.024211 0.098587 -0.021112
-0.025985 0.099754 -0.016632
-0.020012 0.099118 -0.017035
-0.022253 0.100670 -0.016883
-0.021024 0.099316 -0.021326
-0.018351 0.101010 -0.017145
-0.022266 0.097554 -0.021244
-0.020927 0.101560 -0.021331
-0.018856 0.098958 -0.021473
-0.022196 0.098466 -0.016889
-0.015560 0.101480 -0.021692
-0.017887 0.101270 -0.021536
-0.014234 0.099006 -0.017424
-0.016048 0.101890 -0.017300
-0.016928 0.099079 -0.017243
-0.013640 0.098744 -0.021824
-0.016778 0.098484 -0.021613
-0.009227 0.100460 -0.017760
-0.009625 0.101670 -0.022092
-0.011462 0.100610 -0.021969
-0.011385 0.097593 -0.017617
-0.012329 0.100780 -0.017551
-0.011370 0.097702 -0.021978
-0.009279 0.098636 -0.022118
-0.005436 0.100790 -0.022375
-0.003664 0.100600 -0.018135
-0.007598 0.098069 -0.017872
-0.006620 0.100050 -0.017936
-0.007573 0.100120 -0.022231
-0.000175 0.101790 -0.022728
-0.002836 0.097962 -0.018193
-0.003064 0.099359 -0.022536
0.000283 0.098060 -0.018403
-0.002973 0.101740 -0.022540
0.001251 0.098956 -0.022827
-0.001441 0.100170 -0.018285
0.006660 0.100050 -0.023190
0.005203 0.098000 -0.023094
0.002336 0.100190 -0.018539
0.006049 0.099342 -0.018790
0.003468 0.099851 -0.022975
0.003924 0.098453 -0.018648
0.008681 0.101090 -0.023325
0.008962 0.099923 -0.018986
0.011099 0.097470 -0.023491
0.007466 0.101420 -0.018884
0.008218 0.097515 -0.018938
0.010475 0.099617 -0.023447
0.011077 0.100110 -0.019128
0.013134 0.100640 -0.019266
0.015827 0.100150 -0.023687
0.012550 0.100410 -0.023569
0.016195 0.097763 -0.019475
0.015886 0.101100 -0.019451
0.013920 0.098130 -0.019321
0.014046 0.097589 -0.023689
0.019965 0.101130 -0.023699
0.020021 0.101710 -0.019556
0.017664 0.097693 -0.023933
0.019887 0.097608 -0.024054
0.017588 0.099567 -0.019567
0.017967 0.100460 -0.023713
0.019691 0.099476 -0.019709
0.026502 0.097703 -0.020078
0.021901 0.099718 -0.019800
0.023797 0.098227 -0.019981
0.026150 0.100010 -0.023922
0.024834 0.097311 -0.024168
0.022381 0.100990 -0.023761
0.022763 0.098192 -0.024045
0.025152 0.099857 -0.019839
0.030712 0.098093 -0.020107
0.030857 0.099020 -0.024101
0.030228 0.100370 -0.019870
0.027798 0.097950 -0.024155
0.029488 0.101160 -0.023865
0.027306 0.099762 -0.019884
0.028518 0.101710 -0.019707
0.032631 0.100670 -0.019837
0.032138 0.100670 -0.023937
0.035048 0.099155 -0.024073
0.034822 0.097853 -0.020173
0.036205 0.101230 -0.023347
0.036043 0.100120 -0.019665
0.039776 0.099075 -0.019553
0.040089 0.100700 -0.023043
0.037504 0.097461 -0.024267
0.038132 0.099541 -0.023601
0.040095 0.101410 -0.018902
0.040347 0.098138 -0.023741
0.037385 0.102180 -0.018981
0.037557 0.098337 -0.019979
0.045223 0.100720 -0.018316
0.041919 0.101950 -0.022471
0.042624 0.099258 -0.023156
0.043099 0.098849 -0.019266
0.044773 0.099215 -0.022916
0.044703 0.097451 -0.019469
0.049721 0.100990 -0.021192
0.051223 0.098021 -0.017969
0.047845 0.099597 -0.018221
0.047452 0.097612 -0.019124
0.051501 0.099225 -0.021467
0.047237 0.097613 -0.023064
0.049830 0.100790 -0.017163
0.048954 0.098836 -0.022480
0.047780 0.101850 -0.017178
0.047074 0.101230 -0.021814
0.054696 0.098455 -0.016795
0.053249 0.101500 -0.015388
0.055126 0.101390 -0.014378
0.052829 0.099457 -0.016891
0.053915 0.099164 -0.020715
0.053543 0.101280 -0.019817
0.059221 0.100710 -0.012189
0.057310 0.101350 -0.018118
0.061656 0.102000 -0.008247
0.061633 0.099304 -0.017146
0.057473 0.100960 -0.013345
0.061414 0.101590 -0.015308
0.059329 0.097213 -0.019903
0.061272 0.099289 -0.012017
0.060643 0.098216 -0.013700
0.058987 0.099184 -0.018922
0.056855 0.099286 -0.019704
0.057019 0.098261 -0.015786
0.061544 0.097505 -0.018757
0.059450 0.101880 -0.016303
0.058744 0.099166 -0.014047
0.060830 0.100930 -0.010385
0.064932 0.099055 -0.008826
0.062745 0.099749 -0.010040
0.063281 0.100010 -0.015485
0.064296 0.101740 -0.012791
0.066479 0.100650 -0.012094
0.063817 0.098136 -0.016773
0.065468 0.098699 -0.015210
0.065910 0.101860 -0.004373
0.064979 0.100610 -0.006842
0.063630 0.098046 -0.011331
0.070526 0.100910 -0.000869
0.069762 0.101360 -0.007891
0.066853 0.098148 -0.007926
0.067496 0.100040 -0.005107
0.070096 0.099251 -0.009915
0.071325 0.099754 -0.008040
0.069752 0.097713 -0.012005
0.069038 0.100220 -0.003241
0.070708 0.098313 -0.003618
0.067887 0.100910 -0.010381
0.068136 0.099332 -0.011895
0.068452 0.098300 -0.006057
0.071696 0.097856 -0.009789
0.066870 0.098986 -0.013634
0.073225 0.100500 0.001552
0.076409 0.098235 -0.004354
0.073791 0.098066 -0.007330
0.074435 0.097655 -0.000390
0.072598 0.098902 -0.000942
0.073788 0.100410 -0.004690
0.074733 0.100930 0.003638
0.075525 0.100300 -0.002972
0.076545 0.099442 0.003892
0.073684 0.102160 -0.002825
0.075614 0.098535 0.001879
0.075364 0.101940 0.005473
0.072210 0.100660 -0.006080
0.078627 0.098049 0.004548
0.079491 0.101420 0.002504
0.076963 0.101630 0.000049
0.079426 0.099209 0.006719
0.079180 0.100160 0.000757
0.077466 0.099331 -0.002002
0.081371 0.098198 0.007653
0.080684 0.098345 0.000304
0.080108 0.100300 0.008686
0.077228 0.100570 0.005910
0.077522 0.101810 0.007624
0.084492 0.100230 0.006473
0.082141 0.098711 0.002259
0.083247 0.098066 0.009507
0.086664 0.097572 0.012605
0.082093 0.101390 0.005228
0.086046 0.099470 0.014097
0.081938 0.100010 0.010318
0.083775 0.101290 0.013735
0.085289 0.098423 0.005282
0.084342 0.097378 0.003102
0.086118 0.099955 0.007888
0.083109 0.099464 0.004144
0.083710 0.099636 0.011788
0.085217 0.101670 0.008867
0.081904 0.101470 0.011935
0.085050 0.097878 0.011216
0.085286 0.101710 0.015816
0.091649 0.097480 0.011542
0.090091 0.101300 0.020503
0.089508 0.098351 0.016736
0.087158 0.097922 0.006758
0.090711 0.099472 0.012444
0.087513 0.100480 0.009953
0.087014 0.100250 0.016021
0.091235 0.098572 0.018983
0.088012 0.098561 0.015181
0.090264 0.101700 0.014243
0.089557 0.098769 0.010394
0.089008 0.100490 0.018424
0.088566 0.098109 0.008589
0.091675 0.102130 0.016220
0.096154 0.099936 0.019227
0.092079 0.101310 0.023296
0.094758 0.098040 0.026684
0.094804 0.101800 0.019509
0.094603 0.098220 0.023096
0.092545 0.100280 0.015370
0.094378 0.098950 0.029868
0.093251 0.099922 0.027024
0.093627 0.099285 0.024904
0.095533 0.097816 0.016398
0.096418 0.100580 0.030138
0.094879 0.099688 0.017504
0.092620 0.100870 0.029021
0.096709 0.101040 0.020972
0.093350 0.101320 0.017342
0.093155 0.097570 0.013396
0.092869 0.097450 0.019769
0.092285 0.099979 0.021622
0.100200 0.100900 0.023388
0.100850 0.100310 0.026087
0.098417 0.098784 0.020719
0.098349 0.100320 0.022164
0.098731 0.099738 0.029981
0.100360 0.098518 0.022416
0.099566 0.101950 0.026656
0.098287 0.097350 0.030009
0.100290 0.101240 0.028704
0.102420 0.098150 0.023104
0.102340 0.098494 0.026109
0.102190 0.098854 0.029195
-0.139160 0.103760 0.042059
-0.140250 0.102530 0.040691
-0.139590 0.102360 0.038594
-0.138960 0.104220 0.039443
-0.138690 0.104130 0.044488
-0.137630 0.105610 0.042526
-0.136170 0.106920 0.044797
-0.136890 0.104010 0.037866
-0.133750 0.104880 0.045642
-0.134570 0.104800 0.035567
-0.137500 0.105940 0.039173
-0.136160 0.103050 0.045803
-0.135530 0.105720 0.038148
-0.136070 0.103320 0.035789
-0.134340 0.103600 0.033671
-0.137320 0.105360 0.045667
-0.129790 0.104430 0.036528
-0.129770 0.103010 0.034593
-0.132760 0.104450 0.032569
-0.131730 0.103040 0.038688
-0.132160 0.102380 0.041520
-0.131360 0.104440 0.045481
-0.129380 0.105170 0.028806
-0.131630 0.102730 0.044211
-0.130530 0.105510 0.030859
-0.132490 0.103100 0.030410
-0.129610 0.105070 0.039550
-0.129720 0.103700 0.027352
-0.130680 0.106850 0.045437
-0.129180 0.105370 0.045032
-0.130430 0.104080 0.042025
-0.132010 0.106230 0.033896
-0.128560 0.105880 0.042904
-0.131340 0.102450 0.036063
-0.127960 0.106840 0.038373
-0.126970 0.106450 0.027139
-0.128040 0.103940 0.025307
-0.124670 0.102940 0.019281
-0.126140 0.102560 0.028886
-0.126430 0.105550 0.025185
-0.125450 0.104370 0.022251
-0.125690 0.105840 0.032632
-0.123870 0.106530 0.022912
-0.127730 0.104930 0.034293
-0.123900 0.107040 0.031716
-0.123370 0.104040 0.026964
-0.127620 0.106460 0.036200
-0.127580 0.102820 0.031268
-0.126650 0.102630 0.021633
-0.125760 0.104430 0.030846
-0.124520 0.104360 0.029008
-0.127000 0.103680 0.023511
-0.123050 0.105660 0.020605
-0.121460 0.103970 0.016162
-0.122620 0.104260 0.018147
-0.120250 0.102700 0.020760
-0.120900 0.104930 0.024666
-0.119160 0.105080 0.014398
-0.118790 0.106150 0.023321
-0.120810 0.106440 0.026549
-0.118660 0.103320 0.019348
-0.122760 0.102630 0.024214
-0.122800 0.106440 0.029360
-0.119980 0.103410 0.013341
-0.121110 0.105940 0.018287
-0.119990 0.104410 0.022679
-0.116850 0.107130 0.022079
-0.115460 0.104110 0.015938
-0.114720 0.102260 0.004491
-0.114460 0.103840 0.006440
-0.117090 0.104090 0.018183
-0.118080 0.104490 0.012125
-0.116240 0.104480 0.009578
-0.113990 0.106670 0.009936
-0.114610 0.104990 0.008282
-0.116000 0.105840 0.011246
-0.117600 0.105470 0.020739
-0.117870 0.102400 0.009052
-0.115770 0.105780 0.018768
-0.113940 0.103820 0.013620
-0.113800 0.106780 0.017753
-0.116210 0.103090 0.007654
-0.116560 0.102390 0.015143
-0.116940 0.106520 0.013398
-0.111640 0.106900 0.007365
-0.110420 0.105070 0.011042
-0.109280 0.102710 -0.001608
-0.110780 0.102640 0.000152
-0.112320 0.105170 0.013554
-0.113020 0.103570 0.004276
-0.113230 0.105930 0.015797
-0.111140 0.105020 0.004019
-0.109040 0.106780 0.003972
-0.112610 0.102580 0.002320
-0.112510 0.105290 0.006113
-0.110600 0.103700 0.009263
-0.112250 0.103890 0.011618
-0.110320 0.104150 0.001769
-0.108610 0.105420 0.009284
-0.110280 0.107140 0.013867
-0.109210 0.106760 0.011999
-0.108600 0.105280 0.001250
-0.106480 0.107050 0.001189
-0.106660 0.106670 0.008668
-0.103520 0.106610 -0.003129
-0.104450 0.105110 0.003630
-0.104300 0.102420 -0.000459
-0.107130 0.103090 -0.003498
-0.107290 0.105060 -0.000680
-0.105480 0.106440 0.006866
-0.105960 0.104810 0.005084
-0.103330 0.102340 -0.007413
-0.107420 0.103090 0.004431
-0.105400 0.105520 -0.002367
-0.104080 0.103830 0.001322
-0.103980 0.104200 -0.005094
-0.107960 0.103950 0.006330
-0.102320 0.105390 0.001398
-0.100910 0.104940 -0.001030
-0.098942 0.105600 -0.002373
-0.102450 0.102940 -0.002016
-0.102760 0.106510 0.003574
-0.101250 0.106080 -0.005592
-0.101460 0.104000 -0.007413
-0.099405 0.104910 -0.008222
-0.098455 0.104170 -0.004095
-0.095892 0.106190 -0.003935
-0.095554 0.105660 -0.009608
-0.097145 0.106900 -0.007853
-0.098008 0.103740 -0.009617
-0.096021 0.103050 -0.010838
-0.094477 0.104220 -0.006642
-0.093864 0.103980 -0.011238
-0.094305 0.105870 -0.005321
-0.096756 0.104110 -0.005311
-0.092367 0.106580 -0.005971
-0.090428 0.103500 -0.012960
-0.090835 0.105280 -0.011807
-0.088533 0.104090 -0.008998
-0.090263 0.106290 -0.007254
-0.091528 0.104070 -0.007856
-0.088309 0.104280 -0.013350
-0.093159 0.106650 -0.010075
-0.083866 0.102190 -0.011025
-0.085434 0.103870 -0.014205
-0.086087 0.102300 -0.010455
-0.084931 0.106950 -0.013359
-0.085350 0.105280 -0.009641
-0.085532 0.107160 -0.008654
-0.087411 0.106680 -0.012494
-0.078655 0.106200 -0.015057
-0.079165 0.104570 -0.011379
-0.083085 0.104120 -0.014707
-0.078845 0.102280 -0.012107
-0.080180 0.103320 -0.015607
-0.080688 0.106580 -0.014485
-0.082702 0.104370 -0.010681
-0.082262 0.106620 -0.010021
-0.081132 0.102740 -0.011485
-0.075639 0.103710 -0.012379
-0.073858 0.102330 -0.012879
-0.076700 0.106370 -0.011387
-0.075370 0.102810 -0.016767
-0.074506 0.105020 -0.016357
-0.077956 0.104030 -0.015887
-0.075682 0.106640 -0.015591
-0.074353 0.106330 -0.011903
-0.071066 0.102740 -0.013169
-0.071077 0.104110 -0.017142
-0.068378 0.102520 -0.013499
-0.069542 0.104760 -0.013136
-0.073106 0.103000 -0.017014
-0.072194 0.104630 -0.012842
-0.064349 0.106280 -0.013535
-0.065022 0.104280 -0.013674
-0.065620 0.102960 -0.017856
-0.065751 0.105110 -0.017616
-0.067446 0.105680 -0.013264
-0.068206 0.106420 -0.017216
-0.063517 0.102280 -0.014049
-0.067990 0.103300 -0.017566
-0.058478 0.103540 -0.014441
-0.060278 0.105330 -0.018181
-0.063192 0.105340 -0.017867
-0.061093 0.106790 -0.013831
-0.060804 0.102760 -0.018393
-0.060373 0.102640 -0.014314
-0.058924 0.105610 -0.014191
-0.061813 0.104220 -0.014027
-0.063129 0.102950 -0.018125
-0.056861 0.106470 -0.018408
-0.054076 0.106050 -0.014620
-0.056829 0.102360 -0.018856
-0.053442 0.103080 -0.019103
-0.058115 0.104510 -0.018499
-0.056620 0.106320 -0.014344
-0.055549 0.103230 -0.014639
-0.055007 0.105060 -0.018738
-0.049112 0.105460 -0.015070
-0.050930 0.103610 -0.019288
-0.051250 0.107040 -0.014784
-0.052884 0.105380 -0.018908
-0.049736 0.103180 -0.015030
-0.051976 0.104350 -0.014878
-0.047552 0.103390 -0.015177
-0.043520 0.105910 -0.019715
-0.045662 0.105950 -0.019529
-0.044751 0.105540 -0.015364
-0.044698 0.104070 -0.019728
-0.048044 0.104180 -0.019502
-0.046405 0.102710 -0.019614
-0.041507 0.105380 -0.019942
-0.043040 0.102330 -0.019841
-0.041007 0.104750 -0.015617
-0.038671 0.105990 -0.015773
-0.040034 0.102910 -0.020043
-0.038911 0.103610 -0.015759
-0.043016 0.103050 -0.015483
-0.040909 0.102490 -0.015625
-0.041403 0.107090 -0.015588
-0.036700 0.104630 -0.015907
-0.034871 0.102470 -0.016032
-0.033324 0.106650 -0.020473
-0.035050 0.106150 -0.016017
-0.033698 0.102770 -0.020470
-0.035907 0.106910 -0.020250
-0.037395 0.104000 -0.020220
-0.034907 0.104880 -0.020387
-0.029107 0.105010 -0.016418
-0.030861 0.104260 -0.020660
-0.032726 0.105590 -0.016174
-0.031078 0.102550 -0.016287
-0.025007 0.105900 -0.021053
-0.028081 0.106650 -0.020845
-0.024662 0.103630 -0.021078
-0.026376 0.104950 -0.016602
-0.028003 0.103140 -0.020853
-0.027784 0.106890 -0.016505
-0.020921 0.104080 -0.021329
-0.022821 0.104240 -0.016842
-0.022890 0.106620 -0.021194
-0.018982 0.103080 -0.021461
-0.018967 0.105690 -0.017100
-0.022711 0.102680 -0.021210
-0.022878 0.106490 -0.016836
-0.018927 0.103140 -0.017105
-0.018996 0.106600 -0.021457
-0.013885 0.105340 -0.021802
-0.013631 0.102470 -0.021821
-0.015374 0.106590 -0.017341
-0.015624 0.103990 -0.021686
-0.015750 0.104080 -0.017318
-0.016866 0.105670 -0.021601
-0.010922 0.106160 -0.021986
-0.013125 0.104000 -0.017495
-0.012223 0.106200 -0.017554
-0.008703 0.103770 -0.017793
-0.009932 0.105540 -0.017709
-0.011216 0.103650 -0.021983
-0.010767 0.102990 -0.017655
-0.005601 0.104550 -0.022361
-0.007555 0.105630 -0.022212
-0.004173 0.106190 -0.018096
-0.007735 0.102990 -0.022218
-0.007140 0.102360 -0.017899
-0.006675 0.106840 -0.017927
-0.003532 0.102760 -0.018142
-0.006034 0.104140 -0.017972
-0.002992 0.107080 -0.022281
-0.000066 0.105710 -0.018373
-0.000606 0.103150 -0.018339
0.001165 0.104290 -0.022758
-0.001933 0.106760 -0.018246
-0.001980 0.104370 -0.022605
0.000202 0.106390 -0.022495
0.002341 0.107090 -0.018417
0.005142 0.103430 -0.023005
0.002633 0.102420 -0.022917
0.006722 0.105160 -0.018795
0.005395 0.103370 -0.018743
0.003674 0.106230 -0.022646
0.001885 0.104050 -0.018506
0.004866 0.106720 -0.018554
0.003470 0.102410 -0.018614
0.010409 0.107050 -0.018729
0.011311 0.105130 -0.018959
0.009267 0.103640 -0.019003
0.011079 0.106320 -0.022913
0.010182 0.103730 -0.023158
0.007659 0.103140 -0.023133
0.006964 0.105790 -0.022820
0.013324 0.106060 -0.018915
0.013649 0.107070 -0.022906
0.016217 0.102390 -0.023464
0.015466 0.103930 -0.019199
0.015995 0.105530 -0.023130
0.012837 0.102920 -0.019234
0.013992 0.103280 -0.023310
0.012322 0.104540 -0.023133
0.018822 0.104450 -0.019234
0.017136 0.105780 -0.019048
0.020891 0.104480 -0.023376
0.020677 0.106590 -0.023060
0.021068 0.104710 -0.019267
0.018171 0.103660 -0.023386
0.019600 0.107080 -0.018902
0.017228 0.102770 -0.019369
0.018175 0.106220 -0.023119
0.025834 0.103370 -0.019495
0.022997 0.105060 -0.023367
0.024145 0.103080 -0.023583
0.023774 0.102660 -0.019533
0.023788 0.105140 -0.019249
0.022747 0.107020 -0.018774
0.026294 0.105880 -0.022864
0.031360 0.106320 -0.022291
0.026842 0.103690 -0.023482
0.030235 0.104060 -0.019064
0.028803 0.106070 -0.022590
0.030631 0.103420 -0.023232
0.026897 0.106540 -0.018619
0.029080 0.105760 -0.018674
0.031369 0.106860 -0.018190
0.035925 0.105640 -0.022103
0.033149 0.102650 -0.019241
0.032971 0.104740 -0.022631
0.035790 0.103280 -0.022813
0.033397 0.102480 -0.023278
0.035541 0.103940 -0.018696
0.035579 0.106280 -0.017909
0.033406 0.105860 -0.018316
0.041647 0.102670 -0.018250
0.040185 0.107060 -0.020644
0.040928 0.105090 -0.017283
0.037983 0.106190 -0.021695
0.038784 0.102610 -0.022651
0.038291 0.104330 -0.018269
0.040442 0.107110 -0.016452
0.039993 0.104430 -0.021993
0.041805 0.105130 -0.021210
0.045842 0.103540 -0.020943
0.044159 0.106800 -0.019698
0.045639 0.102820 -0.017230
0.043770 0.103030 -0.021775
0.045060 0.106870 -0.015080
0.046082 0.104790 -0.016201
0.042934 0.104550 -0.017061
0.044196 0.104840 -0.020711
0.046599 0.105920 -0.019491
0.049188 0.105930 -0.018783
0.049526 0.103980 -0.015376
0.051726 0.106620 -0.011593
0.050709 0.103620 -0.019576
0.051371 0.102810 -0.015430
0.048690 0.104060 -0.019895
0.047096 0.106060 -0.014768
0.049724 0.107070 -0.012575
0.050778 0.105220 -0.013659
0.051529 0.105490 -0.018096
0.053561 0.105420 -0.016977
0.054830 0.106350 -0.015369
0.056036 0.103640 -0.011534
0.054225 0.103100 -0.018560
0.052879 0.103450 -0.014033
0.053080 0.105050 -0.012582
0.056228 0.103030 -0.017349
0.055893 0.105480 -0.009359
0.055806 0.106950 -0.007602
0.054262 0.106810 -0.009240
0.060878 0.103470 -0.013860
0.059691 0.102720 -0.009209
0.058581 0.106910 -0.011734
0.059707 0.106590 -0.004339
0.057281 0.105270 -0.014747
0.057809 0.105060 -0.008071
0.060624 0.105850 -0.011135
0.061477 0.104180 -0.005677
0.058821 0.105470 -0.013308
0.057740 0.106740 -0.006022
0.058995 0.103880 -0.014862
0.057611 0.103570 -0.010126
0.059483 0.104830 -0.006756
0.066456 0.103350 -0.008741
0.063140 0.104660 -0.010243
0.064984 0.102790 -0.010829
0.064685 0.106080 -0.000241
0.063706 0.104750 -0.002844
0.064539 0.105340 -0.008061
0.066412 0.105170 -0.006512
0.063781 0.102530 -0.005559
0.062879 0.103300 -0.012184
0.062577 0.106770 -0.008143
0.065713 0.104530 -0.001203
0.061899 0.105730 -0.003324
0.062576 0.106880 -0.001232
0.069545 0.106390 -0.002018
0.067646 0.103800 -0.000295
0.069745 0.104990 -0.003585
0.068800 0.105730 0.003242
0.068494 0.103390 -0.006770
0.066922 0.102920 -0.002081
0.070958 0.103140 0.002121
0.069422 0.107020 0.005469
0.066774 0.105400 0.000906
0.070827 0.102280 -0.005728
0.071673 0.105540 -0.001074
0.067940 0.105640 -0.004480
0.069494 0.102940 0.000395
0.073496 0.104710 -0.000145
0.071913 0.103360 -0.003349
0.073879 0.104130 0.006363
0.073387 0.103030 0.004591
0.073575 0.106090 0.001486
0.074780 0.102740 -0.001005
0.075625 0.103970 0.008053
0.073820 0.105720 0.008104
0.075430 0.105510 0.009594
0.071918 0.104640 0.004836
0.075271 0.105410 0.002516
0.076536 0.105910 0.004426
0.075262 0.103980 0.000904
0.072278 0.105760 0.006601
0.080549 0.103300 0.005752
0.079944 0.106410 0.015436
0.080979 0.103220 0.012932
0.078195 0.107100 0.007517
0.079067 0.103330 0.004201
0.076892 0.106690 0.012491
0.077430 0.103410 0.009345
0.077179 0.105160 0.011058
0.078738 0.106000 0.013687
0.081150 0.104570 0.014647
0.079325 0.102750 0.010622
0.077273 0.103680 0.002698
0.080806 0.105550 0.008557
0.079135 0.104400 0.012298
0.079393 0.105160 0.006618
0.085832 0.106610 0.015078
0.083729 0.103110 0.015747
0.083200 0.106720 0.019288
0.083907 0.103870 0.009950
0.086011 0.102780 0.010943
0.083876 0.106950 0.013373
0.082523 0.105490 0.010303
0.082803 0.102560 0.007292
0.084419 0.104730 0.018330
0.084992 0.106260 0.020686
0.084306 0.105140 0.011802
0.082375 0.105060 0.016512
0.086426 0.104140 0.019804
0.086048 0.104290 0.012698
0.087941 0.104640 0.021989
0.088549 0.104750 0.024270
0.087783 0.102700 0.012738
0.089923 0.103400 0.015807
0.087185 0.106470 0.029775
0.091068 0.105450 0.019332
0.087237 0.102350 0.018638
0.087148 0.106320 0.023058
0.089200 0.104270 0.027006
0.089591 0.104980 0.017228
0.087312 0.106100 0.026233
0.091092 0.102530 0.029243
0.089342 0.104460 0.030174
0.090861 0.106190 0.030517
0.090045 0.103090 0.022492
0.087729 0.104930 0.015204
0.091178 0.102230 0.026129
0.093646 0.103990 0.030327
0.092501 0.103150 0.018264
0.095906 0.106480 0.029389
0.091816 0.106380 0.021169
0.094628 0.103690 0.021195
0.095048 0.102410 0.030232
0.095941 0.106240 0.026242
0.093356 0.106130 0.030349
0.094711 0.105100 0.022795
0.096852 0.105140 0.024687
0.097709 0.102780 0.022617
0.098738 0.102810 0.024636
0.098710 0.102980 0.029681
0.097792 0.104150 0.026893
0.096859 0.104100 0.030111
-0.135440 0.108000 0.039719
-0.133970 0.109390 0.040538
-0.134070 0.107300 0.045665
-0.135930 0.107330 0.042207
-0.133700 0.107380 0.037789
-0.134730 0.108410 0.043874
-0.130040 0.111160 0.037675
-0.129400 0.107330 0.031719
-0.131100 0.111130 0.045424
-0.131690 0.108530 0.036502
-0.133200 0.109770 0.045122
-0.129890 0.108500 0.033947
-0.132360 0.111050 0.039910
-0.129350 0.108960 0.045349
-0.132870 0.110330 0.042875
-0.131380 0.111890 0.042002
-0.132600 0.109960 0.038138
-0.129500 0.110160 0.035588
-0.126260 0.108390 0.036847
-0.123780 0.107870 0.024573
-0.125260 0.109480 0.038617
-0.127300 0.107740 0.029320
-0.125340 0.108400 0.027438
-0.127850 0.111500 0.035071
-0.123510 0.110690 0.027939
-0.124800 0.110680 0.029719
-0.127570 0.109530 0.032067
-0.126100 0.109470 0.045131
-0.123980 0.109890 0.035661
-0.125410 0.107480 0.034437
-0.126800 0.112000 0.045180
-0.125900 0.110990 0.031665
-0.126760 0.107860 0.040397
-0.124840 0.109710 0.041373
-0.126730 0.107620 0.044188
-0.123600 0.110770 0.044263
-0.119070 0.107450 0.017417
-0.118490 0.111880 0.023046
-0.121950 0.108620 0.031089
-0.122800 0.111780 0.040770
-0.119020 0.107510 0.025471
-0.123020 0.108910 0.032983
-0.120120 0.111890 0.033098
-0.122180 0.108940 0.023755
-0.119460 0.110440 0.030157
-0.118520 0.110300 0.020807
-0.123060 0.109690 0.025967
-0.120830 0.110600 0.024111
-0.120440 0.107830 0.019861
-0.123210 0.111670 0.037933
-0.121040 0.107620 0.028463
-0.118790 0.109690 0.028220
-0.120620 0.109160 0.021858
-0.121540 0.111500 0.026270
-0.120800 0.110370 0.031814
-0.122260 0.107590 0.022063
-0.113570 0.108820 0.020452
-0.115700 0.108090 0.014112
-0.116360 0.110180 0.025899
-0.113660 0.110210 0.022593
-0.117420 0.109590 0.018414
-0.116330 0.111480 0.027773
-0.113760 0.108880 0.012864
-0.115620 0.110920 0.018106
-0.115600 0.109670 0.016285
-0.117670 0.111930 0.030106
-0.115800 0.109090 0.023624
-0.113620 0.112090 0.017323
-0.117700 0.107350 0.015538
-0.114940 0.107310 0.019953
-0.109790 0.110590 0.010408
-0.110010 0.110470 0.018392
-0.112690 0.110450 0.013799
-0.111990 0.108700 0.018300
-0.113120 0.111840 0.024274
-0.109530 0.109450 0.008445
-0.110320 0.108400 0.015770
-0.111120 0.111890 0.021859
-0.108670 0.109810 0.015774
-0.112380 0.111820 0.015394
-0.112210 0.108830 0.010861
-0.111640 0.110410 0.020359
-0.110630 0.111140 0.012252
-0.107450 0.109130 0.013250
-0.103930 0.107600 -0.001180
-0.106890 0.110940 0.015176
-0.104950 0.109350 0.010446
-0.107420 0.107590 0.010959
-0.107080 0.110560 0.006995
-0.104540 0.108520 0.000903
-0.104450 0.109850 0.002727
-0.106160 0.108520 0.002916
-0.105650 0.110190 0.012528
-0.108200 0.108460 0.005365
-0.105570 0.110710 0.005338
-0.104450 0.108070 0.007953
-0.108190 0.112170 0.010707
-0.103850 0.111330 0.004109
-0.103390 0.107310 0.005524
-0.103900 0.111460 0.012194
-0.102650 0.110810 0.009726
-0.099800 0.110820 0.006659
-0.099263 0.109010 -0.004139
-0.100990 0.109470 -0.001877
-0.101210 0.109200 0.005660
-0.101830 0.111310 0.001875
-0.098345 0.107700 0.000247
-0.099417 0.107310 -0.005766
-0.100290 0.107530 0.002072
-0.098407 0.110770 -0.002613
-0.102510 0.109700 0.000121
-0.101250 0.108010 0.003878
-0.101540 0.107800 -0.003715
-0.099523 0.112160 0.008443
-0.102710 0.109510 0.007867
-0.094302 0.108610 -0.008189
-0.093944 0.110250 -0.000547
-0.095570 0.111850 0.003694
-0.095855 0.108510 -0.001181
-0.094117 0.108430 -0.003027
-0.094733 0.111190 0.001766
-0.095521 0.110910 -0.004942
-0.097893 0.109780 0.002991
-0.096872 0.108580 -0.006322
-0.093459 0.110230 -0.007140
-0.096223 0.109490 0.000750
-0.098098 0.110820 0.004840
-0.091604 0.110710 -0.008007
-0.092947 0.111720 0.000681
-0.088295 0.110300 -0.010132
-0.089647 0.111210 -0.003453
-0.092114 0.108320 -0.004495
-0.091412 0.110900 -0.002258
-0.090227 0.109400 -0.004766
-0.089698 0.112170 -0.007919
-0.088804 0.108310 -0.011013
-0.090595 0.109630 -0.009532
-0.090895 0.107460 -0.010593
-0.087661 0.109990 -0.005949
-0.083531 0.108520 -0.008619
-0.084946 0.110120 -0.007319
-0.085534 0.109380 -0.011732
-0.086652 0.111780 -0.004830
-0.087935 0.107910 -0.007357
-0.083714 0.108710 -0.012784
-0.081255 0.108490 -0.013765
-0.080173 0.112010 -0.012148
-0.078797 0.110460 -0.009185
-0.078814 0.108190 -0.014408
-0.082770 0.110530 -0.012066
-0.082413 0.111830 -0.007233
-0.079933 0.107990 -0.010088
-0.080224 0.111980 -0.007924
-0.081532 0.109510 -0.008772
-0.079984 0.110210 -0.013267
-0.075686 0.111450 -0.009699
-0.076414 0.109610 -0.010413
-0.075389 0.108800 -0.014991
-0.075112 0.108190 -0.011207
-0.078107 0.111960 -0.012932
-0.073858 0.110390 -0.014840
-0.077879 0.108030 -0.010659
-0.077844 0.110180 -0.014012
-0.071766 0.111690 -0.010791
-0.071020 0.111010 -0.015210
-0.072981 0.109430 -0.011304
-0.070101 0.109850 -0.011724
-0.070028 0.107570 -0.016514
-0.070796 0.107700 -0.012242
-0.072113 0.107990 -0.015977
-0.068288 0.111450 -0.011576
-0.069064 0.109690 -0.016010
-0.067246 0.111330 -0.015830
-0.065298 0.107350 -0.017431
-0.066107 0.110980 -0.012113
-0.066852 0.108620 -0.016783
-0.064008 0.111200 -0.012430
-0.064569 0.110060 -0.016753
-0.067623 0.109170 -0.012378
-0.065017 0.112080 -0.016014
-0.065254 0.109070 -0.012841
-0.061671 0.109700 -0.017422
-0.058346 0.109980 -0.017884
-0.060937 0.111630 -0.012861
-0.063048 0.108480 -0.013422
-0.063151 0.107470 -0.017648
-0.059296 0.107440 -0.018066
-0.060515 0.109520 -0.013570
-0.056668 0.111310 -0.017740
-0.056015 0.109130 -0.018201
-0.054897 0.107360 -0.018500
-0.058100 0.108820 -0.013927
-0.055218 0.107920 -0.014304
-0.053939 0.110340 -0.018270
-0.055101 0.110200 -0.014065
-0.051235 0.107940 -0.018790
-0.050908 0.110340 -0.014454
-0.048393 0.111430 -0.018685
-0.048384 0.108430 -0.014909
-0.052971 0.109710 -0.014324
-0.048826 0.107190 -0.019103
-0.051480 0.111760 -0.018353
-0.049469 0.112020 -0.014409
-0.048917 0.109280 -0.018868
-0.047052 0.111570 -0.014686
-0.043309 0.109380 -0.019349
-0.046601 0.108560 -0.019161
-0.045059 0.110620 -0.014962
-0.046156 0.112110 -0.018806
-0.044031 0.107590 -0.015390
-0.046085 0.108510 -0.015111
-0.044065 0.111620 -0.019038
-0.038284 0.108150 -0.019911
-0.039484 0.110530 -0.019547
-0.042602 0.111260 -0.015098
-0.040070 0.109010 -0.015566
-0.042464 0.108980 -0.015367
-0.041952 0.111670 -0.019211
-0.041640 0.107890 -0.019655
-0.034359 0.109030 -0.016037
-0.033533 0.111610 -0.015805
-0.038024 0.111180 -0.015497
-0.036388 0.111410 -0.019712
-0.036396 0.108180 -0.015924
-0.036371 0.109110 -0.019967
-0.034239 0.110790 -0.019944
-0.036073 0.110330 -0.015759
-0.030161 0.111250 -0.016094
-0.029958 0.107730 -0.016358
-0.031367 0.110740 -0.020160
-0.032796 0.108860 -0.020264
-0.031516 0.109280 -0.016217
-0.029485 0.108940 -0.020498
-0.028809 0.111660 -0.020244
-0.031304 0.107350 -0.020543
-0.027454 0.109530 -0.016486
-0.024169 0.109120 -0.016747
-0.024773 0.111140 -0.020597
-0.025716 0.107330 -0.016644
-0.024472 0.108870 -0.020873
-0.027954 0.111910 -0.016181
-0.027080 0.110290 -0.020524
-0.023416 0.111090 -0.016600
-0.021467 0.109880 -0.016856
-0.020939 0.107750 -0.016966
-0.022450 0.110280 -0.020843
-0.019297 0.110700 -0.016896
-0.020074 0.110670 -0.020945
-0.020685 0.108490 -0.021151
-0.017132 0.108090 -0.021414
-0.014167 0.112160 -0.021142
-0.016333 0.110700 -0.021172
-0.018050 0.108070 -0.017160
-0.015946 0.111510 -0.017011
-0.015035 0.107730 -0.021584
-0.015469 0.109020 -0.017322
-0.010936 0.109370 -0.017543
-0.008273 0.108430 -0.021867
-0.012978 0.108420 -0.021633
-0.008386 0.110390 -0.017555
-0.012652 0.110960 -0.017275
-0.012963 0.108720 -0.017502
-0.009436 0.107890 -0.017740
-0.011819 0.110640 -0.021447
-0.009398 0.110630 -0.021569
-0.005118 0.110470 -0.021800
-0.005201 0.107960 -0.022073
-0.004912 0.110580 -0.017706
-0.004475 0.108490 -0.017962
-0.003323 0.111800 -0.021743
-0.007645 0.112150 -0.021489
-0.000732 0.109530 -0.018032
0.000019 0.109750 -0.022126
-0.002645 0.109720 -0.022007
-0.001705 0.111670 -0.017744
0.000708 0.111790 -0.017840
0.006586 0.107970 -0.018482
0.002483 0.110200 -0.018081
0.004884 0.109320 -0.018269
0.005367 0.108500 -0.022467
0.006642 0.111720 -0.017948
0.002506 0.111760 -0.022005
0.002111 0.108560 -0.022335
0.004767 0.110980 -0.022177
0.009881 0.109300 -0.018462
0.008956 0.111460 -0.017994
0.009400 0.112050 -0.021848
0.007348 0.109290 -0.022458
0.010728 0.110300 -0.022397
0.008748 0.107580 -0.022697
0.007350 0.111600 -0.022040
0.015455 0.107730 -0.018796
0.015567 0.110680 -0.022037
0.012517 0.109020 -0.022671
0.015679 0.107890 -0.022876
0.012945 0.112070 -0.021737
0.013065 0.111830 -0.017800
0.012602 0.108500 -0.018638
0.014430 0.109780 -0.018342
0.017842 0.111000 -0.021813
0.020843 0.110440 -0.017853
0.021463 0.110880 -0.021651
0.017205 0.110630 -0.017962
0.018836 0.108980 -0.018375
0.018856 0.108280 -0.022622
0.023430 0.112020 -0.017184
0.025560 0.108930 -0.018048
0.025053 0.110390 -0.021605
0.023489 0.111820 -0.021242
0.022722 0.109070 -0.018171
0.025403 0.107780 -0.022367
0.023002 0.107640 -0.022599
0.027647 0.108500 -0.018010
0.027128 0.110890 -0.017185
0.030479 0.111780 -0.020259
0.027537 0.108590 -0.021935
0.029621 0.110790 -0.016770
0.030879 0.109120 -0.017369
0.027879 0.111260 -0.021096
0.031328 0.109770 -0.021199
0.035959 0.109950 -0.020091
0.033290 0.110740 -0.020231
0.034084 0.107950 -0.017354
0.033908 0.110770 -0.015975
0.034107 0.107220 -0.021780
0.035794 0.108920 -0.016545
0.036451 0.107560 -0.021317
0.040664 0.109020 -0.019485
0.037814 0.108930 -0.020257
0.041276 0.110950 -0.018313
0.037313 0.110150 -0.015644
0.038662 0.110550 -0.019173
0.037722 0.107310 -0.016990
0.037884 0.112170 -0.013748
0.040484 0.111580 -0.013231
0.040565 0.109390 -0.015131
0.044166 0.110370 -0.017506
0.046652 0.110960 -0.015602
0.044887 0.108640 -0.013624
0.046289 0.109840 -0.011662
0.042541 0.110260 -0.013383
0.044551 0.111220 -0.011202
0.044610 0.111920 -0.015809
0.043113 0.108900 -0.018882
0.042423 0.107550 -0.015772
0.045917 0.108240 -0.018464
0.051383 0.110200 -0.013752
0.051693 0.107940 -0.009806
0.047667 0.107650 -0.013097
0.050507 0.107900 -0.016389
0.048236 0.109620 -0.010354
0.050002 0.110820 -0.007263
0.047653 0.108570 -0.017301
0.048613 0.110650 -0.014831
0.047506 0.111200 -0.008800
0.050518 0.109400 -0.008786
0.055606 0.110730 -0.002774
0.056405 0.107860 -0.012608
0.053398 0.107800 -0.014906
0.052917 0.108650 -0.007835
0.053727 0.112110 -0.009250
0.056571 0.111700 -0.000664
0.055238 0.110540 -0.010147
0.055984 0.108210 -0.005842
0.053412 0.110980 -0.004232
0.051845 0.110380 -0.006350
0.054016 0.109230 -0.006137
0.053935 0.109700 -0.012352
0.055809 0.112050 -0.007628
0.052169 0.111280 -0.011645
0.060277 0.112100 0.003133
0.058138 0.109690 -0.001935
0.057653 0.108310 -0.004130
0.060845 0.110580 -0.005021
0.057718 0.110450 -0.008145
0.060469 0.108500 -0.007966
0.058892 0.112170 -0.004875
0.058885 0.108120 -0.009936
0.059493 0.109990 -0.000264
0.061723 0.109400 0.001124
0.056960 0.108900 -0.010793
0.060135 0.108410 -0.001646
0.058771 0.111950 0.001516
0.065897 0.111600 0.001018
0.065271 0.110280 0.005602
0.066115 0.108650 0.004363
0.064684 0.107310 -0.005473
0.063354 0.107770 0.000618
0.064109 0.111760 -0.000465
0.062627 0.111220 0.004268
0.064206 0.109270 -0.003474
0.065208 0.107830 0.002459
0.062477 0.110950 -0.003010
0.065657 0.111670 0.007717
0.063451 0.109160 0.002461
0.062037 0.109020 -0.005841
0.069638 0.110310 0.009796
0.070441 0.108050 0.000895
0.067870 0.108830 0.006248
0.071498 0.109950 0.011127
0.071498 0.109240 0.003383
0.067197 0.107710 -0.002605
0.069754 0.110530 0.003342
0.067887 0.110780 0.001888
0.071246 0.107890 0.008279
0.071664 0.111340 0.013037
0.067102 0.109080 -0.000983
0.068796 0.109530 0.008024
0.071737 0.110470 0.005135
0.067482 0.111230 0.008903
0.073347 0.107230 0.009462
0.073451 0.108050 0.003733
0.076009 0.108360 0.013449
0.076274 0.107800 0.006278
0.074638 0.110570 0.014903
0.074252 0.111720 0.009069
0.074493 0.108130 0.011686
0.073076 0.111120 0.007215
0.075562 0.112160 0.017787
0.076593 0.109470 0.015387
0.074451 0.109420 0.006398
0.076110 0.110780 0.009668
0.073445 0.109710 0.012679
0.075992 0.109480 0.007927
0.081432 0.111790 0.016251
0.080599 0.109750 0.013061
0.079761 0.108490 0.010755
0.078014 0.109170 0.009656
0.080605 0.110350 0.020633
0.080308 0.111290 0.014483
0.081455 0.112180 0.029728
0.078643 0.109400 0.017444
0.080377 0.108420 0.018194
0.078095 0.107810 0.015056
0.078648 0.110750 0.012116
0.083921 0.110000 0.030654
0.085302 0.108700 0.016866
0.081992 0.110720 0.022532
0.084309 0.109220 0.028104
0.082094 0.107300 0.011886
0.084695 0.108150 0.022503
0.085551 0.108180 0.030248
0.082925 0.108590 0.021114
0.085244 0.110820 0.019200
0.084087 0.112150 0.030978
0.082691 0.110000 0.015564
0.085803 0.107630 0.026518
0.082407 0.111060 0.027002
0.086435 0.110730 0.030818
0.083270 0.111210 0.017542
0.082242 0.111060 0.024732
0.084135 0.109250 0.025829
0.083866 0.109740 0.023737
0.087406 0.107250 0.017461
0.088905 0.107790 0.019667
0.089412 0.107750 0.030615
0.089123 0.110070 0.022474
0.091035 0.110900 0.023622
0.091556 0.110650 0.026461
0.086768 0.109170 0.018946
0.087228 0.110990 0.021487
0.090316 0.108360 0.021799
0.090641 0.110710 0.030528
0.088596 0.110040 0.030672
0.090135 0.112010 0.025731
0.094403 0.107340 0.023136
0.091966 0.108460 0.030444
0.092255 0.107520 0.022914
0.093855 0.108540 0.029460
0.092990 0.109080 0.024470
0.092270 0.110100 0.029000
0.093632 0.108620 0.027281
-0.129310 0.112630 0.045341
-0.128990 0.114460 0.038462
-0.130390 0.113050 0.039316
-0.128680 0.114510 0.043052
-0.128630 0.114740 0.040557
-0.124000 0.112910 0.044992
-0.126040 0.116580 0.044962
-0.123890 0.113340 0.031969
-0.127260 0.116020 0.041662
-0.126170 0.113080 0.034814
-0.124860 0.115710 0.036480
-0.127610 0.114010 0.045236
-0.123420 0.112420 0.030104
-0.127350 0.113160 0.036573
-0.127320 0.116140 0.038358
-0.124450 0.114290 0.034020
-0.120030 0.113130 0.026761
-0.121050 0.113560 0.037950
-0.121550 0.116310 0.033231
-0.119100 0.114810 0.043247
-0.121070 0.113340 0.041051
-0.119110 0.114980 0.028279
-0.118760 0.113500 0.033763
-0.120580 0.115200 0.030444
-0.121350 0.113130 0.028397
-0.118660 0.116860 0.030460
-0.118770 0.112970 0.024985
-0.119810 0.114510 0.036542
-0.121710 0.112380 0.035811
-0.120990 0.113280 0.043242
-0.122840 0.115580 0.044916
-0.122840 0.116530 0.035156
-0.119560 0.114620 0.040109
-0.120370 0.116010 0.044750
-0.116400 0.116980 0.043662
-0.114140 0.116060 0.023698
-0.114040 0.113860 0.028365
-0.114490 0.115570 0.031446
-0.117810 0.116540 0.037010
-0.115120 0.112520 0.019802
-0.116530 0.114730 0.032751
-0.116470 0.117150 0.039411
-0.117710 0.115260 0.035015
-0.114650 0.116690 0.033282
-0.117730 0.116060 0.040736
-0.113600 0.112720 0.026154
-0.116070 0.115010 0.024575
-0.115430 0.113840 0.030096
-0.115990 0.116740 0.035004
-0.117180 0.115780 0.027071
-0.113670 0.115090 0.021713
-0.116380 0.112820 0.021799
-0.108580 0.116280 0.025075
-0.108330 0.112480 0.019233
-0.111390 0.113540 0.016636
-0.111870 0.114570 0.018716
-0.109290 0.116000 0.017590
-0.108990 0.113630 0.021715
-0.110570 0.112430 0.014023
-0.111000 0.116640 0.028618
-0.109260 0.114420 0.015287
-0.112300 0.114600 0.027281
-0.110460 0.115470 0.026258
-0.111630 0.113790 0.025248
-0.109470 0.114670 0.023839
-0.112390 0.116690 0.030446
-0.110530 0.116530 0.019888
-0.105010 0.115720 0.019913
-0.107000 0.114700 0.020783
-0.107970 0.113720 0.012670
-0.107460 0.115250 0.014248
-0.104800 0.115150 0.010969
-0.106370 0.113060 0.017623
-0.105100 0.116160 0.012854
-0.105310 0.112470 0.015440
-0.105480 0.112850 0.008315
-0.104240 0.114950 0.017882
-0.106250 0.113540 0.010268
-0.106090 0.116260 0.021939
-0.107730 0.115690 0.023152
-0.099230 0.113970 0.010936
-0.102440 0.116060 0.017666
-0.102730 0.112900 0.005287
-0.102990 0.113000 0.013505
-0.098898 0.112360 0.000350
-0.100890 0.114540 0.005857
-0.100970 0.113300 0.004030
-0.102250 0.116370 0.010126
-0.103190 0.116770 0.019600
-0.099403 0.116290 0.006965
-0.101920 0.115080 0.007778
-0.102760 0.114770 0.016011
-0.099795 0.112910 0.002166
-0.100680 0.116610 0.016636
-0.101300 0.112260 0.010528
-0.099363 0.115180 0.012965
-0.101250 0.113530 0.012457
-0.100880 0.115100 0.014479
-0.093740 0.114590 0.005984
-0.098129 0.115410 0.004230
-0.096509 0.113470 -0.000494
-0.096591 0.114660 0.009174
-0.096644 0.115420 0.002672
-0.094822 0.115820 0.009068
-0.095756 0.113280 0.006136
-0.097036 0.116490 0.012495
-0.094546 0.115930 0.001197
-0.093627 0.112940 0.003308
-0.093884 0.114500 -0.001718
-0.097786 0.112620 0.007289
-0.095267 0.116960 0.011332
-0.096184 0.112290 -0.002649
-0.097932 0.113840 0.001605
-0.092057 0.115680 -0.001846
-0.089763 0.113890 -0.006111
-0.092828 0.112940 -0.004835
-0.090574 0.115170 0.003466
-0.091365 0.114950 -0.003710
-0.092534 0.116900 0.000542
-0.090968 0.112870 0.000331
-0.089008 0.113940 -0.000129
-0.092800 0.116090 0.007308
-0.088853 0.115160 0.001670
-0.091842 0.113500 0.002241
-0.089612 0.116520 -0.003038
-0.091247 0.116000 0.005490
-0.087788 0.114920 -0.006286
-0.085614 0.113470 -0.003756
-0.084489 0.112470 -0.010320
-0.087116 0.116870 0.002903
-0.083416 0.116490 -0.007296
-0.084492 0.115270 -0.002075
-0.087612 0.112530 -0.008981
-0.085295 0.116490 -0.006142
-0.083515 0.114190 -0.004233
-0.088034 0.113120 -0.002399
-0.084621 0.116370 -0.000151
-0.084233 0.112610 -0.005406
-0.087183 0.115130 0.000141
-0.085476 0.114160 -0.008535
-0.080548 0.114960 -0.010311
-0.079960 0.113970 -0.006507
-0.081718 0.112990 -0.011024
-0.078459 0.116260 -0.005085
-0.082825 0.115060 -0.009211
-0.082578 0.116560 -0.001670
-0.081849 0.115510 -0.003891
-0.076984 0.114040 -0.012135
-0.074838 0.114630 -0.012567
-0.077808 0.112620 -0.008396
-0.074456 0.116480 -0.007093
-0.073502 0.113100 -0.009548
-0.074654 0.114640 -0.008391
-0.077779 0.115790 -0.010831
-0.076008 0.112450 -0.013407
