ply
format ascii 1.0
element vertex 1750
property float x
property float y
property float z
end_header
0.286820 -0.008011 0.014762
0.286810 -0.005980 0.028408
0.291240 -0.005982 0.030752
0.291280 -0.005974 0.021532
0.289680 -0.009062 0.035193
0.288260 -0.006097 0.033569
0.289110 -0.005968 0.020523
0.289330 -0.005969 0.022993
0.288080 -0.010718 0.035297
0.291770 -0.009093 0.014132
0.294660 -0.005980 0.026611
0.293460 -0.005973 0.022094
0.294710 -0.006032 0.033042
0.294490 -0.005979 0.030029
0.294970 -0.007859 0.034842
0.296350 -0.005976 0.028110
0.294180 -0.005978 0.014872
0.292540 -0.006928 0.034462
0.292280 -0.009228 0.035020
0.293170 -0.005969 0.024400
0.292290 -0.005976 0.028896
0.294590 -0.009362 0.013719
0.295590 -0.005972 0.021708
0.295430 -0.010069 0.034809
0.294870 -0.005972 0.018896
0.296530 -0.005984 0.030598
0.292990 -0.005967 0.019923
0.293910 -0.005962 0.016966
0.296690 -0.010102 0.013411
0.297150 -0.007708 0.013346
0.296880 -0.005910 0.015374
0.296830 -0.005973 0.025835
0.297530 -0.005900 0.023586
0.297020 -0.006610 0.033711
0.300010 -0.007525 0.034506
0.297990 -0.009714 0.034639
0.301040 -0.007842 0.012752
0.300450 -0.009667 0.034475
0.298680 -0.009273 0.013121
0.297210 -0.005900 0.019059
0.306550 -0.006040 0.034073
0.303940 -0.009843 0.012244
0.306570 -0.008911 0.034070
0.303980 -0.008795 0.034242
0.304960 -0.006374 0.012060
0.302500 -0.010717 0.034338
0.303330 -0.007710 0.012355
0.311420 -0.009302 0.033667
0.307020 -0.009656 0.011663
0.308830 -0.009561 0.033920
0.309320 -0.006220 0.033890
0.308470 -0.008176 0.011367
0.310520 -0.006723 0.011079
0.309850 -0.010238 0.011327
0.313320 -0.007911 0.012942
0.315970 -0.006052 0.020945
0.315650 -0.008862 0.031866
0.314830 -0.009456 0.021286
0.314360 -0.010495 0.030164
0.313250 -0.010755 0.018120
0.316040 -0.008631 0.028630
0.315510 -0.007937 0.020017
0.315530 -0.008972 0.025354
0.314600 -0.010064 0.026975
0.316740 -0.006055 0.023396
0.314740 -0.006296 0.017099
0.316110 -0.008068 0.023252
0.314670 -0.009170 0.018040
0.313940 -0.009197 0.015378
0.313750 -0.010629 0.023206
0.314690 -0.007512 0.033331
0.314000 -0.010038 0.032586
0.317000 -0.007053 0.026976
0.317040 -0.007341 0.030273
0.138830 -0.004732 0.019668
0.136980 -0.003055 0.026146
0.136800 -0.003255 0.023533
0.141110 -0.001422 -0.010116
0.136960 -0.000967 0.027058
0.141420 -0.001031 0.019497
0.136780 -0.005238 0.024859
0.140760 -0.005369 -0.010096
0.138660 -0.001025 0.019683
0.139020 -0.002548 -0.009976
0.140750 -0.003129 0.019541
0.141740 -0.005080 0.019473
0.143360 -0.005276 0.000665
0.144090 -0.003599 0.011509
0.142900 -0.005159 -0.006125
0.146190 -0.003421 0.021378
0.143160 -0.004792 -0.002223
0.145290 -0.001337 0.020803
0.143470 -0.001307 0.002303
0.142710 -0.004264 -0.008924
0.143230 -0.002765 -0.001299
0.143460 -0.003834 0.002303
0.143940 -0.005316 0.009433
0.143880 -0.003313 0.008443
0.144160 -0.005671 0.012605
0.143730 -0.003859 0.006241
0.144330 -0.004608 0.015083
0.144540 -0.005089 -0.010350
0.142940 -0.001629 -0.005514
0.143580 -0.001632 0.019351
0.142850 -0.001594 -0.012081
0.143530 -0.004809 -0.012460
0.143070 -0.002710 -0.003576
0.142810 -0.002393 -0.007460
0.143710 -0.000882 0.005866
0.146660 -0.005268 -0.011395
0.145160 -0.003422 -0.011931
0.144620 -0.005709 0.019412
0.143600 -0.002704 0.004325
0.144270 -0.002019 0.014199
0.149140 -0.001101 -0.010499
0.149050 -0.001804 -0.003421
0.149580 -0.002662 0.004477
0.149340 -0.002052 0.000959
0.148800 -0.001969 -0.007010
0.148880 -0.004711 -0.005939
0.150090 -0.002346 0.012047
0.147220 -0.001557 0.021609
0.149080 -0.004724 -0.003034
0.146900 -0.001993 -0.010506
0.150220 -0.002326 0.021830
0.149180 -0.002706 -0.001377
0.149980 -0.003866 0.010512
0.148680 -0.005388 0.021713
0.150190 -0.003937 0.013500
0.149520 -0.005116 0.003573
0.148730 -0.004419 -0.008287
0.149810 -0.005727 0.007888
0.148760 -0.004250 -0.010640
0.149250 -0.004574 -0.000413
0.149710 -0.001255 0.006448
0.151440 -0.001973 -0.009680
0.150810 -0.004211 -0.009905
0.149390 -0.004008 0.001772
0.149680 -0.004648 0.005891
0.156030 -0.005699 0.022255
0.152290 -0.003880 0.021981
0.155620 -0.003545 0.022228
0.155080 -0.001414 -0.008368
0.153770 -0.005515 0.022088
0.155930 -0.003686 -0.008069
0.155450 -0.001343 0.022216
0.152370 -0.001012 0.021989
0.153480 -0.004192 -0.008947
0.155140 -0.005854 -0.008354
0.157790 -0.003184 0.022388
0.159660 -0.003694 -0.006726
0.160710 -0.001729 -0.006350
0.159800 -0.004891 0.022536
0.165570 -0.003330 -0.004609
0.164100 -0.004536 0.022853
0.161840 -0.003711 -0.005946
0.161840 -0.003064 0.022687
0.166150 -0.001405 0.023008
0.166770 -0.004837 0.023049
0.169570 -0.003746 -0.003171
0.170240 -0.004817 0.023306
0.168210 -0.001809 0.023159
0.170530 -0.002679 0.023330
0.167290 -0.001014 -0.003991
0.167510 -0.004052 -0.003912
0.170270 -0.001779 -0.002920
0.173540 -0.003633 0.023552
0.174590 -0.001373 -0.001391
0.174710 -0.003978 -0.001356
0.175350 -0.002462 0.023686
0.172200 -0.001153 -0.002226
0.172290 -0.004306 -0.002201
0.181740 -0.004671 0.024790
0.180790 -0.005795 0.000532
0.177040 -0.005045 0.023937
0.181680 -0.000918 0.024782
0.179760 -0.003765 0.000214
0.177320 -0.003783 -0.000547
0.178500 -0.003166 0.024205
0.179650 -0.005371 0.024411
0.184940 -0.004684 0.001825
0.183800 -0.002800 0.025166
0.186340 -0.002652 0.025627
0.182700 -0.001926 0.001128
0.185980 -0.002376 0.002149
0.183030 -0.003991 0.001231
0.189930 -0.005367 0.026275
0.187690 -0.004758 0.002680
0.190460 -0.001717 0.003544
0.190920 -0.002316 0.026458
0.189000 -0.001360 0.026110
0.187160 -0.005028 0.025774
0.190250 -0.004382 0.003475
0.188780 -0.003497 0.026068
0.195870 -0.002946 0.027355
0.192980 -0.005851 0.026828
0.195570 -0.005178 0.027298
0.192060 -0.005588 0.004036
0.195780 -0.002044 0.005200
0.192380 -0.002300 0.004141
0.194410 -0.003785 0.004767
0.193030 -0.003203 0.026837
0.200630 -0.004286 0.028217
0.198530 -0.003320 0.027837
0.200190 -0.000874 0.006567
0.198990 -0.005798 0.027916
0.198170 -0.002385 0.005938
0.198260 -0.000918 0.027789
0.196800 -0.004341 0.005510
0.199840 -0.004161 0.006457
0.206620 -0.002714 0.029328
0.205320 -0.003545 0.008017
0.202210 -0.001965 0.028502
0.202990 -0.002692 0.007438
0.203630 -0.005104 0.007603
0.204850 -0.005553 0.028984
0.204480 -0.001252 0.007812
0.203690 -0.003499 0.028771
0.211280 -0.003368 0.030233
0.209220 -0.002399 0.029835
0.209340 -0.003018 0.008990
0.207310 -0.004721 0.029459
0.210930 -0.004576 0.009375
0.207330 -0.002433 0.008505
0.211190 -0.001016 0.009443
0.207850 -0.004481 0.008630
0.215980 -0.005175 0.031144
0.216220 -0.002240 0.010662
0.215860 -0.003024 0.031124
0.212880 -0.005096 0.030541
0.213700 -0.002138 0.010052
0.213790 -0.004226 0.010072
0.213170 -0.002214 0.030601
0.216400 -0.004533 0.010702
0.218290 -0.001450 0.031594
0.219180 -0.004821 0.031766
0.220800 -0.002936 0.032084
0.220840 -0.004351 0.011780
0.218870 -0.000862 0.011307
0.218480 -0.004289 0.011206
0.221140 -0.005735 0.032147
0.221040 -0.001966 0.011831
0.224650 -0.004938 0.012705
0.224950 -0.001588 0.032889
0.222970 -0.002982 0.012299
0.222790 -0.001389 0.032469
0.225870 -0.004638 0.033065
0.223070 -0.003593 0.032521
0.230810 -0.005100 0.034023
0.227960 -0.004618 0.033472
0.231370 -0.002743 0.034135
0.229180 -0.005710 0.013804
0.227130 -0.003555 0.013306
0.229430 -0.003139 0.013867
0.228170 -0.001933 0.033515
0.231760 -0.004543 0.014432
0.236460 -0.004341 0.014924
0.235240 -0.003983 0.034694
0.231800 -0.002436 0.014442
0.234360 -0.001596 0.014729
0.232980 -0.001292 0.034449
0.234060 -0.003873 0.014698
0.235240 -0.001126 0.034696
0.241110 -0.001050 0.015365
0.240950 -0.002491 0.035196
0.238550 -0.005064 0.034983
0.238570 -0.003118 0.015123
0.241680 -0.004488 0.035258
0.240670 -0.003620 0.015322
0.238430 -0.002478 0.034975
0.244640 -0.004206 0.035518
0.243690 -0.001076 0.015607
0.245160 -0.004988 0.015743
0.243620 -0.003482 0.015599
0.244600 -0.002009 0.035517
0.246500 -0.003262 0.035681
0.247270 -0.005220 0.035748
0.250290 -0.002287 0.016228
0.249530 -0.005211 0.016153
0.249670 -0.004568 0.035957
0.251680 -0.005666 0.016357
0.247380 -0.003323 0.015953
0.249440 -0.001699 0.035941
0.247390 -0.001147 0.015956
0.255190 -0.001975 0.016690
0.251840 -0.003412 0.036149
0.253650 -0.004951 0.016542
0.252120 -0.000933 0.016401
0.255820 -0.005608 0.016746
0.256250 -0.004802 0.036535
0.254420 -0.002757 0.036376
0.256470 -0.001482 0.036557
0.258190 -0.003499 0.036706
0.260810 -0.002466 0.036936
0.257500 -0.003378 0.016906
0.260870 -0.002317 0.017201
0.258600 -0.001336 0.036744
0.259700 -0.005658 0.017112
0.266400 -0.005295 0.036752
0.264360 -0.002987 0.036891
0.262990 -0.004785 0.036982
0.263400 -0.003559 0.017007
0.266250 -0.003659 0.016790
0.264700 -0.005850 0.016906
0.263430 -0.001308 0.017006
0.269750 -0.004019 0.036528
0.266920 -0.002524 0.036720
0.269080 -0.001399 0.036576
0.268240 -0.005767 0.016637
0.269040 -0.002998 0.016579
0.270360 -0.004887 0.016476
0.270230 -0.000930 0.016489
0.271500 -0.004998 0.035560
0.272340 -0.003235 0.025372
0.272000 -0.002398 0.020117
0.272430 -0.001011 0.026620
0.272760 -0.004596 0.030195
0.272770 -0.001162 0.031869
0.271850 -0.002670 0.017987
0.272530 -0.003345 0.028125
0.272100 -0.004201 0.021424
0.272650 -0.002966 0.034656
0.272820 -0.003895 0.032435
0.272170 -0.002521 0.022721
0.272630 -0.001429 0.029684
0.272260 -0.005258 0.017840
0.299510 -0.002914 0.029042
0.298860 -0.002507 0.019601
0.300530 -0.003625 0.033060
0.298640 -0.002929 0.016252
0.299010 -0.002007 0.021764
0.298520 -0.001369 0.014603
0.299100 -0.004437 0.024164
0.299130 -0.005852 0.032889
0.299260 -0.002584 0.025324
0.300300 -0.002597 0.013291
0.301520 -0.005583 0.033719
0.299660 -0.001988 0.031259
0.300130 -0.005311 0.013331
0.298480 -0.004453 0.014590
0.302320 -0.003522 0.012539
0.306460 -0.002568 0.034082
0.302270 -0.005669 0.012547
0.303540 -0.002891 0.034276
0.305080 -0.004029 0.012039
0.304930 -0.001155 0.012071
0.304290 -0.005278 0.034224
0.304400 -0.000881 0.034220
0.308800 -0.003321 0.011303
0.310840 -0.002092 0.011110
0.307320 -0.005610 0.011605
0.311030 -0.001645 0.033780
0.308560 -0.004105 0.033941
0.311400 -0.005714 0.033752
0.308560 -0.001687 0.033944
0.314920 -0.001643 0.017668
0.311870 -0.004175 0.011334
0.314850 -0.005330 0.033351
0.316510 -0.003358 0.022556
0.313530 -0.001569 0.033613
0.315500 -0.004391 0.019423
0.313530 -0.002032 0.013364
0.312710 -0.003791 0.033667
0.313910 -0.005578 0.014554
0.314630 -0.003846 0.016788
0.315370 -0.002981 0.033127
0.317440 -0.001854 0.025415
0.317440 -0.005309 0.031227
0.317920 -0.002866 0.029774
0.318200 -0.001987 0.027762
0.316930 -0.001908 0.031934
0.317720 -0.005402 0.028983
0.317670 -0.005078 0.026835
0.317280 -0.004185 0.024918
0.136800 0.001345 0.021971
0.138500 -0.000479 -0.009940
0.137020 -0.000333 0.024673
0.140500 0.002294 0.019562
0.138570 0.003946 0.019693
0.138970 0.002069 -0.009969
0.143050 0.001042 -0.003848
0.143370 0.000627 0.000821
0.142750 0.003609 -0.011630
0.143170 -0.000557 -0.002087
0.145230 -0.000484 -0.011904
0.143270 0.002564 -0.000549
0.142230 0.001106 -0.010190
0.144110 0.002090 -0.012326
0.144060 0.003942 0.011283
0.145830 0.002494 0.021207
0.142520 0.004098 0.019427
0.143600 0.000702 0.004239
0.143960 0.002538 0.009734
0.143140 0.003497 -0.002438
0.143670 0.002776 0.005356
0.144390 0.003903 0.015978
0.144250 0.000322 0.014025
0.143500 0.003296 0.002851
0.142870 0.001671 0.019402
0.143860 -0.000137 0.008176
0.151570 0.001588 -0.009626
0.147460 0.000491 -0.010542
0.149540 0.000411 0.003841
0.150100 0.000497 0.021823
0.149250 0.000390 -0.000478
0.149360 0.003364 0.001179
0.148930 0.000361 -0.005121
0.150800 0.003343 0.021876
0.146820 0.002550 -0.011328
0.150420 0.000471 0.016938
0.149980 0.002372 0.010479
0.150130 0.003727 0.012604
0.148870 0.003343 -0.005998
0.149820 0.000438 0.008028
0.150200 0.000061 0.013656
0.148730 0.004066 -0.008208
0.147080 0.000819 0.021606
0.148690 0.000906 -0.008710
0.149690 0.001880 0.006077
0.149970 0.000233 0.010205
0.150350 0.002997 0.015853
0.149130 0.003096 -0.002085
0.149510 0.003438 0.003484
0.147890 0.003413 0.019065
0.147970 0.002873 0.021666
0.148810 0.000492 0.019001
0.149380 0.000950 0.001536
0.149090 0.000922 -0.002848
0.153510 0.002235 -0.008931
0.156370 0.002452 -0.007903
0.154630 0.001749 0.022160
0.156710 0.002242 0.022313
0.153110 -0.000048 -0.009075
0.160320 0.003609 -0.006484
0.157420 0.000033 0.022363
0.159510 -0.000362 0.022517
0.158190 0.003932 -0.007246
0.158230 -0.000308 -0.007240
0.159490 0.001929 0.022516
0.161650 0.000786 0.022676
0.159450 0.001434 -0.006799
0.164790 0.002044 -0.004880
0.161770 0.000498 -0.005970
0.162070 0.002944 0.022709
0.163260 0.003624 -0.005433
0.164500 -0.000770 -0.004986
0.164330 0.001684 0.022875
0.163350 -0.000747 0.022800
0.166310 0.001030 0.023021
0.165560 0.003943 0.022968
0.167680 0.001864 -0.003843
0.168660 0.001699 0.023195
0.170290 0.000870 -0.002912
0.171250 0.003192 0.023387
0.169700 0.003019 -0.003120
0.167680 0.004006 0.023124
0.172520 -0.000742 0.023478
0.176470 -0.000110 -0.000806
0.173630 0.002363 0.023563
0.175310 0.003821 -0.001165
0.172210 0.003541 -0.002222
0.172670 0.001347 -0.002055
0.175700 -0.000171 0.023713
0.175230 0.004010 0.023681
0.178240 0.000077 0.024160
0.179080 -0.000820 0.000005
0.176910 0.001936 0.023921
0.180730 0.004052 0.024615
0.179720 0.003164 0.000205
0.180420 0.001021 0.024557
0.178550 0.003761 0.024220
0.178280 0.001307 -0.000245
0.185580 0.003555 0.025493
0.183310 0.001668 0.025081
0.182570 0.003478 0.001093
0.184990 0.000342 0.025385
0.182250 0.001162 0.000993
0.184640 0.003125 0.001738
0.185820 0.000182 0.002101
0.190090 0.000801 0.026309
0.190430 0.002115 0.003536
0.187220 0.000186 0.025788
0.187690 -0.000636 0.002683
0.189140 0.002957 0.026139
0.187350 0.001637 0.002577
0.188640 0.003611 0.002981
0.196010 0.002202 0.027385
0.193350 0.003868 0.004448
0.192140 0.004108 0.026682
0.192560 0.001865 0.026757
0.193710 -0.000840 0.026964
0.192730 0.000966 0.004249
0.195820 0.002861 0.005214
0.196070 -0.000659 0.027391
0.195030 0.000581 0.004965
0.198390 0.002746 0.027816
0.199670 0.002137 0.006410
0.200850 0.002527 0.028261
0.197760 0.000199 0.005815
0.199810 0.000576 0.028072
0.201510 0.003158 0.006982
0.202860 0.000414 0.007400
0.204500 0.003514 0.028923
0.204060 0.000387 0.028839
0.201940 0.000615 0.028457
0.205950 0.001209 0.029202
0.203940 0.003675 0.007688
0.205740 0.001534 0.008124
0.209580 -0.000152 0.029905
0.211320 0.001687 0.009477
0.207560 -0.000224 0.008563
0.207220 0.003865 0.029450
0.207170 0.003483 0.008471
0.209290 0.001848 0.008983
0.211080 0.002563 0.030199
0.208810 0.002150 0.029760
0.207520 -0.000267 0.029507
0.215800 0.000107 0.010562
0.212890 0.004071 0.030553
0.214370 0.003456 0.010219
0.214080 0.000599 0.030782
0.213460 0.000701 0.009995
0.216360 -0.000466 0.031222
0.215150 0.003813 0.030990
0.211840 -0.000056 0.030342
0.212260 0.003603 0.009706
0.217590 0.003137 0.031464
0.221140 0.001798 0.032151
0.217670 0.001701 0.011018
0.220390 -0.000312 0.032005
0.221310 0.001979 0.011900
0.218300 0.000770 0.031600
0.219950 0.004016 0.011573
0.226310 0.003031 0.013114
0.222450 -0.000195 0.012175
0.225240 -0.000522 0.012852
0.223700 0.003189 0.032652
0.222800 0.003727 0.012264
0.223320 0.000791 0.032575
0.225770 0.003147 0.033054
0.224460 0.001718 0.012663
0.230990 0.001738 0.034065
0.228730 -0.000832 0.013698
0.228990 0.000195 0.033674
0.226920 0.001263 0.033274
0.227450 0.001292 0.013390
0.229580 0.002080 0.013907
0.230920 -0.000410 0.014232
0.229440 0.003822 0.033764
0.236430 -0.000286 0.014925
0.234700 0.002260 0.014763
0.233460 0.002153 0.034544
0.231880 0.001689 0.014466
0.236730 0.003572 0.014955
0.234630 0.004097 0.034648
0.241250 0.000977 0.035226
0.239190 0.000240 0.035045
0.236880 0.003669 0.034844
0.238900 0.000035 0.015158
0.237010 0.000871 0.034854
0.239730 0.002773 0.035094
0.239100 0.003392 0.015179
0.242740 0.001546 0.015520
0.245070 0.001059 0.015739
0.246030 0.001399 0.035645
0.242530 -0.000677 0.035336
0.242030 0.003130 0.035295
0.243990 0.004127 0.035468
0.243830 0.001606 0.035451
0.250030 0.000572 0.035994
0.248040 0.003646 0.016021
0.247760 0.000052 0.035795
0.248850 0.003649 0.035894
0.249110 0.001372 0.016121
0.255240 0.000671 0.036451
0.252200 -0.000354 0.036183
0.255890 0.003762 0.036510
0.254760 0.000185 0.016651
0.254400 0.002886 0.016619
0.253810 0.002615 0.036328
0.251800 0.002353 0.016374
0.258990 0.000054 0.017049
0.261340 -0.000420 0.036984
0.256890 0.002736 0.016853
0.258500 0.000941 0.036736
0.259200 0.003186 0.017071
0.256880 -0.000734 0.016851
0.259630 0.003980 0.036838
0.265610 0.002476 0.016843
0.265010 0.000251 0.016888
0.262290 0.002315 0.037035
0.263780 -0.000111 0.036933
0.266440 0.001963 0.036755
0.262500 0.001187 0.017079
0.264370 0.002526 0.036895
0.271330 -0.000201 0.035639
0.267260 0.000318 0.016716
0.271760 0.000757 0.016615
0.269630 0.001437 0.036541
0.269090 0.001724 0.016578
0.271750 0.002785 0.035331
0.267400 0.000039 0.036690
0.272480 0.003046 0.027415
0.271960 0.002246 0.019666
0.272900 0.001577 0.033633
0.272540 0.000197 0.028380
0.271820 0.002781 0.017515
0.272200 -0.000004 0.023209
0.272270 0.004021 0.024116
0.272360 0.001368 0.025526
0.272170 0.002342 0.022733
0.271930 -0.000109 0.019093
0.272670 0.002856 0.030189
0.272800 0.003701 0.032333
0.272040 0.004087 0.020794
0.272930 -0.000671 0.034176
0.272690 0.000751 0.030523
0.298530 0.004135 0.014711
0.299120 -0.000383 0.023446
0.299490 -0.000755 0.028810
0.299330 0.000793 0.026474
0.298720 0.004070 0.017512
0.299370 0.003443 0.027105
0.298810 -0.000173 0.018772
0.298690 0.001374 0.017195
0.299740 -0.000005 0.032450
0.299560 0.001264 0.029777
0.300000 0.003219 0.032778
0.301690 -0.000666 0.033703
0.299070 0.002932 0.022625
0.299610 0.001199 0.013805
0.298940 0.001089 0.020790
0.298880 0.003042 0.019880
0.301400 0.002717 0.012700
0.299220 0.003029 0.024915
0.304660 0.001402 0.034205
0.302000 0.000437 0.012598
0.303740 0.002587 0.012291
0.304270 0.003698 0.034233
0.306200 0.002467 0.011833
0.302150 0.002566 0.033955
0.309580 0.003395 0.033880
0.309270 0.000389 0.033899
0.307040 0.002963 0.034049
0.310910 0.002003 0.011119
0.308270 -0.000829 0.011414
0.306810 0.000454 0.034061
0.308420 0.001308 0.011386
0.315730 0.000757 0.032976
0.313900 0.000056 0.014520
0.315940 0.003077 0.020828
0.312130 -0.000194 0.011453
0.313240 0.000812 0.033635
0.312180 0.002870 0.033707
0.315340 0.002991 0.033146
0.313220 0.001314 0.012656
0.314360 0.002615 0.015959
0.313530 0.003508 0.013412
0.316110 -0.000791 0.021332
0.315040 0.003346 0.018042
0.315610 0.000696 0.019811
0.314900 0.000889 0.017617
0.316370 0.001163 0.022143
0.317850 -0.000220 0.030037
0.316780 0.003604 0.023399
0.317560 0.003846 0.025807
0.318310 0.001668 0.028287
0.317730 0.000887 0.026331
0.317880 0.003402 0.029942
0.316940 -0.000529 0.023871
0.317410 0.001859 0.031337
0.317050 0.001581 0.024218
0.139180 0.006572 -0.009980
0.136800 0.005755 0.025335
0.139270 0.009043 -0.009984
0.139030 0.006353 0.019664
0.140150 0.009005 0.019591
0.138020 0.008962 0.019735
0.141000 0.007789 -0.010101
0.139230 0.004235 -0.009985
0.144260 0.007097 0.014145
0.143780 0.004406 0.006927
0.142600 0.006250 -0.010634
0.144090 0.007159 0.011592
0.144820 0.005077 0.020011
0.142860 0.008728 -0.006776
0.145820 0.008186 -0.010426
0.143000 0.006580 -0.004603
0.143690 0.007541 0.005602
0.145080 0.005888 -0.010377
0.143630 0.004783 0.004672
0.143880 0.006648 0.008494
0.144290 0.005160 -0.012253
0.143190 0.006494 -0.001756
0.143460 0.006098 0.002255
0.143470 0.008351 0.002380
0.144480 0.006092 0.017385
0.143320 0.004766 0.000194
0.142850 0.006332 -0.006821
0.143750 0.007711 -0.012427
0.142700 0.004821 -0.009084
0.141820 0.007027 0.019477
0.143140 0.008739 -0.002467
0.142900 0.004221 -0.006064
0.144990 0.007567 0.020384
0.144540 0.008599 0.018250
0.144230 0.004892 0.013794
0.142720 0.007238 -0.008792
0.143830 0.009125 0.007670
0.149230 0.005594 -0.000739
0.149340 0.007254 0.000976
0.148570 0.004295 -0.010499
0.149070 0.007733 -0.003083
0.149860 0.005602 0.008635
0.150460 0.006914 0.017576
0.149030 0.005665 -0.003671
0.150310 0.005038 0.015341
0.148890 0.005941 -0.005855
0.150220 0.006818 0.014086
0.151580 0.004414 -0.009620
0.147810 0.005934 0.019073
0.149420 0.005487 0.002144
0.148720 0.006184 -0.008222
0.147880 0.005388 0.021662
0.149880 0.006890 0.021812
0.151390 0.008715 -0.009686
0.149650 0.007706 0.005592
0.150060 0.006030 0.011525
0.149590 0.005744 0.004645
0.149810 0.007719 0.007880
0.148670 0.007023 -0.010660
0.149980 0.007924 0.010517
0.151110 0.006625 -0.009785
0.149720 0.004203 0.006584
0.149500 0.007419 0.003278
0.148910 0.008232 -0.005478
0.148720 0.008484 -0.008298
0.155930 0.004557 0.022257
0.154610 0.007312 0.022162
0.153600 0.006162 -0.008894
0.155740 0.004498 -0.008131
0.152070 0.006750 0.021975
0.153550 0.004634 0.022081
0.159080 0.008346 -0.006925
0.157770 0.006722 0.022394
0.160530 0.007794 0.022599
0.156840 0.007086 -0.007728
0.158620 0.008751 0.022459
0.159120 0.004964 0.022493
0.159980 0.005727 -0.006606
0.165230 0.004321 -0.004721
0.164590 0.006581 -0.004949
0.162620 0.005089 0.022751
0.166250 0.008941 0.023022
0.165870 0.006382 0.022992
0.161780 0.006804 -0.005958
0.163930 0.007562 0.022850
0.166620 0.006581 -0.004221
0.170680 0.007626 -0.002765
0.169030 0.009022 -0.003355
0.167020 0.008751 -0.004078
0.167750 0.007465 0.023132
0.171580 0.006986 0.023416
0.170300 0.005291 -0.002904
0.169620 0.005544 0.023270
0.167500 0.004252 -0.003908
0.169670 0.008546 0.023275
0.174010 0.009088 0.023597
0.172980 0.007803 -0.001938
0.174250 0.005878 0.023612
0.172320 0.005780 -0.002179
0.175120 0.006487 -0.001218
0.178490 0.006289 0.024211
0.177000 0.008222 0.023944
0.177730 0.007333 -0.000409
0.178080 0.004408 -0.000301
0.179280 0.008705 0.024355
0.179930 0.005712 0.000277
0.180530 0.008319 0.000463
0.184110 0.006256 0.025229
0.185920 0.007828 0.025559
0.181860 0.006678 0.000875
0.182340 0.007494 0.024908
0.184830 0.005407 0.001801
0.183160 0.004359 0.025056
0.184850 0.008250 0.001808
0.189430 0.006867 0.003230
0.189540 0.009042 0.026217
0.191340 0.008054 0.003825
0.187380 0.005240 0.002589
0.187780 0.005924 0.025894
0.190560 0.004655 0.003580
0.189940 0.004978 0.026286
0.191120 0.007088 0.026502
0.187290 0.008174 0.002565
0.193870 0.008743 0.027000
0.193190 0.006644 0.026875
0.195710 0.007839 0.005184
0.195320 0.005818 0.027261
0.195010 0.005521 0.004965
0.192990 0.006102 0.004335
0.200260 0.008174 0.028158
0.198470 0.008757 0.006042
0.198430 0.005478 0.006029
0.201550 0.008042 0.007002
0.196860 0.007645 0.027542
0.199630 0.005920 0.028041
0.197200 0.004730 0.027601
0.205140 0.008290 0.029051
0.203850 0.006367 0.028808
0.202440 0.005205 0.007273
0.203580 0.009060 0.007605
0.206490 0.006679 0.029311
0.205720 0.006937 0.008121
0.201800 0.005031 0.028435
0.206650 0.008859 0.008352
0.210980 0.008792 0.009400
0.210540 0.007716 0.030100
0.208370 0.007511 0.008768
0.209220 0.004915 0.008970
0.207400 0.009061 0.029490
0.209290 0.005135 0.029853
0.215830 0.009027 0.031129
0.215760 0.006612 0.010559
0.213680 0.007560 0.030709
0.211930 0.006921 0.009630
0.215700 0.006394 0.031098
0.219460 0.007330 0.011457
0.217590 0.005682 0.011000
0.218390 0.006914 0.031624
0.221290 0.004481 0.032185
0.224140 0.007459 0.012592
0.224870 0.004742 0.012769
0.221810 0.005562 0.012025
0.224330 0.005485 0.032774
0.222610 0.007453 0.032441
0.226730 0.005589 0.013220
0.224960 0.008546 0.032898
0.226300 0.008643 0.013117
0.222220 0.008384 0.012127
0.226770 0.006139 0.033250
0.229800 0.004432 0.013963
0.228180 0.007079 0.013572
0.229860 0.006030 0.033849
0.230930 0.007993 0.034059
0.236460 0.006378 0.034810
0.232480 0.004579 0.034357
0.235620 0.008392 0.014856
0.234460 0.005560 0.014745
0.233570 0.007445 0.034558
0.232470 0.006629 0.014558
0.232570 0.004523 0.014564
0.240110 0.005050 0.035129
0.241560 0.004582 0.015412
0.238300 0.005839 0.015105
0.240120 0.008519 0.015279
0.239870 0.007432 0.035110
0.240320 0.006426 0.015296
0.237840 0.008139 0.015065
0.246330 0.007263 0.035675
0.245510 0.008595 0.015787
0.244260 0.004165 0.015665
0.243070 0.006858 0.015556
0.241880 0.006707 0.035284
0.246440 0.004454 0.035682
0.244320 0.006452 0.035499
0.246250 0.006594 0.015855
0.250060 0.008045 0.036003
0.248320 0.007518 0.016051
0.250820 0.008604 0.016287
0.248450 0.005932 0.035860
0.251240 0.004707 0.016324
0.251250 0.004448 0.036105
0.255230 0.005292 0.016699
0.255570 0.007742 0.016734
0.252930 0.006513 0.036253
0.255610 0.007767 0.036490
0.252110 0.008567 0.036182
0.253120 0.006775 0.016503
0.257500 0.006870 0.036654
0.257410 0.004903 0.016905
0.258780 0.007172 0.017036
0.260710 0.006712 0.036935
0.259950 0.005247 0.017144
0.259700 0.009059 0.036848
0.265930 0.006986 0.016824
0.263020 0.007496 0.017045
0.263970 0.007465 0.036926
0.265670 0.004597 0.036809
0.263090 0.004537 0.017037
0.266650 0.006801 0.036745
0.262400 0.009081 0.037033
0.262840 0.005609 0.037001
0.265260 0.009060 0.016877
0.269120 0.006566 0.036580
0.271690 0.009073 0.016365
0.267960 0.004492 0.036656
0.268030 0.006909 0.016663
0.267170 0.004322 0.016727
0.269570 0.004869 0.016544
0.270780 0.005087 0.036068
0.271600 0.006941 0.016371
0.271740 0.007276 0.036351
0.273720 0.006187 0.016237
0.275950 0.006156 0.018988
0.275360 0.006151 0.026542
0.273470 0.005619 0.034096
0.276010 0.006150 0.024293
0.276130 0.006154 0.021673
0.273560 0.006044 0.022947
0.276050 0.006147 0.030546
0.276470 0.006635 0.015907
0.271910 0.004907 0.017014
0.275700 0.009088 0.036140
0.273150 0.005660 0.028362
0.274090 0.007270 0.035972
0.273400 0.006071 0.018338
0.273860 0.008419 0.016157
0.275490 0.006143 0.032675
0.277390 0.006755 0.035015
0.278820 0.008434 0.015685
0.278190 0.006154 0.017914
0.281440 0.006157 0.020214
0.278040 0.006148 0.032378
0.280280 0.006146 0.029566
0.278020 0.006144 0.028923
0.279350 0.006149 0.024028
0.280940 0.006146 0.032555
0.280740 0.006656 0.015492
0.278320 0.006152 0.021276
0.281430 0.006154 0.027058
0.281160 0.006152 0.022817
0.281400 0.006150 0.024895
0.278900 0.006149 0.026542
0.279970 0.007457 0.035835
0.278320 0.008866 0.035965
0.280920 0.008908 0.015472
0.286400 0.006146 0.032555
0.283720 0.006155 0.022950
0.285560 0.006155 0.021531
0.283770 0.006150 0.031825
0.286730 0.006157 0.026860
0.282420 0.007289 0.035436
0.286250 0.008047 0.035437
0.282310 0.006161 0.017333
0.284430 0.006151 0.027223
0.282780 0.006147 0.029695
0.285700 0.006150 0.030391
0.285420 0.008975 0.014942
0.284330 0.006159 0.018573
0.283410 0.008393 0.015177
0.284750 0.006507 0.034160
0.284120 0.006158 0.015642
0.284920 0.006154 0.025081
0.286420 0.006155 0.023534
0.283450 0.006158 0.020853
0.289660 0.007027 0.014438
0.288730 0.006152 0.023519
0.291510 0.006154 0.029167
0.287550 0.006184 0.015316
0.290400 0.006157 0.026864
0.287660 0.006155 0.021438
0.291630 0.006154 0.023594
0.288620 0.006152 0.029192
0.290500 0.006154 0.017886
0.288350 0.006146 0.031649
0.290440 0.006150 0.031334
0.287070 0.006152 0.018766
0.290950 0.006159 0.020194
0.287840 0.006646 0.034152
0.291180 0.007145 0.034635
0.291990 0.006154 0.016070
0.293360 0.006153 0.021069
0.294600 0.006151 0.031390
0.292850 0.006178 0.033150
0.292600 0.006151 0.018485
0.294250 0.006149 0.025318
0.296640 0.006153 0.024541
0.294380 0.006155 0.015787
0.292300 0.007050 0.014066
0.294860 0.006149 0.027660
0.296030 0.006156 0.022158
0.295760 0.006156 0.018276
0.293920 0.008912 0.034926
0.292580 0.006149 0.026943
0.295780 0.007230 0.013559
0.293060 0.009114 0.013958
0.295410 0.006432 0.033330
0.296890 0.006150 0.028274
0.299280 0.007423 0.034487
0.299490 0.008181 0.013016
0.301520 0.005461 0.012683
0.299520 0.004388 0.029705
0.298170 0.006057 0.030552
0.301360 0.006939 0.034183
0.297870 0.006061 0.026370
0.297090 0.007218 0.034336
0.298290 0.006277 0.014078
0.297600 0.009129 0.013293
0.299310 0.005431 0.032216
0.297580 0.005922 0.016042
0.306530 0.008517 0.034087
0.305370 0.006707 0.034162
0.302650 0.007419 0.012490
0.305460 0.004567 0.011973
0.306030 0.008227 0.011869
0.303240 0.008076 0.034305
0.301830 0.004844 0.033787
0.308470 0.005197 0.033956
0.308280 0.004258 0.011415
0.310980 0.004256 0.011129
0.309660 0.007628 0.033878
0.310900 0.008465 0.011132
0.307870 0.007240 0.011501
0.310190 0.006502 0.011108
0.314470 0.005499 0.016294
0.315590 0.006053 0.019747
0.313760 0.009082 0.033384
0.316340 0.005688 0.022088
0.313130 0.007840 0.012532
0.315930 0.007970 0.021506
0.313830 0.007010 0.014333
0.312200 0.006202 0.033709
0.312920 0.005364 0.012130
0.314910 0.008508 0.018187
0.314920 0.006924 0.033330
0.316060 0.008288 0.032018
0.316450 0.007969 0.026067
0.313800 0.004427 0.033591
0.314380 0.007904 0.016173
0.316720 0.007169 0.023929
0.317350 0.005975 0.025560
0.317500 0.006117 0.027809
0.317550 0.005344 0.031091
0.316860 0.007715 0.029973
0.136860 0.013594 0.013082
0.138960 0.013593 0.013782
0.137310 0.013600 0.007258
0.140690 0.013592 0.019046
0.137280 0.013609 -0.004225
0.137890 0.013590 0.015702
0.139420 0.013608 -0.003981
0.141190 0.011998 -0.010110
0.138610 0.013603 0.004231
0.140830 0.013609 -0.005557
0.138530 0.013610 -0.007427
0.141190 0.013602 0.006071
0.140430 0.013595 0.011293
0.137880 0.010965 -0.009889
0.139670 0.013606 -0.001366
0.140760 0.013613 -0.007970
0.137320 0.013604 0.001198
0.141220 0.013599 0.008564
0.141310 0.013592 0.016892
0.140280 0.013604 0.000949
0.139180 0.013613 -0.009700
0.138880 0.012651 0.019680
0.140710 0.011519 0.019556
0.141620 0.013605 0.002698
0.138770 0.013595 0.009894
0.142550 0.013592 0.014131
0.144050 0.010274 0.010918
0.142610 0.009828 0.019426
0.143450 0.011306 0.001973
0.142060 0.013608 -0.001843
0.142900 0.011965 -0.006115
0.143910 0.011015 -0.010294
0.143650 0.012558 -0.012068
0.143590 0.013519 0.004120
0.144960 0.010380 0.020255
0.146710 0.013609 -0.002685
0.146520 0.009369 0.021508
0.143050 0.010819 -0.003873
0.143760 0.013540 0.019352
0.143750 0.013611 -0.003939
0.143300 0.011359 -0.000195
0.143910 0.013073 0.008967
0.146650 0.012366 -0.010478
0.145620 0.013613 -0.008573
0.143290 0.009167 -0.000241
0.146580 0.013603 0.004882
0.143860 0.013591 0.017104
0.144070 0.013614 -0.007182
0.144180 0.009606 0.012907
0.144910 0.013602 0.006777
0.145510 0.013604 0.001830
0.143770 0.011616 0.006911
0.142780 0.013087 -0.008941
0.142700 0.009313 -0.009109
0.143760 0.010210 -0.012422
0.144190 0.013609 -0.001066
0.146660 0.012235 0.021298
0.144350 0.010453 0.015435
0.142670 0.013595 0.011836
0.143690 0.009782 0.005605
0.149260 0.011267 -0.000179
0.148810 0.012627 -0.006890
0.146780 0.013598 0.010380
0.149770 0.012139 0.007409
0.149440 0.009461 0.002416
0.150070 0.009790 0.011686
0.149850 0.013000 -0.009851
0.149580 0.009829 0.004499
0.149480 0.010436 -0.010368
0.148840 0.013601 0.004705
0.148810 0.010206 -0.006967
0.148470 0.009290 0.019031
0.146810 0.013609 -0.005397
0.148720 0.009405 0.021729
0.147960 0.013597 0.012156
0.150100 0.012962 0.012244
0.151500 0.009290 0.021933
0.150210 0.009849 0.013929
0.147310 0.010093 -0.010524
0.150160 0.014037 0.020778
0.149010 0.010731 -0.004095
0.148290 0.013604 0.000597
0.148990 0.013273 -0.004260
0.149440 0.012314 0.002446
0.150420 0.009973 0.016977
0.149180 0.013152 -0.001364
0.147250 0.013599 0.007580
0.149920 0.011314 0.009578
0.149740 0.013598 0.009595
0.149770 0.009757 0.007308
0.147460 0.013606 0.002679
0.149150 0.009884 -0.001906
0.149250 0.011781 0.021614
0.152370 0.012806 0.021679
0.155190 0.013283 0.021691
0.155960 0.011145 0.022225
0.152800 0.011120 -0.009134
0.153290 0.010705 0.022068
0.155570 0.009536 -0.008185
0.154770 0.012142 -0.008255
0.158680 0.012751 -0.006784
0.156840 0.012018 -0.007532
0.157470 0.012922 0.022043
0.161130 0.011813 -0.006030
0.159600 0.012685 0.022257
0.159610 0.010522 -0.006734
0.165010 0.010321 -0.004797
0.164030 0.013678 0.022181
0.162380 0.010037 -0.005742
0.166730 0.013261 -0.003682
0.161990 0.012343 0.022499
0.164820 0.010870 0.022915
0.163820 0.013283 -0.004700
0.162270 0.010245 0.022731
0.167390 0.012020 0.022959
0.168820 0.013890 -0.002642
0.171030 0.013820 -0.001905
0.169810 0.010744 0.023287
0.171410 0.009921 -0.002502
0.167000 0.014124 0.022174
0.169380 0.011823 -0.003089
0.167010 0.010916 -0.004067
0.174830 0.013416 -0.000809
0.174120 0.013025 0.023278
0.172470 0.010875 0.023480
0.176560 0.009232 -0.000771
0.173060 0.012146 -0.001745
0.175740 0.010990 0.023708
0.174410 0.009796 -0.001438
0.180440 0.012434 0.000636
0.177170 0.012861 -0.000327
0.178050 0.011830 0.024013
0.180790 0.011884 0.024508
0.179350 0.013847 0.023674
0.181360 0.009429 0.024734
0.178960 0.014034 0.000767
0.181240 0.010429 0.000686
0.178790 0.010147 -0.000076
0.184970 0.011424 0.025327
0.183820 0.009580 0.025180
0.182900 0.012406 0.024827
0.183270 0.009845 0.001317
0.183090 0.012903 0.001509
0.186670 0.012556 0.002579
0.185840 0.010413 0.002118
0.188240 0.014097 0.003647
0.191560 0.013279 0.026194
0.191500 0.014040 0.004618
0.187540 0.010778 0.025855
0.189230 0.011514 0.003255
0.186980 0.013580 0.025229
0.189310 0.009280 0.003194
0.190490 0.011299 0.026342
0.191230 0.010439 0.003796
0.191710 0.009192 0.026609
0.192990 0.009299 0.004338
0.196430 0.011794 0.027366
0.194990 0.012561 0.005156
0.194180 0.011080 0.027036
0.193700 0.013466 0.026507
0.201710 0.013926 0.007691
0.201330 0.011106 0.006964
0.197770 0.009923 0.027708
0.197480 0.013050 0.006024
0.196880 0.010652 0.005551
0.200490 0.012363 0.028041
0.199930 0.012639 0.006696
0.200360 0.010273 0.028178
0.203910 0.012477 0.028649
0.205340 0.013900 0.008653
0.204620 0.010914 0.007864
0.202360 0.009394 0.028540
0.206210 0.012751 0.029059
0.205350 0.010819 0.029095
0.209020 0.009832 0.008928
0.211080 0.013630 0.029705
0.209750 0.012255 0.009253
0.207510 0.013859 0.009163
0.207010 0.011484 0.008504
0.208390 0.011237 0.029645
0.210500 0.011082 0.030070
0.215080 0.012763 0.010597
0.213150 0.012462 0.030441
0.215270 0.009414 0.010443
0.215380 0.013075 0.030765
0.212080 0.012230 0.009815
0.214890 0.010944 0.030936
0.213450 0.010464 0.010001
0.212630 0.009589 0.030506
0.220830 0.012768 0.011991
0.218530 0.011578 0.031582
0.221110 0.012504 0.031986
0.217120 0.011697 0.010981
0.218230 0.009334 0.011159
0.221070 0.010402 0.011847
0.220080 0.009906 0.031954
0.218060 0.009359 0.031560
0.224310 0.010773 0.012636
0.224890 0.012715 0.032698
0.223140 0.013134 0.012648
0.222720 0.009561 0.032466
0.226520 0.012994 0.013407
0.225640 0.010548 0.033034
0.227400 0.009384 0.033373
0.230800 0.010217 0.034037
0.229210 0.013296 0.033376
0.228900 0.011150 0.033638
0.231540 0.013406 0.014779
0.229400 0.012305 0.014017
0.227490 0.010547 0.013408
0.229770 0.009481 0.013960
0.227140 0.012810 0.033128
0.234390 0.013905 0.015325
0.235550 0.013457 0.034321
0.235400 0.011772 0.014927
0.232250 0.009216 0.014538
0.233930 0.012106 0.034467
0.235700 0.009898 0.034746
0.233370 0.009942 0.034534
0.232330 0.011388 0.014599
0.238450 0.010234 0.015124
0.237860 0.011915 0.034830
0.240150 0.014040 0.034503
0.238760 0.009462 0.035014
0.240870 0.010702 0.035201
0.240130 0.012469 0.015444
0.237700 0.012684 0.015238
0.244140 0.009637 0.035487
0.244850 0.011820 0.035455
0.245720 0.013440 0.016209
0.242750 0.013513 0.015958
0.242190 0.013277 0.034978
0.242380 0.010168 0.015493
0.245080 0.011408 0.015802
0.247340 0.010514 0.035768
0.246860 0.012622 0.035548
0.248980 0.010081 0.016116
0.247950 0.012783 0.016212
0.250590 0.013959 0.035453
0.246840 0.010271 0.015914
0.250050 0.013527 0.016651
0.249450 0.011436 0.035895
0.253540 0.010129 0.016545
0.251830 0.011054 0.036142
0.254650 0.012659 0.016829
0.254820 0.011034 0.036406
0.255890 0.010443 0.016768
0.251870 0.011562 0.016456
0.260480 0.013464 0.036514
0.256930 0.012619 0.017040
0.258050 0.010042 0.016969
0.259310 0.012313 0.017232
0.258510 0.012311 0.036601
0.260590 0.010198 0.017209
0.257260 0.009959 0.036636
0.264680 0.012424 0.036725
0.266760 0.012805 0.036546
0.262590 0.009575 0.017080
0.266680 0.010445 0.036747
0.262350 0.012096 0.017222
0.265290 0.011961 0.016985
0.265000 0.014119 0.017559
0.262080 0.011955 0.036947
0.269410 0.012913 0.016770
0.267130 0.010357 0.016734
0.271370 0.013709 0.016901
0.270910 0.009475 0.036461
0.269270 0.009950 0.016571
0.270030 0.012670 0.036340
0.268890 0.010273 0.036598
0.271240 0.011126 0.016432
0.275970 0.009416 0.015957
0.272880 0.011107 0.036308
0.273550 0.010715 0.016189
0.276320 0.014084 0.016578
0.275280 0.012024 0.016140
0.272460 0.013453 0.035954
0.274610 0.012935 0.036006
0.281480 0.009337 0.035755
0.279930 0.010950 0.015585
0.278110 0.012199 0.015889
0.279110 0.013619 0.035441
0.278700 0.011300 0.035898
0.281010 0.011696 0.035704
0.277150 0.012865 0.035842
0.284200 0.010916 0.035571
0.285020 0.013254 0.035186
0.282430 0.013243 0.015621
0.286300 0.011000 0.035422
0.285340 0.012307 0.015100
0.283500 0.011049 0.015184
0.282250 0.013433 0.035304
0.290060 0.009235 0.035184
0.288430 0.013422 0.014987
0.289660 0.011957 0.035097
0.290160 0.012137 0.014515
0.288580 0.009584 0.014569
0.290660 0.009186 0.014309
0.286840 0.010788 0.014775
0.287620 0.013374 0.034963
0.291600 0.013500 0.034645
0.293800 0.011421 0.013906
0.292390 0.010395 0.035028
0.296400 0.011295 0.013512
0.294880 0.010804 0.034863
0.294210 0.013658 0.014293
0.294950 0.013973 0.034223
0.293350 0.012332 0.034812
0.291970 0.013949 0.014737
0.297170 0.012691 0.034517
0.299480 0.011380 0.013072
0.298060 0.013885 0.013831
0.300770 0.009619 0.034470
0.300870 0.013720 0.013363
0.298160 0.010359 0.034645
0.299660 0.013189 0.034226
0.304030 0.012914 0.033952
0.305750 0.010373 0.011949
0.303020 0.011699 0.012544
0.301880 0.012541 0.034213
0.301950 0.009840 0.012612
0.304670 0.013143 0.012705
0.303490 0.010673 0.034290
0.311560 0.012100 0.016518
0.309620 0.009954 0.033816
0.310520 0.012750 0.032174
0.307360 0.013588 0.032988
0.308940 0.011905 0.012014
0.308170 0.013839 0.014571
0.310820 0.010778 0.011743
0.310380 0.013113 0.023214
0.309050 0.013632 0.018194
0.308830 0.013953 0.031217
0.311500 0.012511 0.024911
0.309130 0.013832 0.025781
0.306860 0.012738 0.012414
0.307450 0.010698 0.033951
0.311740 0.012102 0.019042
0.310300 0.012666 0.013946
0.308020 0.009463 0.011474
0.310240 0.013356 0.027537
0.309610 0.013292 0.016196
0.311520 0.011073 0.033162
0.309670 0.013403 0.020287
0.315060 0.009692 0.026324
0.312550 0.011891 0.031231
0.312690 0.010570 0.013358
0.315350 0.009194 0.023955
0.312620 0.011849 0.027166
0.313380 0.010737 0.017362
0.311910 0.012100 0.021619
0.313400 0.011058 0.023315
0.313480 0.010816 0.020263
0.311760 0.012522 0.029023
0.314610 0.009856 0.022070
0.314400 0.010448 0.031299
0.315370 0.009599 0.029577
0.313710 0.009804 0.015069
0.314170 0.010671 0.028174
0.145690 0.015873 -0.000665
0.145750 0.015273 0.017153
0.146230 0.015872 0.003327
0.143750 0.014543 -0.010203
0.145510 0.015686 0.007091
0.146580 0.015863 0.012190
0.144420 0.015467 -0.002455
0.145010 0.015004 0.014924
0.144670 0.014991 0.010064
0.144440 0.015599 -0.005647
0.144860 0.015576 -0.008355
0.143880 0.014798 0.001202
0.144890 0.015446 0.004988
0.148000 0.015798 0.016825
0.151640 0.015867 0.016642
0.149730 0.015879 0.000284
0.150450 0.015872 0.010306
0.147300 0.015442 -0.008310
0.147630 0.015875 0.000967
0.150790 0.015867 0.013103
0.150680 0.015877 0.002958
0.147970 0.015871 0.007088
0.148280 0.015869 0.010841
0.147480 0.015880 -0.002569
0.149320 0.015882 -0.003685
0.147480 0.015883 -0.005568
0.151110 0.015797 -0.005248
0.150100 0.015202 -0.007715
0.148400 0.015867 0.013290
0.149910 0.015871 0.007891
0.147440 0.014183 0.020448
0.148320 0.015875 0.003545
0.151220 0.015538 0.018808
0.150940 0.015875 0.005109
0.146790 0.015868 0.008998
0.149450 0.015864 0.015122
0.148350 0.015392 0.018866
0.155670 0.015885 -0.003285
0.155690 0.014391 -0.006960
0.152610 0.015876 0.006522
0.153130 0.015877 0.003059
0.153080 0.014563 0.020640
0.155940 0.015643 0.018766
0.153900 0.015594 -0.005582
0.152000 0.015883 -0.002705
0.154780 0.015882 -0.001384
0.152590 0.014270 -0.008090
0.154230 0.015875 0.009609
0.153170 0.015881 0.000661
0.155020 0.015878 0.002149
0.154130 0.015871 0.012368
0.155140 0.015877 0.006302
0.153520 0.015869 0.014766
0.155500 0.015870 0.015678
0.154050 0.015766 0.017776
0.156080 0.015877 0.008259
0.161590 0.015873 0.015839
0.157800 0.015868 0.017105
0.159810 0.015887 -0.001269
0.160710 0.015878 0.007232
0.157480 0.015875 0.010098
0.160680 0.015876 0.013215
0.159060 0.015871 0.015342
0.158320 0.015885 0.000571
0.160250 0.015885 0.001504
0.157270 0.015873 0.012441
0.158900 0.015710 -0.003197
0.161680 0.015885 0.003572
0.160060 0.015878 0.009957
0.160060 0.015408 0.020021
0.157480 0.015880 0.003865
0.159480 0.015879 0.005047
0.157960 0.014706 -0.005796
0.161690 0.014727 -0.004464
0.157970 0.015104 0.020307
0.159890 0.015870 0.017723
0.157350 0.015877 0.006437
0.164680 0.015876 0.015323
0.165530 0.015885 0.002475
0.164130 0.015144 -0.003062
0.163070 0.015477 0.020214
0.166510 0.015564 0.020257
0.166020 0.015884 0.006942
0.164250 0.015883 -0.000708
0.163890 0.015882 0.007609
0.161880 0.015809 0.018446
0.162860 0.015876 0.013361
0.163070 0.015887 0.001322
0.163290 0.015880 0.009729
0.164500 0.015873 0.017630
0.164860 0.015879 0.012241
0.162450 0.015881 0.005844
0.162200 0.015728 -0.002085
0.165520 0.015884 0.004675
0.167960 0.015878 0.017417
0.170570 0.014261 0.022393
0.170550 0.015724 0.019931
0.170150 0.015880 0.012389
0.167490 0.015889 0.003239
0.167510 0.015812 -0.000029
0.167150 0.015113 -0.002095
0.167210 0.015878 0.015326
0.168210 0.015885 0.006992
0.170040 0.015885 0.008667
0.169560 0.015877 0.016062
0.167450 0.015882 0.009200
0.166820 0.015879 0.011242
0.171020 0.015880 0.014474
0.170520 0.015467 -0.000549
0.168210 0.015880 0.013198
0.169820 0.015887 0.003482
0.170100 0.015888 0.005820
0.172520 0.015885 0.007688
0.175780 0.015880 0.016721
0.172250 0.015878 0.017825
0.172830 0.015596 0.020767
0.174720 0.015151 0.000457
0.173010 0.014479 -0.000904
0.172240 0.015890 0.001930
0.171920 0.015886 0.010709
0.173220 0.015881 0.014614
0.174450 0.015893 0.002532
0.172080 0.015891 0.004181
0.175240 0.015634 0.020836
0.175580 0.015887 0.007629
0.174460 0.015886 0.011644
0.173830 0.015886 0.009440
0.174280 0.015890 0.005664
0.175570 0.015883 0.014570
0.178950 0.015862 0.003701
0.178880 0.015892 0.007281
0.179760 0.015888 0.010900
0.180680 0.015348 0.022604
0.177690 0.015886 0.014490
0.177210 0.015891 0.009334
0.181370 0.015673 0.003552
0.179610 0.015884 0.015608
0.178570 0.015628 0.021503
0.180070 0.015883 0.018502
0.177270 0.014534 0.022928
0.181480 0.015893 0.009457
0.179420 0.015886 0.013328
0.180370 0.015893 0.005503
0.177440 0.015881 0.019215
0.177750 0.015887 0.012019
0.181720 0.015885 0.016962
0.176950 0.015890 0.005121
0.182840 0.015894 0.005441
0.184760 0.015618 0.004293
0.185460 0.015888 0.016093
0.184030 0.015085 0.023571
0.186410 0.015894 0.011152
0.184520 0.015883 0.021131
0.186120 0.015159 0.023886
0.182010 0.015883 0.020841
0.185400 0.015890 0.013578
0.183950 0.015884 0.017720
0.186660 0.015887 0.018735
0.185150 0.015895 0.008803
0.181960 0.015888 0.011793
0.184430 0.014323 0.002573
0.184010 0.015894 0.011306
0.183390 0.015887 0.014870
0.181790 0.014180 0.023968
0.183340 0.015895 0.007589
0.189030 0.015528 0.005190
0.191750 0.015893 0.015329
0.187960 0.015887 0.016830
0.191150 0.015897 0.011178
0.190370 0.015712 0.023510
0.189870 0.015894 0.013730
0.191720 0.015887 0.019872
0.187580 0.015891 0.013869
0.187500 0.015897 0.008853
0.190620 0.015898 0.008066
0.188110 0.015754 0.022860
0.189070 0.014482 0.025184
0.186910 0.015897 0.006744
0.186910 0.015885 0.020903
0.189710 0.015888 0.018702
0.189630 0.015886 0.021146
0.189220 0.015895 0.010297
0.195000 0.015887 0.021588
0.194470 0.015895 0.015139
0.196640 0.015900 0.012383
0.192610 0.015897 0.013071
0.192450 0.015324 0.024914
0.192670 0.015528 0.006278
0.195180 0.015025 0.025774
0.195720 0.014530 0.006114
0.193030 0.015888 0.022709
0.193830 0.015893 0.018384
0.194330 0.015896 0.011775
0.192830 0.015899 0.009432
0.195590 0.015902 0.009337
0.196480 0.015890 0.023855
0.199730 0.015735 0.009196
0.201520 0.015899 0.014765
0.197720 0.015899 0.014275
0.197120 0.015428 0.007506
0.199130 0.014631 0.007281
0.199690 0.015895 0.018304
0.201580 0.015891 0.023596
0.198530 0.014604 0.026836
0.197810 0.015893 0.019773
0.199410 0.015900 0.015637
0.199040 0.015889 0.023690
0.197550 0.015900 0.010338
0.200910 0.014591 0.027293
0.200210 0.015684 0.025554
0.199170 0.015902 0.012038
0.197290 0.015894 0.016344
0.199760 0.015893 0.021338
0.197290 0.015889 0.021881
0.204920 0.015617 0.010142
0.202160 0.015898 0.018224
0.203210 0.015623 0.026380
0.204250 0.015903 0.012282
0.205950 0.015894 0.025665
0.201860 0.015896 0.021334
0.201990 0.015903 0.010717
0.204960 0.015898 0.019920
0.204200 0.015895 0.022882
0.204350 0.014501 0.028031
0.203960 0.015899 0.015695
0.206210 0.015898 0.021770
0.204660 0.015901 0.017818
0.210980 0.015898 0.022164
0.208200 0.015705 0.027063
0.211520 0.015904 0.017511
0.209540 0.015900 0.019415
0.207590 0.015901 0.017199
0.209780 0.015905 0.014704
0.207280 0.015898 0.019859
0.210240 0.015680 0.011658
0.207550 0.015896 0.024213
0.210550 0.015895 0.026316
0.207000 0.015903 0.014199
0.207960 0.015863 0.011834
0.211590 0.014304 0.010328
0.210240 0.015899 0.024144
0.210070 0.015303 0.028342
0.208870 0.015899 0.022075
0.209520 0.014591 0.009981
0.208150 0.014152 0.028917
0.215390 0.015147 0.029561
0.213170 0.015908 0.015539
0.213780 0.014885 0.011308
0.216710 0.015905 0.020814
0.215800 0.015115 0.012031
0.215030 0.015900 0.022829
0.211980 0.015901 0.019824
0.213660 0.015862 0.027543
0.214650 0.015905 0.018451
0.216300 0.015910 0.015361
0.214150 0.015904 0.020859
0.212710 0.014875 0.029309
0.212800 0.015898 0.023966
0.212240 0.015908 0.013145
0.215300 0.015901 0.025641
0.217500 0.015899 0.026030
0.221520 0.015910 0.017324
0.217730 0.014804 0.030370
0.221340 0.015903 0.028707
0.218240 0.014417 0.011967
0.220010 0.014604 0.031009
0.220710 0.014887 0.012975
0.217380 0.015902 0.023317
0.219340 0.015907 0.019596
0.218220 0.015910 0.017112
0.218980 0.015836 0.028734
0.217950 0.015838 0.014084
0.220320 0.015912 0.015494
0.220980 0.015903 0.026379
0.220170 0.015904 0.022812
0.224440 0.015908 0.020369
0.224260 0.015904 0.029303
0.226350 0.015907 0.024436
0.222660 0.015630 0.014391
0.222570 0.015907 0.021429
0.222030 0.015176 0.030855
0.226680 0.014704 0.032224
0.225520 0.015911 0.018019
0.226480 0.015909 0.020992
0.225670 0.015031 0.014294
0.223060 0.015906 0.025950
0.222140 0.015910 0.019358
0.222320 0.015904 0.023951
0.225170 0.015905 0.026606
0.224090 0.014952 0.031479
0.226500 0.015904 0.029138
0.224670 0.015906 0.022774
0.229920 0.015905 0.028339
0.229850 0.015911 0.023349
0.227290 0.015907 0.026953
0.227660 0.015560 0.015296
0.230660 0.015911 0.025394
0.228330 0.015914 0.017287
0.228630 0.015912 0.020530
0.229170 0.015883 0.030629
0.230560 0.015913 0.021348
0.229870 0.014856 0.015126
0.231380 0.014304 0.033416
0.231420 0.015916 0.018039
0.234610 0.015703 0.017129
0.234410 0.015905 0.029604
0.236480 0.015906 0.031285
0.232860 0.015910 0.025398
0.234380 0.015276 0.033079
0.234450 0.015921 0.021771
0.232540 0.015909 0.028642
0.232520 0.015907 0.030994
0.234990 0.015916 0.023934
0.232550 0.015911 0.023225
0.235420 0.015910 0.026734
0.236720 0.015908 0.028490
0.233390 0.015916 0.018944
0.232340 0.015325 0.016144
0.240980 0.015706 0.032809
0.240300 0.015921 0.021611
0.236870 0.015908 0.024837
0.236980 0.014798 0.016068
0.240500 0.015635 0.017399
0.241710 0.015911 0.027424
0.239190 0.015908 0.027774
0.239170 0.015910 0.031081
0.241250 0.015912 0.025150
0.236800 0.015918 0.019060
0.241720 0.015918 0.029925
0.238540 0.015171 0.033552
0.237950 0.015916 0.021301
0.239380 0.014522 0.016029
0.239160 0.015923 0.019595
0.238800 0.015918 0.023705
0.241600 0.015922 0.019715
0.244270 0.015916 0.025389
0.242620 0.015914 0.023392
0.243100 0.015250 0.033871
0.243980 0.015917 0.028137
0.243460 0.015913 0.031259
0.246150 0.015918 0.029998
0.244220 0.015929 0.019096
0.242740 0.015628 0.017575
0.246760 0.015112 0.017283
0.244790 0.015923 0.023235
0.245350 0.014523 0.034774
0.246410 0.015922 0.026725
0.246350 0.015920 0.021575
0.243890 0.015921 0.021270
0.246860 0.015922 0.019438
0.247780 0.015922 0.028662
0.247270 0.015922 0.023893
0.249750 0.015698 0.018508
0.250420 0.015928 0.020523
0.248500 0.015921 0.026041
0.246950 0.015621 0.033651
