ply
format ascii 1.0
element vertex 1692
property float x
property float y
property float z
end_header
0.021866 -0.008148 -0.005787
0.021729 -0.008709 -0.008059
0.021552 -0.008574 -0.005888
0.020289 -0.008708 -0.006923
0.021742 -0.008709 -0.008803
0.021752 -0.001568 -0.006595
0.021902 -0.000561 -0.006640
0.021945 0.000782 -0.006597
0.021623 0.002235 -0.006584
0.021701 0.002801 -0.006481
0.021088 0.004417 -0.006588
0.021518 0.004125 -0.006417
0.021592 0.003502 -0.006453
0.021093 0.003646 -0.006676
0.021887 0.004531 -0.006195
0.020722 0.007151 -0.006448
0.020721 0.006031 -0.006579
0.021890 0.005608 -0.006069
0.021366 0.006708 -0.006193
0.021395 0.005702 -0.006296
0.021374 0.004915 -0.006394
0.021862 0.006179 -0.006017
0.020438 0.006490 -0.006661
0.021371 0.008719 -0.006922
0.020630 0.008113 -0.006383
0.020683 0.008719 -0.006982
0.021442 0.008719 -0.005985
0.020024 0.008226 -0.006660
0.021858 0.007922 -0.005820
0.020784 0.008646 -0.006247
0.020375 0.008719 -0.007550
0.021459 0.008718 -0.008437
0.020235 0.008719 -0.006647
0.021415 0.007569 -0.006070
0.021130 0.008186 -0.006135
0.021363 0.008718 -0.007556
0.020431 0.007630 -0.006534
0.024187 -0.008709 -0.005300
0.024284 -0.008709 -0.005875
0.023398 -0.008709 -0.006239
0.024298 -0.008564 -0.009027
0.023926 -0.008709 -0.007911
0.023231 -0.008709 -0.006760
0.022288 -0.008709 -0.005934
0.022800 -0.008709 -0.006359
0.024350 -0.008709 -0.004767
0.023533 -0.008709 -0.008930
0.022244 -0.008709 -0.007121
0.023378 -0.008709 -0.008330
0.022744 -0.008709 -0.008805
0.023827 -0.008709 -0.007199
0.022548 -0.008709 -0.008245
0.023060 -0.008709 -0.007321
0.022251 -0.008709 -0.007713
0.024187 -0.008709 -0.006799
0.023162 -0.008709 -0.007843
0.022964 -0.008709 -0.005400
0.023955 -0.008709 -0.008590
0.023495 -0.008709 -0.005544
0.023348 -0.008698 -0.005016
0.024342 -0.008709 -0.007355
0.025151 -0.008709 -0.004858
0.026699 -0.008709 -0.003768
0.025078 -0.008709 -0.005807
0.025710 -0.008709 -0.004263
0.025512 -0.008709 -0.006757
0.026752 -0.008709 -0.007353
0.024690 -0.008709 -0.007815
0.025375 -0.008709 -0.008097
0.025404 -0.008709 -0.007527
0.024885 -0.008709 -0.007206
0.025586 -0.008709 -0.006184
0.026365 -0.008709 -0.005797
0.025943 -0.008573 -0.008244
0.026660 -0.008709 -0.004401
0.026173 -0.008709 -0.007628
0.025645 -0.008709 -0.005469
0.024824 -0.008709 -0.004442
0.024848 -0.008631 -0.008767
0.024951 -0.008709 -0.006627
0.026247 -0.008709 -0.006448
0.025909 -0.008709 -0.004936
0.026544 -0.008709 -0.005209
0.026165 -0.008709 -0.006982
0.024728 -0.008709 -0.005243
0.024541 -0.008709 -0.008333
0.028639 -0.008710 -0.005645
0.028066 -0.008565 -0.002786
0.027003 -0.008709 -0.003320
0.028571 -0.008709 -0.002906
0.028639 -0.008710 -0.006492
0.027983 -0.008709 -0.004385
0.028090 -0.008710 -0.006578
0.027982 -0.008710 -0.007263
0.027412 -0.008709 -0.007108
0.029180 -0.008710 -0.006336
0.027546 -0.008709 -0.005557
0.027347 -0.008709 -0.004310
0.028735 -0.008709 -0.004258
0.028376 -0.008709 -0.003442
0.029086 -0.008710 -0.004768
0.027526 -0.008709 -0.006250
0.027381 -0.008709 -0.003773
0.026863 -0.008709 -0.006781
0.027108 -0.008709 -0.004835
0.027022 -0.008709 -0.005994
0.028198 -0.008709 -0.005145
0.027523 -0.008709 -0.003205
0.028980 -0.008709 -0.003602
0.028976 -0.008665 -0.002341
0.029203 -0.008710 -0.005584
0.028127 -0.008709 -0.006015
0.029571 -0.008710 -0.004995
0.030421 -0.008710 -0.006061
0.031175 -0.008710 -0.004597
0.031310 -0.008710 -0.002004
0.031078 -0.008710 -0.005346
0.029330 -0.008709 -0.003093
0.030655 -0.008710 -0.004679
0.029754 -0.008638 -0.006428
0.030030 -0.008710 -0.005655
0.029634 -0.008709 -0.002113
0.029577 -0.008710 -0.004441
0.030867 -0.008673 -0.001442
0.031463 -0.008710 -0.001251
0.029391 -0.008710 -0.003937
0.031052 -0.008710 -0.002587
0.030075 -0.008710 -0.002439
0.030374 -0.008710 -0.002934
0.031530 -0.008710 -0.003958
0.030630 -0.008710 -0.002179
0.029864 -0.008710 -0.003103
0.031502 -0.008710 -0.003005
0.031037 -0.008710 -0.003290
0.030349 -0.008710 -0.004156
0.030296 -0.008710 -0.005130
0.030456 -0.008710 -0.003484
0.030841 -0.008710 -0.003849
0.029938 -0.008710 -0.003659
0.032552 -0.008710 -0.000651
0.033788 -0.008710 -0.003056
0.032181 -0.008710 -0.003905
0.032782 -0.008710 -0.003781
0.032102 -0.008710 -0.003219
0.033007 -0.008710 -0.003174
0.033620 -0.008710 -0.003764
0.032085 -0.008710 -0.002211
0.032609 -0.008710 -0.004682
0.034062 -0.008710 -0.000628
0.032986 -0.008710 -0.002426
0.031813 -0.008710 -0.005276
0.032294 -0.008710 -0.002702
0.033859 -0.008710 -0.001145
0.033318 -0.008710 -0.000868
0.033343 -0.008710 -0.004267
0.033237 -0.008710 -0.001616
0.032113 -0.008710 -0.001590
0.033990 -0.008710 -0.004146
0.033961 -0.008710 -0.002230
0.032782 -0.008710 -0.001230
0.033493 -0.008599 -0.000200
0.031764 -0.008710 -0.004681
0.032618 -0.008710 -0.001972
0.035941 -0.008710 -0.000511
0.035467 -0.008710 0.000520
0.036372 -0.008710 -0.001606
0.034461 -0.008710 -0.002645
0.035804 -0.008710 -0.001394
0.034306 -0.008676 0.000199
0.034930 -0.008710 -0.001103
0.035739 -0.008710 -0.002372
0.034637 -0.008710 -0.000317
0.035513 -0.008710 -0.002891
0.035138 -0.008710 0.000096
0.034267 -0.008710 -0.001614
0.035345 -0.008710 -0.001843
0.036232 -0.008710 0.000302
0.036189 -0.008711 -0.002975
0.035062 -0.008710 -0.003789
0.034803 -0.008710 -0.001924
0.035336 -0.008710 -0.000687
0.034185 -0.008710 -0.003548
0.034665 -0.008710 -0.003156
0.036460 -0.008710 -0.000182
0.035128 -0.008710 -0.002506
0.034400 -0.008710 -0.001065
0.036502 -0.008711 -0.002268
0.037439 -0.008711 -0.002213
0.037536 -0.008711 -0.001259
0.036601 -0.008710 -0.000798
0.038163 -0.008711 -0.000213
0.037198 -0.008690 0.001575
0.037577 -0.008711 0.000516
0.038328 -0.008711 -0.001780
0.036629 -0.008710 0.000809
0.038636 -0.008711 0.001432
0.036998 -0.008710 0.000219
0.037297 -0.008711 -0.000351
0.038387 -0.008711 0.000606
0.038016 -0.008711 0.001086
0.036975 -0.008711 -0.001196
0.037160 -0.008710 0.001032
0.036722 -0.008711 -0.003084
0.037845 -0.008711 -0.000690
0.038863 -0.008711 0.000381
0.038298 -0.008711 -0.001213
0.038464 -0.008711 0.002009
0.038651 -0.008711 -0.000402
0.037063 -0.008711 -0.001789
0.040316 -0.008711 0.000564
0.039758 -0.008579 0.002782
0.040992 -0.008711 0.001480
0.039288 -0.008711 0.001445
0.038954 -0.008581 -0.002050
0.040855 -0.008711 0.002800
0.039256 -0.008711 -0.000563
0.041179 -0.008711 0.001975
0.040821 -0.008711 0.000766
0.039422 -0.008711 0.000619
0.040525 -0.008711 -0.000687
0.039775 -0.008711 0.001058
0.040687 -0.008711 0.002298
0.039019 -0.008711 -0.001149
0.040255 -0.008711 0.002611
0.039955 -0.008711 -0.000750
0.040352 -0.008711 0.001580
0.039645 -0.008711 -0.001472
0.041212 -0.008711 0.000371
0.039592 -0.008711 0.002241
0.040284 -0.008711 0.000000
0.041023 -0.008711 -0.000401
0.039850 -0.008711 0.001763
0.041257 -0.008711 0.003206
0.039514 -0.008711 -0.000097
0.041624 -0.008711 -0.000298
0.042701 -0.008711 0.001253
0.041658 -0.008711 0.002745
0.043491 -0.008711 0.003712
0.042200 -0.008711 0.001840
0.042340 -0.008711 0.000743
0.042783 -0.008711 0.003610
0.041749 -0.008711 0.000485
0.043580 -0.008711 0.004283
0.042488 -0.008711 0.000229
0.041727 -0.008711 0.002081
0.043295 -0.008711 0.003177
0.041336 -0.008711 0.000967
0.041609 -0.008703 0.003677
0.043231 -0.008711 0.000670
0.042972 -0.008711 0.002581
0.043631 -0.008711 0.000230
0.041761 -0.008711 0.001335
0.042439 -0.008711 0.002364
0.043048 -0.008711 0.002051
0.042138 -0.008584 0.003918
0.043047 -0.008711 0.000040
0.042782 -0.008711 0.004205
0.042612 -0.008711 0.003017
0.043354 -0.008711 0.001385
0.042137 -0.008711 0.003275
0.045098 -0.008712 0.002727
0.045873 -0.008712 0.002574
0.044971 -0.008712 0.001886
0.044903 -0.008680 0.000783
0.043832 -0.008711 0.001904
0.045761 -0.008712 0.003857
0.044532 -0.008712 0.001587
0.044320 -0.008712 0.000857
0.045570 -0.008712 0.002104
0.043958 -0.008711 0.001377
0.045528 -0.008711 0.004571
0.044056 -0.008711 0.004548
0.044042 -0.008711 0.003487
0.043753 -0.008711 0.002450
0.044633 -0.008711 0.003441
0.044569 -0.008711 0.004234
0.045277 -0.008712 0.003338
0.045166 -0.008711 0.005349
0.044584 -0.008711 0.002452
0.045404 -0.008712 0.001174
0.045844 -0.008712 0.003309
0.044907 -0.008711 0.004697
0.044221 -0.008711 0.002948
0.045062 -0.008711 0.004022
0.045686 -0.008711 0.005074
0.046971 -0.008712 0.002788
0.048031 -0.008712 0.003361
0.047527 -0.008712 0.006176
0.046204 -0.008712 0.001624
0.046402 -0.008712 0.003943
0.047783 -0.008632 0.002156
0.046660 -0.008712 0.003422
0.046820 -0.008712 0.004275
0.047784 -0.008712 0.002821
0.046436 -0.008712 0.004966
0.046146 -0.008712 0.004512
0.046165 -0.008712 0.005484
0.048389 -0.008712 0.006830
0.046242 -0.008712 0.002949
0.047745 -0.008712 0.003826
0.047511 -0.008712 0.005580
0.046884 -0.008712 0.006140
0.047809 -0.008712 0.004813
0.048529 -0.008712 0.003986
0.047309 -0.008712 0.003514
0.048167 -0.008712 0.005599
0.047211 -0.008712 0.002210
0.047380 -0.008712 0.004384
0.048452 -0.008712 0.002667
0.047245 -0.008712 0.005087
0.046478 -0.008712 0.002361
0.046788 -0.008712 0.005481
0.048322 -0.008712 0.004546
0.048210 -0.008712 0.006305
0.049393 -0.008612 0.007373
0.049191 -0.008712 0.006513
0.048674 -0.008712 0.005255
0.049591 -0.008712 0.003244
0.050523 -0.008712 0.005109
0.049799 -0.008712 0.006329
0.049943 -0.008712 0.003709
0.049837 -0.008712 0.004581
0.048819 -0.008712 0.004738
0.050909 -0.008712 0.007094
0.050426 -0.008712 0.006557
0.049104 -0.008712 0.003614
0.049113 -0.008712 0.002829
0.048978 -0.008712 0.007024
0.049437 -0.008712 0.004064
0.050773 -0.008712 0.005788
0.050706 -0.008712 0.004477
0.050305 -0.008712 0.007118
0.049562 -0.008712 0.005035
0.050325 -0.008655 0.007809
0.049992 -0.008712 0.005432
0.048650 -0.008712 0.005996
0.049393 -0.008712 0.005745
0.050247 -0.008712 0.006011
0.050479 -0.008712 0.003987
0.051357 -0.008688 0.008267
0.053346 -0.008713 0.006794
0.051604 -0.008712 0.005365
0.052670 -0.008712 0.007129
0.051377 -0.008712 0.006253
0.052824 -0.008713 0.004920
0.053095 -0.008713 0.005949
0.051570 -0.008712 0.004685
0.052791 -0.008712 0.007932
0.051565 -0.008712 0.007447
0.052231 -0.008713 0.004367
0.051908 -0.008712 0.005892
0.052356 -0.008712 0.006321
0.051908 -0.008712 0.008111
0.051681 -0.008565 0.004010
0.052569 -0.008712 0.008458
0.051758 -0.008712 0.006893
0.052699 -0.008713 0.005575
0.053370 -0.008712 0.008167
0.051169 -0.008712 0.003920
0.052974 -0.008712 0.008865
0.052086 -0.008712 0.005140
0.052274 -0.008712 0.007618
0.051078 -0.008712 0.005236
0.054726 -0.008637 0.009653
0.054904 -0.008713 0.007286
0.054996 -0.008713 0.007887
0.054065 -0.008617 0.009401
0.054422 -0.008713 0.008366
0.053872 -0.008713 0.008818
0.054692 -0.008651 0.005339
0.054977 -0.008713 0.006706
0.055310 -0.008713 0.008377
0.053712 -0.008713 0.006327
0.055624 -0.008713 0.008987
0.055011 -0.008713 0.009071
0.054065 -0.008713 0.007774
0.054031 -0.008713 0.006750
0.054272 -0.008713 0.005845
0.055513 -0.008713 0.009561
0.055768 -0.008713 0.008055
0.053592 -0.008713 0.005524
0.055744 -0.008713 0.006520
0.053872 -0.008713 0.007270
0.054041 -0.008713 0.005199
0.055459 -0.008713 0.007102
0.054914 -0.008713 0.006032
0.053389 -0.008713 0.007569
0.055459 -0.008713 0.005745
0.053462 -0.008711 0.009184
0.054480 -0.008713 0.008957
0.056072 -0.008713 0.009335
0.056294 -0.008713 0.007120
0.057646 -0.008713 0.008157
0.057496 -0.008713 0.007060
0.057882 -0.008713 0.009228
0.056125 -0.008713 0.009998
0.056039 -0.008713 0.008567
0.056980 -0.008713 0.009683
0.057486 -0.008713 0.007637
0.057979 -0.008713 0.010534
0.055836 -0.008713 0.007509
0.056029 -0.008678 0.005846
0.057018 -0.008713 0.006733
0.058191 -0.008713 0.007552
0.057631 -0.008713 0.009828
0.057916 -0.008659 0.006557
0.056560 -0.008696 0.010355
0.056685 -0.008713 0.007760
0.057120 -0.008713 0.010212
0.058061 -0.008713 0.008603
0.056574 -0.008713 0.008504
0.056738 -0.008713 0.009066
0.057313 -0.008713 0.008720
0.059006 -0.008656 0.011129
0.059581 -0.008713 0.011225
0.058649 -0.008713 0.008693
0.059402 -0.008713 0.010571
0.060338 -0.008714 0.008391
0.060295 -0.008713 0.011473
0.059286 -0.008713 0.008446
0.059031 -0.008713 0.010092
0.058316 -0.008713 0.009542
0.058944 -0.008713 0.007781
0.059074 -0.008713 0.009301
0.059783 -0.008714 0.007548
0.058461 -0.008713 0.007035
0.058413 -0.008713 0.010091
0.059962 -0.008713 0.008794
0.058384 -0.008713 0.008058
0.060348 -0.008714 0.009211
0.060136 -0.008713 0.010868
0.058471 -0.008713 0.010881
0.059610 -0.008713 0.009697
0.059817 -0.008713 0.008161
0.060189 -0.008713 0.010068
0.060493 -0.008714 0.007707
0.059533 -0.008635 0.007072
0.062303 -0.008714 0.008461
0.061598 -0.008714 0.008602
0.061024 -0.008714 0.009522
0.062500 -0.008714 0.009992
0.061709 -0.008714 0.009560
0.062896 -0.008714 0.008426
0.060879 -0.008713 0.011561
0.061265 -0.008714 0.007701
0.061386 -0.008714 0.011271
0.061120 -0.008714 0.010627
0.061328 -0.008714 0.010116
0.062925 -0.008714 0.010956
0.060913 -0.008714 0.008840
0.062336 -0.008697 0.012050
0.061627 -0.008714 0.010780
0.061994 -0.008563 0.007802
0.062438 -0.008714 0.009215
0.062872 -0.008714 0.011633
0.062312 -0.008714 0.011060
0.061791 -0.008714 0.011814
0.060763 -0.008714 0.010063
0.061912 -0.008714 0.010051
0.060725 -0.008713 0.010986
0.061004 -0.008714 0.008201
0.062196 -0.008714 0.010542
0.063142 -0.008714 0.010298
0.064397 -0.008714 0.010962
0.063432 -0.008714 0.011300
0.065029 -0.008714 0.010761
0.064928 -0.008714 0.010182
0.065333 -0.008714 0.009063
0.065266 -0.008714 0.011769
0.064513 -0.008714 0.009294
0.063803 -0.008714 0.010891
0.063610 -0.008714 0.011929
0.064387 -0.008714 0.010170
0.064624 -0.008714 0.012104
0.064716 -0.008709 0.008487
0.063403 -0.008714 0.008730
0.063538 -0.008714 0.008210
0.064088 -0.008714 0.011589
0.063152 -0.008714 0.009215
0.063813 -0.008714 0.010136
0.064875 -0.008705 0.012632
0.064112 -0.008714 0.009681
0.064151 -0.008620 0.008358
0.063263 -0.008714 0.009780
0.063934 -0.008714 0.012390
0.064889 -0.008714 0.011311
0.063794 -0.008714 0.009186
0.065111 -0.008714 0.009607
0.067515 -0.008715 0.009145
0.066506 -0.008714 0.010195
0.066911 -0.008714 0.011778
0.067408 -0.008714 0.011536
0.067712 -0.008715 0.010738
0.065932 -0.008714 0.010733
0.067679 -0.008714 0.012944
0.066969 -0.008714 0.012525
0.065594 -0.008714 0.011220
0.066048 -0.008714 0.008910
0.067519 -0.008715 0.009766
0.066665 -0.008714 0.010947
0.066159 -0.008714 0.012776
0.067235 -0.008715 0.010346
0.065715 -0.008714 0.010146
0.066096 -0.008714 0.009698
0.067013 -0.008715 0.009415
0.067722 -0.008714 0.012027
0.066062 -0.008714 0.012177
0.065980 -0.008714 0.011620
0.065628 -0.008691 0.012780
0.069561 -0.008715 0.009891
0.068523 -0.008715 0.009603
0.070106 -0.008715 0.012853
0.068079 -0.008715 0.010034
0.069952 -0.008715 0.010274
0.069614 -0.008715 0.011770
0.070121 -0.008715 0.009467
0.068914 -0.008616 0.013327
0.070135 -0.008715 0.011319
0.069585 -0.008715 0.011225
0.068784 -0.008715 0.010612
0.069054 -0.008715 0.011952
0.068094 -0.008714 0.012586
0.069797 -0.008715 0.012343
0.068808 -0.008715 0.011477
0.068016 -0.008715 0.009371
0.068755 -0.008715 0.012823
0.069532 -0.008715 0.012999
0.069450 -0.008715 0.010678
0.068933 -0.008715 0.010101
0.068142 -0.008715 0.011052
0.068494 -0.008715 0.011945
0.069488 -0.008627 0.009351
0.072345 -0.008715 0.012738
0.072345 -0.008715 0.011623
0.072543 -0.008715 0.013637
0.072008 -0.008684 0.009666
0.070791 -0.008715 0.012853
0.070946 -0.008715 0.013378
0.070347 -0.008715 0.013378
0.072176 -0.008715 0.012132
0.071438 -0.008715 0.010436
0.071993 -0.008715 0.010929
0.071366 -0.008715 0.011225
0.071120 -0.008715 0.009947
0.072268 -0.008715 0.010215
0.071824 -0.008715 0.013141
0.070676 -0.008715 0.009578
0.071206 -0.008715 0.012064
0.070651 -0.008715 0.011748
0.070671 -0.008715 0.010595
0.071795 -0.008715 0.011708
0.070483 -0.008715 0.012336
0.071689 -0.008715 0.012428
0.072640 -0.008715 0.009785
0.074160 -0.008716 0.010264
0.074107 -0.008715 0.012713
0.072693 -0.008715 0.010776
0.073412 -0.008715 0.011770
0.073228 -0.008715 0.010052
0.074116 -0.008715 0.012010
0.072809 -0.008715 0.013051
0.074657 -0.008716 0.012883
0.074681 -0.008716 0.010429
0.073339 -0.008715 0.013099
0.074039 -0.008716 0.011351
0.073494 -0.008715 0.011175
0.073576 -0.008716 0.010521
0.074580 -0.008716 0.011726
0.074503 -0.008715 0.013450
0.074995 -0.008716 0.011222
0.074667 -0.008716 0.012313
0.073865 -0.008715 0.013228
0.073190 -0.008715 0.012486
0.074816 -0.008685 0.009905
0.073368 -0.008637 0.013825
0.072987 -0.008715 0.011417
0.072828 -0.008715 0.012013
0.074314 -0.008716 0.010812
0.075270 -0.008716 0.012266
0.077123 -0.008716 0.012985
0.076853 -0.008716 0.010047
0.076563 -0.008716 0.011371
0.076592 -0.008716 0.011933
0.076100 -0.008716 0.011018
0.075738 -0.008716 0.011921
0.077345 -0.008716 0.013961
0.076182 -0.008716 0.013742
0.075506 -0.008716 0.012795
0.077446 -0.008716 0.011175
0.076153 -0.008716 0.012883
0.075202 -0.008716 0.013409
0.077408 -0.008716 0.012254
0.076747 -0.008716 0.010778
0.076587 -0.008716 0.013255
0.075612 -0.008716 0.010216
0.076303 -0.008716 0.010024
0.076669 -0.008564 0.013979
0.077070 -0.008716 0.011593
0.076930 -0.008716 0.012481
0.075318 -0.008716 0.010697
0.075593 -0.008716 0.011226
0.075733 -0.008716 0.013372
0.079782 -0.008716 0.011162
0.078165 -0.008716 0.010312
0.078050 -0.008716 0.011090
0.077697 -0.008716 0.011702
0.078069 -0.008716 0.012698
0.079628 -0.008716 0.013329
0.078860 -0.008716 0.012957
0.079816 -0.008716 0.012407
0.079092 -0.008716 0.010407
0.077697 -0.008716 0.010677
0.079391 -0.008619 0.009978
0.078310 -0.008716 0.013256
0.079797 -0.008716 0.011780
0.078638 -0.008612 0.009995
0.079160 -0.008716 0.011715
0.079184 -0.008716 0.012447
0.078735 -0.008716 0.010846
0.077678 -0.008716 0.013522
0.078730 -0.008716 0.013624
0.078687 -0.008716 0.011975
0.079246 -0.008716 0.011132
0.077688 -0.008716 0.010004
0.078257 -0.008716 0.011635
0.079681 -0.008716 0.010635
0.080863 -0.008716 0.013703
0.081949 -0.008717 0.013713
0.081090 -0.008717 0.010287
0.081495 -0.008661 0.009928
0.081693 -0.008717 0.013220
0.081988 -0.008717 0.012767
0.080511 -0.008716 0.013070
0.080356 -0.008716 0.011928
0.080853 -0.008717 0.012617
0.081119 -0.008717 0.013102
0.081963 -0.008717 0.010866
0.080101 -0.008717 0.010160
0.081215 -0.008717 0.011241
0.080323 -0.008716 0.012569
0.080598 -0.008717 0.010683
0.081645 -0.008717 0.011756
0.082070 -0.008717 0.011399
0.081389 -0.008646 0.013957
0.080646 -0.008717 0.011320
0.081495 -0.008717 0.012391
0.081017 -0.008717 0.011988
0.082190 -0.008717 0.010359
0.083590 -0.008717 0.010312
0.084420 -0.008705 0.009705
0.084101 -0.008717 0.012799
0.084386 -0.008717 0.011954
0.082446 -0.008717 0.012281
0.083315 -0.008717 0.012495
0.084077 -0.008717 0.010529
0.084087 -0.008717 0.011288
0.084709 -0.008717 0.010263
0.083570 -0.008717 0.010946
0.084724 -0.008717 0.012609
0.084058 -0.008717 0.013612
0.082441 -0.008717 0.013453
0.083348 -0.008717 0.011826
0.082909 -0.008717 0.011011
0.083204 -0.008606 0.013828
0.082774 -0.008717 0.012904
0.083455 -0.008717 0.013300
0.083817 -0.008717 0.012300
0.082779 -0.008717 0.010417
0.083223 -0.008717 0.009890
0.082721 -0.008717 0.011701
0.085057 -0.008717 0.012115
0.086490 -0.008717 0.011521
0.086886 -0.008717 0.011967
0.086881 -0.008717 0.009950
0.085496 -0.008717 0.009941
0.086075 -0.008717 0.009898
0.086722 -0.008717 0.010842
0.084859 -0.008717 0.011508
0.086147 -0.008717 0.011020
0.086075 -0.008717 0.011954
0.085761 -0.008717 0.012547
0.086505 -0.008717 0.012808
0.085646 -0.008717 0.013181
0.085549 -0.008717 0.011920
0.085544 -0.008717 0.011282
0.085066 -0.008717 0.010941
0.086123 -0.008713 0.013569
0.087026 -0.008717 0.011428
0.084965 -0.008717 0.013211
0.085626 -0.008717 0.010662
0.086973 -0.008701 0.009391
0.086201 -0.008717 0.010444
0.085361 -0.008717 0.013647
0.087668 -0.008717 0.011719
0.087499 -0.008717 0.012675
0.089111 -0.008717 0.012187
0.088083 -0.008678 0.009245
0.089506 -0.008718 0.009180
0.088218 -0.008717 0.012696
0.087885 -0.008717 0.010507
0.088768 -0.008717 0.013032
0.088782 -0.008717 0.011759
0.088628 -0.008717 0.009216
0.088420 -0.008717 0.011242
0.087817 -0.008717 0.009926
0.087909 -0.008682 0.013330
0.088208 -0.008717 0.012012
0.089168 -0.008717 0.011195
0.089530 -0.008718 0.009894
0.087354 -0.008717 0.010274
0.087803 -0.008717 0.011102
0.088599 -0.008717 0.010643
0.087267 -0.008632 0.013410
0.088913 -0.008717 0.009808
0.088343 -0.008717 0.010074
0.089062 -0.008717 0.010363
0.087267 -0.008717 0.010861
0.089371 -0.008717 0.012706
0.090003 -0.008718 0.011147
0.091668 -0.008718 0.010621
0.090809 -0.008718 0.011847
0.091417 -0.008718 0.012293
0.091692 -0.008718 0.008734
0.089897 -0.008718 0.010471
0.090906 -0.008718 0.010785
0.091036 -0.008718 0.009965
0.090467 -0.008718 0.009381
0.091017 -0.008718 0.009415
0.089694 -0.008717 0.011617
0.090443 -0.008718 0.010028
0.089888 -0.008717 0.012573
0.090549 -0.008718 0.011334
0.089950 -0.008718 0.009574
0.091832 -0.008718 0.009467
0.091166 -0.008718 0.011416
0.090520 -0.008718 0.012362
0.091615 -0.008718 0.011752
0.090119 -0.008718 0.011957
0.092416 -0.008712 0.012196
0.092214 -0.008615 0.011138
0.023756 -0.007240 -0.009285
0.023972 -0.006385 -0.004987
0.023550 -0.007916 -0.009385
0.022094 -0.006835 -0.005828
0.022356 -0.008378 -0.005527
0.022474 -0.007408 -0.005583
0.023239 -0.007256 -0.009533
0.023563 -0.007601 -0.005040
0.022773 -0.007993 -0.005372
0.024114 -0.008100 -0.004723
0.022667 -0.006204 -0.005629
0.023664 -0.006245 -0.009328
0.023626 -0.006960 -0.005087
0.023066 -0.006635 -0.005390
0.023126 -0.006194 -0.009587
0.022605 -0.006795 -0.005591
0.023360 -0.006739 -0.009473
0.024332 -0.006758 -0.004771
0.023564 -0.008196 -0.004972
0.023049 -0.008038 -0.009624
0.023051 -0.007465 -0.005300
0.023882 -0.006723 -0.009226
0.024029 -0.007338 -0.004849
0.022125 -0.006302 -0.005874
0.024163 -0.008017 -0.009093
0.026616 -0.006619 -0.003699
0.026040 -0.006398 -0.004001
0.026129 -0.008250 -0.003744
0.026513 -0.008347 -0.007975
0.026094 -0.007693 -0.003826
0.026112 -0.006953 -0.008165
0.025159 -0.007727 -0.004267
0.024757 -0.007963 -0.008808
0.024630 -0.006342 -0.008870
0.024440 -0.007457 -0.008960
0.026620 -0.006529 -0.007921
0.024465 -0.007614 -0.004611
0.026641 -0.007666 -0.007911
0.024694 -0.008123 -0.004443
0.024509 -0.006896 -0.008928
0.025570 -0.008218 -0.004013
0.025364 -0.008387 -0.008520
0.026704 -0.007084 -0.007884
0.025329 -0.007246 -0.008537
0.025470 -0.006604 -0.008469
0.025765 -0.007789 -0.008331
0.026057 -0.006999 -0.003923
0.024846 -0.006739 -0.004529
0.024569 -0.006263 -0.004717
0.025287 -0.006327 -0.004368
0.025548 -0.007083 -0.004156
0.024975 -0.007236 -0.004409
0.027148 -0.006387 -0.007672
0.028009 -0.006964 -0.007263
0.027183 -0.006993 -0.007656
0.028010 -0.006213 -0.007261
0.029213 -0.006747 -0.002450
0.026892 -0.007390 -0.003479
0.028851 -0.006152 -0.006859
0.028250 -0.008012 -0.007144
0.027136 -0.007704 -0.007675
0.027530 -0.008223 -0.007487
0.027246 -0.006644 -0.003396
0.028814 -0.007007 -0.006879
0.028851 -0.007170 -0.002571
0.028671 -0.006563 -0.002728
0.029098 -0.007496 -0.006740
0.027388 -0.007728 -0.003208
0.027957 -0.006923 -0.003027
0.028352 -0.007494 -0.002774
0.027463 -0.007122 -0.003240
0.029030 -0.007707 -0.002427
0.027871 -0.007572 -0.002994
0.027903 -0.007629 -0.007312
0.027022 -0.008104 -0.003335
0.028489 -0.008545 -0.007033
0.028719 -0.008149 -0.002523
0.029081 -0.008287 -0.006752
0.028198 -0.006267 -0.002986
0.027685 -0.006290 -0.003228
0.028744 -0.007847 -0.006911
0.028398 -0.007319 -0.007076
0.028454 -0.006560 -0.007050
0.027028 -0.008448 -0.007730
0.030693 -0.007001 -0.001716
0.029540 -0.007268 -0.006533
0.031236 -0.008120 -0.001327
0.030909 -0.007897 -0.005881
0.030353 -0.008412 -0.001717
0.030661 -0.007526 -0.001671
0.031532 -0.008045 -0.005583
0.029839 -0.006877 -0.002135
0.031102 -0.007274 -0.001490
0.029848 -0.007763 -0.002029
0.029596 -0.006738 -0.006507
0.030055 -0.007378 -0.006288
0.031598 -0.007477 -0.001228
0.029786 -0.006186 -0.002242
0.030924 -0.008467 -0.005874
0.030099 -0.006600 -0.006264
0.031453 -0.006519 -0.005621
0.029378 -0.007230 -0.002314
0.030601 -0.006421 -0.001825
0.030762 -0.006820 -0.005950
0.030097 -0.008107 -0.006268
0.029632 -0.007804 -0.006489
0.030789 -0.007355 -0.005938
0.031252 -0.006738 -0.001480
0.029338 -0.008212 -0.002219
0.031284 -0.007321 -0.005703
0.032363 -0.008190 -0.005189
0.032213 -0.006935 -0.000999
0.032667 -0.006588 -0.000823
0.031911 -0.007277 -0.005404
0.032560 -0.007255 -0.005095
0.033000 -0.006872 -0.004883
0.031929 -0.008325 -0.000974
0.032171 -0.007500 -0.000953
0.032601 -0.007888 -0.000704
0.033566 -0.008066 -0.000226
0.032420 -0.006331 -0.005163
0.031762 -0.006549 -0.001257
0.033579 -0.007024 -0.004607
0.033405 -0.007578 -0.000357
0.032367 -0.006167 -0.001015
0.033380 -0.006358 -0.004704
0.033535 -0.008308 -0.004630
0.031921 -0.006374 -0.005397
0.033161 -0.007609 -0.004807
0.033284 -0.006810 -0.000503
0.033682 -0.007134 -0.000276
0.033081 -0.008165 -0.000445
0.032688 -0.007348 -0.000725
0.032956 -0.008284 -0.004905
0.033862 -0.006545 -0.004472
0.033776 -0.007854 -0.004513
0.033777 -0.006420 -0.000313
0.034252 -0.006441 -0.000083
0.035307 -0.007254 -0.003786
0.035563 -0.007841 0.000701
0.034131 -0.007790 0.000011
0.035707 -0.008507 -0.003597
0.036329 -0.006205 0.000876
0.035026 -0.006536 -0.003917
0.036126 -0.008311 0.001022
0.034291 -0.007155 0.000017
0.036464 -0.006821 -0.003235
0.036165 -0.007622 0.000960
0.036366 -0.008040 -0.003279
0.034761 -0.006735 0.000193
0.035689 -0.006901 -0.003602
0.036090 -0.006473 -0.003414
0.035147 -0.007383 0.000450
0.035209 -0.006315 0.000358
0.034269 -0.006877 -0.004281
0.034467 -0.007827 -0.004185
0.035500 -0.006726 0.000542
0.035110 -0.008312 0.000540
0.035143 -0.007947 -0.003865
0.034528 -0.008186 0.000247
0.036031 -0.006955 0.000820
0.035816 -0.007963 -0.003542
0.034755 -0.007367 -0.004050
0.034164 -0.007392 -0.004330
0.035540 -0.006325 -0.003674
0.034694 -0.008346 -0.004076
0.035633 -0.007273 0.000669
0.036202 -0.007385 -0.003361
0.036473 -0.007183 0.001059
0.038045 -0.007918 -0.002482
0.036998 -0.007792 0.001378
0.037804 -0.007165 -0.002597
0.037361 -0.007773 -0.002806
0.037808 -0.008546 0.001849
0.036972 -0.008247 -0.002992
0.037775 -0.007069 0.001663
0.036980 -0.006998 -0.002987
0.036872 -0.007583 -0.003042
0.037196 -0.006669 0.001342
0.038073 -0.008454 -0.002467
0.036797 -0.008304 0.001342
0.037379 -0.008091 0.001593
0.038623 -0.007539 -0.002207
0.038608 -0.006788 -0.002215
0.037686 -0.006530 -0.002652
0.037507 -0.008377 -0.002739
0.038883 -0.008016 -0.002084
0.038338 -0.007975 0.002036
0.038229 -0.006433 -0.002393
0.037893 -0.006355 0.001640
0.036704 -0.006704 0.001111
0.038524 -0.006602 0.001966
0.037284 -0.007290 0.001455
0.037900 -0.007702 0.001795
0.038254 -0.007312 0.001923
0.038816 -0.007964 0.002262
0.039686 -0.007129 0.002581
0.039043 -0.008526 0.002436
0.040607 -0.008456 -0.001261
0.041050 -0.008101 0.003343
0.039770 -0.006441 0.002544
0.039055 -0.006975 -0.002000
0.040607 -0.007175 0.003026
0.038973 -0.006935 0.002220
0.039893 -0.008248 -0.001601
0.039183 -0.007585 0.002394
0.041279 -0.006727 0.003295
0.039491 -0.007566 -0.001794
0.041221 -0.007457 0.003350
0.040848 -0.006246 0.003035
0.040605 -0.007884 -0.001265
0.041305 -0.006569 -0.000930
0.039974 -0.007978 0.002814
0.040421 -0.008296 0.003063
0.040416 -0.006765 -0.001353
0.041248 -0.008308 -0.000958
0.040126 -0.007484 -0.001491
0.039448 -0.006653 -0.001814
0.040960 -0.007292 -0.001092
0.040690 -0.007733 0.003128
0.040092 -0.007457 0.002814
0.040348 -0.006715 0.002850
0.039398 -0.008190 -0.001839
0.039886 -0.006882 -0.001606
0.039395 -0.008069 0.002550
0.041663 -0.007804 0.003600
0.041875 -0.006957 0.003604
0.042421 -0.008343 -0.000396
0.043485 -0.007358 0.004416
0.041933 -0.007866 -0.000630
0.043579 -0.007876 0.004520
0.042392 -0.007446 -0.000412
0.041841 -0.006715 -0.000675
0.043373 -0.007183 0.000057
0.042566 -0.006874 0.003922
0.042745 -0.006933 -0.000244
0.041695 -0.006438 0.003459
0.042843 -0.006183 -0.000198
0.043267 -0.008296 0.004422
0.041581 -0.007238 -0.000797
0.043260 -0.006707 0.004235
0.042247 -0.007300 0.003821
0.043239 -0.006663 -0.000007
0.042972 -0.007765 0.004218
0.042195 -0.008028 0.003881
0.041763 -0.008362 -0.000711
0.043153 -0.007764 -0.000051
0.042950 -0.007196 0.004142
0.045419 -0.006304 0.005218
0.045778 -0.006253 0.001200
0.045778 -0.006828 0.001200
0.044132 -0.006754 0.004656
0.044854 -0.007865 0.000762
0.044107 -0.007362 0.000406
0.045024 -0.007251 0.000842
0.044897 -0.007556 0.005111
0.044882 -0.008095 0.005167
0.044106 -0.008427 0.000405
0.043732 -0.007854 0.000227
0.043824 -0.006815 0.000269
0.045850 -0.008127 0.001236
0.044867 -0.006855 0.005018
0.044401 -0.008179 0.004948
0.045608 -0.006789 0.005361
0.045779 -0.007563 0.001202
0.045940 -0.007914 0.005649
0.045996 -0.006468 0.005513
0.044670 -0.006242 0.000672
0.044082 -0.007584 0.004729
0.044522 -0.007242 0.004898
0.045642 -0.008469 0.005571
0.045214 -0.008263 0.000932
0.044876 -0.006327 0.004960
0.044267 -0.007861 0.000479
0.044579 -0.007058 0.000629
0.043787 -0.006219 0.004428
0.045572 -0.007511 0.005428
0.045271 -0.006676 0.000960
0.046205 -0.007003 0.005673
0.046730 -0.007976 0.001652
0.047992 -0.007331 0.006559
0.046809 -0.006240 0.001691
0.048418 -0.006465 0.006666
0.047204 -0.007352 0.001879
0.047796 -0.006206 0.006338
0.046386 -0.007660 0.005832
0.047488 -0.006898 0.006271
0.047815 -0.008388 0.006593
0.046725 -0.007001 0.001652
0.046790 -0.006889 0.005938
0.047136 -0.007408 0.006160
0.048443 -0.007546 0.002466
0.046237 -0.006566 0.001418
0.046468 -0.008357 0.005953
0.046882 -0.008055 0.006113
0.047790 -0.008012 0.002159
0.046223 -0.007217 0.001412
0.047725 -0.007294 0.002127
0.046817 -0.008553 0.001696
0.047982 -0.006710 0.006484
0.047834 -0.006350 0.002181
0.048380 -0.008190 0.002438
0.047710 -0.007883 0.006489
0.047296 -0.008055 0.001924
0.047169 -0.006481 0.006073
0.047338 -0.006372 0.001944
0.048529 -0.007740 0.006863
0.048064 -0.006891 0.002288
0.050802 -0.008399 0.003591
0.050093 -0.006275 0.007434
0.050329 -0.007949 0.007731
0.049355 -0.007592 0.002903
0.049615 -0.006952 0.007289
0.050542 -0.007236 0.003471
0.049504 -0.007718 0.007327
0.049876 -0.008479 0.007590
0.050363 -0.006973 0.007634
0.048602 -0.007203 0.006837
0.049499 -0.008250 0.002972
0.050436 -0.007832 0.003417
0.050817 -0.008364 0.007991
0.049031 -0.008024 0.002751
0.050725 -0.007526 0.007857
0.049470 -0.006216 0.007135
0.049519 -0.007070 0.002983
0.048935 -0.006514 0.006915
0.049475 -0.006511 0.002961
0.049031 -0.006862 0.002751
0.048578 -0.007032 0.002533
0.050059 -0.007030 0.003237
0.050822 -0.006301 0.003601
0.050952 -0.006927 0.003662
0.049142 -0.007338 0.007108
0.049934 -0.007963 0.003180
0.050373 -0.006619 0.003389
0.049046 -0.008069 0.007147
0.050083 -0.007495 0.007569
0.050267 -0.008440 0.003335
0.053191 -0.006416 0.008822
0.052009 -0.006634 0.008325
0.053114 -0.008180 0.008988
0.052709 -0.006774 0.008651
0.051512 -0.008170 0.008276
0.051073 -0.006275 0.007869
0.053278 -0.007348 0.004715
0.052043 -0.007694 0.008459
0.051821 -0.007823 0.004070
0.051217 -0.007591 0.003788
0.052800 -0.007158 0.004500
0.051246 -0.006997 0.008025
0.052463 -0.006408 0.004355
0.053186 -0.006551 0.004674
0.052347 -0.007221 0.008539
0.053027 -0.007180 0.008837
0.051811 -0.007130 0.008290
0.052873 -0.007904 0.004533
0.052569 -0.008141 0.008743
0.051348 -0.007533 0.008135
0.051826 -0.006294 0.004072
0.051319 -0.006506 0.003836
0.052313 -0.007079 0.004290
0.053215 -0.008426 0.004683
0.052496 -0.006265 0.008499
0.051579 -0.006321 0.008097
0.052390 -0.008130 0.004320
0.052072 -0.008421 0.008554
0.051816 -0.006908 0.004068
0.051367 -0.008164 0.003864
0.054687 -0.006690 0.005341
0.055513 -0.006690 0.009737
0.053857 -0.008256 0.004972
0.053930 -0.007983 0.009280
0.053968 -0.007639 0.005019
0.055570 -0.007822 0.009886
0.055180 -0.006284 0.009564
0.054002 -0.006447 0.005035
0.054711 -0.007303 0.005345
0.054224 -0.007143 0.005130
0.055522 -0.006881 0.005654
0.054663 -0.007969 0.009556
0.054600 -0.007054 0.009430
0.055392 -0.006219 0.005606
0.053896 -0.007188 0.009178
0.055218 -0.007359 0.009700
0.053597 -0.006750 0.009018
0.054576 -0.007931 0.005293
0.055102 -0.008093 0.005495
0.055392 -0.007536 0.005606
0.053471 -0.007488 0.009050
0.055300 -0.008271 0.009832
0.054263 -0.006658 0.009259
0.053698 -0.007013 0.004900
0.053486 -0.007868 0.004807
0.054267 -0.007536 0.009358
0.056347 -0.006444 0.005967
0.056497 -0.008479 0.006026
0.056314 -0.007357 0.005952
0.057916 -0.007456 0.010650
0.057144 -0.006675 0.006267
0.058201 -0.006232 0.006648
0.057274 -0.006303 0.010323
0.057366 -0.007839 0.010515
0.057945 -0.006936 0.006570
0.055932 -0.007389 0.009972
0.057139 -0.007802 0.006269
0.055928 -0.008220 0.010064
0.056000 -0.008008 0.005836
0.056179 -0.006817 0.010000
0.057496 -0.007086 0.010477
0.056400 -0.007629 0.010176
0.056569 -0.008135 0.010295
0.056796 -0.006473 0.010190
0.057457 -0.008513 0.010621
0.058008 -0.007470 0.006587
0.056072 -0.006890 0.005865
0.057829 -0.006610 0.010532
0.058085 -0.008062 0.010768
0.056584 -0.007820 0.006059
0.057969 -0.008029 0.006578
0.057626 -0.006426 0.006452
0.056830 -0.007122 0.006148
0.057399 -0.008549 0.006365
0.057486 -0.007273 0.006398
0.056622 -0.007118 0.010204
0.056898 -0.007598 0.010343
0.059504 -0.007076 0.007061
0.059446 -0.008109 0.007042
0.060406 -0.006887 0.007347
0.058949 -0.008512 0.006890
0.058809 -0.007506 0.010936
0.059605 -0.006833 0.011117
0.058842 -0.006156 0.010800
0.058654 -0.007006 0.006793
0.060141 -0.007109 0.011315
0.059098 -0.006928 0.010969
0.058514 -0.007591 0.006750
0.059590 -0.006305 0.011059
0.058616 -0.008086 0.010939
0.060392 -0.007461 0.007342
0.060464 -0.008300 0.007366
0.058620 -0.006729 0.010797
0.060005 -0.006413 0.007220
0.060512 -0.008209 0.011528
0.059837 -0.007893 0.011308
0.059306 -0.007617 0.011107
0.059286 -0.006577 0.006992
0.058485 -0.008169 0.006737
0.059880 -0.007485 0.007181
0.059349 -0.008167 0.011183
0.059938 -0.008224 0.007201
0.060237 -0.006488 0.011272
0.059151 -0.007513 0.006950
0.062346 -0.007973 0.007891
0.061965 -0.006269 0.011695
0.062177 -0.006797 0.007850
0.060995 -0.006296 0.007534
0.062761 -0.008364 0.007999
0.062037 -0.007126 0.011806
0.061709 -0.007597 0.007732
0.061197 -0.008166 0.011704
0.061646 -0.006618 0.007715
0.062703 -0.006410 0.007983
0.061053 -0.007984 0.007554
0.061308 -0.007223 0.011629
0.062829 -0.007857 0.012087
0.062085 -0.008079 0.011920
0.061043 -0.006959 0.007551
0.060710 -0.006804 0.011431
0.060628 -0.007584 0.011491
0.062862 -0.007457 0.008027
0.061434 -0.006555 0.011588
0.062674 -0.007350 0.011991
0.061564 -0.008161 0.007693
0.062887 -0.006373 0.011944
0.062254 -0.007335 0.007868
0.062558 -0.006825 0.011906
0.061627 -0.007744 0.011766
0.060971 -0.006161 0.011429
0.064228 -0.006293 0.012248
0.064383 -0.006242 0.008415
0.064981 -0.006243 0.008544
0.063678 -0.007547 0.012272
0.064161 -0.006978 0.012304
0.064363 -0.007574 0.012408
0.063379 -0.007794 0.008160
0.063953 -0.008144 0.012385
0.065102 -0.008183 0.012617
0.063055 -0.006829 0.008077
0.063557 -0.006451 0.012123
0.065077 -0.006847 0.012472
0.063977 -0.006848 0.008310
0.065044 -0.006838 0.008555
0.063331 -0.006980 0.012122
0.064609 -0.007572 0.008470
0.064648 -0.008159 0.008476
0.063987 -0.007616 0.008315
0.063519 -0.007278 0.008197
0.065367 -0.008306 0.008621
0.065092 -0.007656 0.012563
0.063311 -0.008402 0.012271
0.064773 -0.006172 0.012342
0.064460 -0.008312 0.012505
0.065879 -0.008010 0.012760
0.065850 -0.007445 0.012693
0.067104 -0.007800 0.012981
0.066863 -0.008529 0.013008
0.067268 -0.006559 0.008997
0.066781 -0.006232 0.008901
0.067220 -0.006260 0.012841
0.065850 -0.007129 0.008717
0.067259 -0.007927 0.008997
0.066511 -0.007265 0.008846
0.067452 -0.007289 0.012980
0.066380 -0.007161 0.012767
0.067785 -0.007668 0.009102
0.066105 -0.006603 0.012656
0.065517 -0.006375 0.012512
0.065681 -0.006935 0.012603
0.065468 -0.007648 0.008640
0.067423 -0.008233 0.013074
0.067080 -0.006888 0.012879
0.067486 -0.007165 0.009041
0.066405 -0.006608 0.008829
0.066496 -0.008056 0.012884
0.066771 -0.008461 0.008899
0.065980 -0.007964 0.008743
0.065666 -0.006619 0.008678
0.066709 -0.007788 0.008888
0.067804 -0.007761 0.013080
0.066964 -0.007003 0.008938
0.068229 -0.008211 0.013187
0.068890 -0.006904 0.009265
0.069363 -0.008149 0.013346
0.068263 -0.007310 0.009173
0.068861 -0.006210 0.009259
0.068422 -0.007595 0.013151
0.068962 -0.008524 0.009276
0.068991 -0.007782 0.013250
0.068880 -0.007866 0.009263
0.069488 -0.007768 0.009351
0.068190 -0.006414 0.009164
0.070183 -0.007348 0.009448
0.069648 -0.007116 0.009373
0.070005 -0.008309 0.013453
0.067939 -0.006881 0.009129
0.067963 -0.006154 0.012936
0.068451 -0.006908 0.013082
0.069377 -0.006416 0.009335
0.068292 -0.008252 0.009179
0.069170 -0.006810 0.013176
0.069759 -0.007128 0.013294
0.068494 -0.006320 0.013028
0.069846 -0.006207 0.013209
0.069928 -0.006512 0.009413
0.069908 -0.008174 0.009410
0.069956 -0.007735 0.013386
0.067877 -0.006768 0.012985
0.070309 -0.007311 0.013389
0.072384 -0.008126 0.013684
0.070835 -0.008009 0.013537
0.071158 -0.007248 0.013484
0.071559 -0.008541 0.013656
0.071728 -0.007042 0.009644
0.071535 -0.007631 0.013561
0.071559 -0.006520 0.009626
0.071597 -0.006257 0.013420
0.072360 -0.006175 0.013479
0.071578 -0.006834 0.013479
0.071481 -0.007790 0.009622
0.072080 -0.007460 0.009673
0.071042 -0.007165 0.009571
0.070357 -0.006618 0.013326
0.072456 -0.007562 0.013630
0.070984 -0.006657 0.013408
0.070511 -0.008061 0.009494
0.071013 -0.006429 0.009569
0.072220 -0.006863 0.013539
0.072119 -0.008141 0.009675
0.072360 -0.006849 0.009698
0.070516 -0.006618 0.009496
0.071091 -0.008216 0.009577
0.074474 -0.008185 0.009881
0.072707 -0.006576 0.013549
0.073460 -0.006309 0.013590
0.074295 -0.007498 0.009867
0.074609 -0.006753 0.009894
0.074710 -0.007132 0.013768
0.073899 -0.007652 0.013766
0.073171 -0.007121 0.009769
0.073161 -0.007746 0.013712
0.074155 -0.007061 0.013730
0.074449 -0.008386 0.013890
0.073267 -0.006208 0.009775
0.073909 -0.007080 0.009833
0.074531 -0.006548 0.013701
0.073706 -0.008163 0.013802
0.072794 -0.007846 0.009735
0.075096 -0.007494 0.013819
0.073402 -0.007271 0.013684
0.073938 -0.006523 0.013653
0.073740 -0.006574 0.009820
0.073957 -0.008470 0.009840
0.074570 -0.007645 0.013815
0.073282 -0.007641 0.009778
0.073875 -0.007885 0.009829
0.074971 -0.008520 0.013922
0.074966 -0.007867 0.009912
0.072828 -0.007131 0.013618
0.073248 -0.008231 0.009773
0.076457 -0.006718 0.013784
0.077205 -0.007794 0.013917
0.075815 -0.006909 0.009938
0.076216 -0.007601 0.013865
0.075111 -0.007344 0.009914
0.075144 -0.006197 0.013685
0.075859 -0.008040 0.009936
0.077051 -0.007689 0.009976
0.077094 -0.006465 0.013775
0.077089 -0.006713 0.009978
0.075714 -0.006379 0.013721
0.075159 -0.006810 0.013750
0.077466 -0.007109 0.009986
0.075675 -0.006913 0.013777
0.075226 -0.006738 0.009917
0.075323 -0.008031 0.013882
0.075555 -0.006219 0.009926
0.076317 -0.008162 0.013928
0.076225 -0.007653 0.009950
0.077302 -0.008312 0.009985
0.076776 -0.007235 0.013845
0.076549 -0.006564 0.009962
0.076785 -0.007194 0.009967
0.075777 -0.008406 0.013933
0.075352 -0.008257 0.009920
0.076578 -0.008264 0.009962
0.078484 -0.007370 0.013893
0.079073 -0.007025 0.013843
0.079550 -0.007615 0.013891
0.079589 -0.008412 0.013973
0.078252 -0.008495 0.014013
0.078305 -0.006694 0.013825
0.077808 -0.006356 0.013785
0.078204 -0.007409 0.010008
0.079367 -0.006799 0.009978
0.078716 -0.007029 0.009994
0.078296 -0.008154 0.010003
0.079058 -0.008370 0.013983
0.077649 -0.007236 0.013875
0.079864 -0.006561 0.013778
0.079029 -0.007790 0.013922
0.079594 -0.008127 0.009972
0.078513 -0.006175 0.013765
0.077668 -0.008227 0.013979
0.079188 -0.007306 0.009982
0.078339 -0.007948 0.013953
0.077885 -0.006201 0.010002
0.078981 -0.008140 0.009988
0.077746 -0.007973 0.009997
0.078132 -0.006830 0.010009
0.078614 -0.007731 0.009995
0.080033 -0.006777 0.009965
0.081244 -0.006888 0.013778
0.079994 -0.006178 0.009963
0.080540 -0.007536 0.009951
0.080057 -0.007227 0.013839
0.081341 -0.006495 0.009936
0.080023 -0.008062 0.013930
0.082325 -0.007786 0.009867
0.080366 -0.008507 0.013965
0.079946 -0.007567 0.009964
0.081766 -0.008039 0.009909
0.080627 -0.007840 0.013890
0.081775 -0.006251 0.013697
0.081785 -0.007524 0.013826
0.082267 -0.007098 0.009874
0.080578 -0.007271 0.013832
0.080496 -0.006651 0.013771
0.080776 -0.006846 0.009948
0.080525 -0.006364 0.009953
0.081095 -0.007560 0.013850
0.082147 -0.006460 0.009880
0.081413 -0.008038 0.013892
0.082263 -0.006964 0.013735
0.081172 -0.007524 0.009938
0.080742 -0.008076 0.009948
0.081698 -0.007451 0.009915
0.081206 -0.006331 0.013721
0.082340 -0.008215 0.013858
0.082803 -0.007528 0.009830
0.084347 -0.007125 0.009709
0.084420 -0.007836 0.013654
0.084497 -0.006610 0.009699
0.083339 -0.007169 0.013669
0.083821 -0.007473 0.013662
0.082552 -0.008500 0.009851
0.083797 -0.006520 0.013567
0.083797 -0.008512 0.009751
0.083421 -0.006752 0.009782
0.082509 -0.006246 0.013639
0.083845 -0.007734 0.009749
0.082808 -0.007627 0.013760
0.083952 -0.006681 0.009738
0.084560 -0.006745 0.013532
0.083189 -0.006234 0.009798
0.083373 -0.007413 0.009784
0.083358 -0.007989 0.009786
0.083213 -0.006633 0.013623
0.084212 -0.008156 0.009722
0.083353 -0.007885 0.013742
0.082682 -0.006660 0.009840
0.084333 -0.007273 0.013600
0.083870 -0.008186 0.013735
0.085906 -0.006325 0.009534
0.085549 -0.006895 0.013455
0.087113 -0.006749 0.009371
0.086118 -0.007924 0.013491
0.086625 -0.007172 0.013341
0.086731 -0.007867 0.009425
0.086075 -0.006994 0.009513
0.086157 -0.006469 0.013331
0.084926 -0.007344 0.013565
0.085829 -0.008368 0.009545
0.085848 -0.007347 0.013462
0.085385 -0.008178 0.013612
0.084753 -0.008511 0.013699
0.084975 -0.008433 0.009657
0.086997 -0.006740 0.013247
0.085568 -0.006762 0.009577
0.086562 -0.008400 0.013479
0.086524 -0.006410 0.009452
0.085047 -0.006523 0.013469
0.086495 -0.007315 0.009456
0.086538 -0.008404 0.009452
0.084878 -0.007806 0.009667
0.086770 -0.007918 0.013398
0.086201 -0.007930 0.009494
0.084975 -0.006926 0.009657
0.085448 -0.007460 0.009593
0.088015 -0.006675 0.013103
0.089559 -0.007508 0.008979
0.088039 -0.006908 0.009251
0.088749 -0.006449 0.012982
0.089183 -0.006853 0.009049
0.088990 -0.008093 0.013121
0.087711 -0.007646 0.009296
0.088560 -0.006748 0.009168
0.087219 -0.007377 0.009356
0.088150 -0.007649 0.013188
0.088242 -0.007799 0.009219
0.087494 -0.006581 0.013162
0.089033 -0.007542 0.009079
0.088686 -0.007022 0.013051
0.087991 -0.006375 0.009253
0.087537 -0.008144 0.013320
0.088430 -0.008225 0.013210
0.089164 -0.007576 0.013035
0.087402 -0.007546 0.013279
0.089371 -0.007068 0.012943
0.088739 -0.008076 0.009135
0.088811 -0.006276 0.009120
0.087402 -0.008352 0.009333
0.088556 -0.007296 0.009166
0.089381 -0.006533 0.012883
0.087865 -0.007181 0.013179
0.089791 -0.007474 0.012905
0.091832 -0.008269 0.009150
0.089738 -0.006433 0.008941
0.091987 -0.008024 0.009972
0.091746 -0.007116 0.008687
0.090592 -0.006210 0.008779
0.089617 -0.008302 0.013024
0.091543 -0.007245 0.012548
0.091306 -0.008206 0.008645
0.091152 -0.006855 0.008675
0.091186 -0.008405 0.012737
0.091649 -0.008012 0.012609
0.089603 -0.008073 0.008969
0.090235 -0.007784 0.008849
0.090467 -0.007108 0.012737
0.091075 -0.006773 0.012587
0.091562 -0.006372 0.012453
0.090684 -0.006325 0.012614
0.091910 -0.007168 0.009553
0.090110 -0.008503 0.008872
0.090520 -0.006975 0.008794
0.091794 -0.006566 0.008953
0.090964 -0.007716 0.012706
0.090549 -0.008557 0.012875
0.089984 -0.007153 0.008898
0.091808 -0.007667 0.009011
0.090737 -0.007471 0.008751
0.090134 -0.006542 0.012740
0.091253 -0.006290 0.008656
0.090447 -0.007847 0.012817
0.091871 -0.006160 0.009330
0.090809 -0.008023 0.008736
0.090862 -0.008555 0.008726
0.091943 -0.006810 0.012426
0.091446 -0.007675 0.008620
0.092378 -0.007534 0.012419
0.092310 -0.008431 0.011665
0.092141 -0.007325 0.010769
0.092436 -0.008195 0.012304
0.092107 -0.006551 0.010588
0.092112 -0.007889 0.010637
0.092223 -0.007669 0.011218
0.092344 -0.007914 0.011812
0.092030 -0.007302 0.010184
0.092349 -0.007171 0.011857
0.092030 -0.008553 0.010177
0.092267 -0.006733 0.011434
0.092050 -0.008545 0.012588
0.092416 -0.006619 0.012226
0.091992 -0.006716 0.009976
0.023944 -0.005238 -0.005129
0.022583 -0.003853 -0.005940
0.023599 -0.004941 -0.009363
0.024424 -0.004075 -0.008970
0.023719 -0.005724 -0.005181
0.023446 -0.004735 -0.005428
0.023218 -0.005332 -0.009543
0.023734 -0.005615 -0.009296
0.023634 -0.004355 -0.009345
0.022510 -0.005599 -0.005773
0.024042 -0.004107 -0.005215
0.024335 -0.004632 -0.009009
0.023033 -0.005420 -0.005544
0.023249 -0.004890 -0.009959
0.023311 -0.006140 -0.005330
0.023397 -0.004058 -0.005527
0.022488 -0.005014 -0.005850
0.022908 -0.004688 -0.005687
0.024186 -0.006086 -0.009080
0.024285 -0.005274 -0.009033
0.025245 -0.004183 -0.008576
0.026664 -0.005016 -0.003863
0.026064 -0.005664 -0.004073
0.024694 -0.005698 -0.008838
0.024604 -0.004161 -0.004941
0.026105 -0.004786 -0.008168
0.025476 -0.005636 -0.004358
0.024578 -0.004944 -0.004863
0.025243 -0.006080 -0.008580
0.025170 -0.004346 -0.004649
0.024848 -0.004559 -0.008769
0.026691 -0.005223 -0.007888
0.025739 -0.004435 -0.004369
0.024940 -0.005079 -0.008723
0.026075 -0.004033 -0.004257
0.026542 -0.005935 -0.007960
0.026487 -0.004505 -0.004003
0.026006 -0.004899 -0.004190
0.026133 -0.003793 -0.008156
0.026461 -0.005980 -0.003849
0.025391 -0.004967 -0.004473
0.024445 -0.005744 -0.004837
0.026619 -0.004637 -0.007926
0.026614 -0.004071 -0.007923
0.025815 -0.005979 -0.008306
0.026170 -0.005560 -0.008136
0.026688 -0.003925 -0.003977
0.025513 -0.003948 -0.004531
0.025280 -0.005503 -0.008560
0.024979 -0.005703 -0.004586
0.025760 -0.005211 -0.008330
0.025880 -0.004303 -0.008274
0.025421 -0.004697 -0.008494
0.028812 -0.004659 -0.002879
0.029209 -0.004115 -0.002753
0.027864 -0.005026 -0.003291
0.029246 -0.003941 -0.006671
0.026942 -0.006089 -0.003606
0.028604 -0.005080 -0.006976
0.027973 -0.005805 -0.003147
0.027402 -0.005518 -0.003450
0.027021 -0.005866 -0.007733
0.027086 -0.003821 -0.007701
0.028629 -0.004180 -0.003020
0.027903 -0.004393 -0.003342
0.029225 -0.005509 -0.006680
0.027636 -0.004133 -0.007440
0.027207 -0.004524 -0.007641
0.028003 -0.004496 -0.007265
0.027254 -0.005369 -0.007622
0.028737 -0.004474 -0.006914
0.029134 -0.004934 -0.006724
0.028110 -0.005459 -0.007211
0.027249 -0.004238 -0.003672
0.027670 -0.005092 -0.007424
0.028537 -0.005145 -0.002956
0.028138 -0.003942 -0.007200
0.028678 -0.005725 -0.002823
0.027362 -0.004830 -0.003552
0.027700 -0.005761 -0.007407
0.029026 -0.005255 -0.002709
0.028404 -0.005901 -0.007074
0.031530 -0.005952 -0.005586
0.030692 -0.005959 -0.005982
0.031340 -0.004126 -0.001739
0.030515 -0.003997 -0.006070
0.031546 -0.004799 -0.001562
0.029280 -0.005937 -0.002512
0.030603 -0.005796 -0.001898
0.030360 -0.005160 -0.002084
0.030795 -0.004764 -0.001924
0.029660 -0.005141 -0.002419
0.031512 -0.005501 -0.001499
0.029464 -0.005980 -0.006568
0.030756 -0.005333 -0.005952
0.031342 -0.003737 -0.005673
0.030797 -0.004541 -0.005935
0.030205 -0.005351 -0.006215
0.031454 -0.004808 -0.005621
0.030807 -0.003992 -0.002008
0.029683 -0.004927 -0.006463
0.029704 -0.004392 -0.006455
0.029926 -0.004659 -0.002350
0.030424 -0.004341 -0.002150
0.030329 -0.003798 -0.002255
0.030969 -0.005402 -0.001768
0.029958 -0.005572 -0.002230
0.030001 -0.006043 -0.006311
0.030325 -0.004644 -0.006159
0.031243 -0.005297 -0.005719
0.029867 -0.003957 -0.002459
0.029724 -0.005457 -0.006446
0.031038 -0.006142 -0.001650
0.029348 -0.004659 -0.002625
0.033704 -0.003850 -0.004551
0.033015 -0.004695 -0.004876
0.032666 -0.004668 -0.001043
0.033555 -0.004942 -0.000587
0.032804 -0.005219 -0.000916
0.031765 -0.004100 -0.005473
0.032443 -0.004871 -0.005148
0.033508 -0.004737 -0.004642
0.032873 -0.003955 -0.001026
0.033994 -0.005934 -0.000267
0.033062 -0.005447 -0.004855
0.033443 -0.006016 -0.000518
0.033523 -0.005724 -0.004633
0.032257 -0.005526 -0.005240
0.032930 -0.005854 -0.000781
0.032115 -0.005615 -0.001198
0.032357 -0.004235 -0.001242
0.032406 -0.003871 -0.005169
0.032894 -0.006133 -0.004933
0.032264 -0.005063 -0.001190
0.033284 -0.005391 -0.000666
0.033151 -0.004385 -0.000847
0.032675 -0.004307 -0.005040
0.031729 -0.005475 -0.005489
