ply
format ascii 1.0
element vertex 1681
property float x
property float y
property float z
end_header
-0.007459 -0.009801 0.000466
-0.009069 -0.009801 0.000435
-0.008983 -0.009792 0.007151
-0.007268 -0.008983 0.007110
-0.008977 -0.009802 -0.001333
-0.010261 -0.007776 0.007180
-0.009753 -0.009293 0.007169
-0.006349 -0.009799 0.002136
-0.008541 -0.007024 -0.001558
-0.006712 -0.009798 0.003911
-0.008043 -0.006263 -0.001571
-0.009139 -0.009798 0.004350
-0.007844 -0.006409 0.007122
-0.006308 -0.009797 0.005183
-0.009593 -0.008513 -0.001533
-0.009392 -0.007276 -0.001538
-0.009933 -0.009799 0.002935
-0.007459 -0.009799 0.002141
-0.009791 -0.009799 0.003626
-0.007372 -0.009798 0.004179
-0.007091 -0.009799 0.002869
-0.008623 -0.009797 0.005755
-0.006623 -0.007566 -0.001603
-0.009602 -0.006512 -0.001534
-0.009047 -0.006587 0.007150
-0.009619 -0.009800 0.001872
-0.007635 -0.009799 0.003381
-0.010422 -0.009801 -0.000423
-0.008795 -0.009800 0.001888
-0.006909 -0.005977 -0.001598
-0.009795 -0.009802 -0.001208
-0.007321 -0.009797 0.005737
-0.009684 -0.009798 0.005113
-0.005908 -0.009249 -0.001619
-0.002035 -0.009798 0.004073
-0.002420 -0.006803 -0.001702
-0.002168 -0.009797 0.005434
-0.001080 -0.008728 -0.001732
-0.001368 -0.006119 0.006970
-0.002103 -0.009799 0.001972
-0.005034 -0.008268 -0.001640
-0.002641 -0.006003 0.007000
-0.004286 -0.007523 0.007039
-0.003851 -0.006967 -0.001669
-0.002141 -0.009800 0.000668
-0.003332 -0.009797 0.004646
-0.002885 -0.008423 0.007007
-0.002686 -0.007384 0.007002
-0.000930 -0.009798 0.002766
-0.005183 -0.005958 0.007059
-0.003785 -0.006606 0.007027
-0.003142 -0.009737 -0.001683
-0.005594 -0.009800 0.001011
-0.003270 -0.009379 0.007017
-0.003432 -0.009801 -0.000083
-0.002357 -0.009801 -0.000518
-0.005149 -0.009274 0.007061
-0.005433 -0.009797 0.006200
-0.004522 -0.006589 -0.001653
-0.001753 -0.009798 0.003392
-0.001765 -0.007341 0.006980
-0.004783 -0.008177 0.007051
-0.002868 -0.009800 0.000910
-0.005191 -0.009800 0.001623
-0.004639 -0.009799 0.002620
-0.000816 -0.009798 0.003490
-0.002966 -0.006631 0.007008
-0.001671 -0.009800 0.000040
-0.005631 -0.007743 -0.001626
-0.005665 -0.006423 -0.001626
-0.004622 -0.009801 -0.001198
-0.002077 -0.006490 0.006987
-0.003208 -0.009801 -0.000910
-0.004598 -0.009801 -0.000459
-0.003122 -0.009798 0.003813
-0.004678 -0.006822 0.007048
-0.002769 -0.009796 0.006011
-0.004236 -0.009797 0.005816
-0.004769 -0.009796 0.006595
-0.005657 -0.006946 0.007071
-0.001757 -0.009796 0.006956
-0.002802 -0.008000 -0.001692
-0.002486 -0.009152 -0.001699
-0.003888 -0.009798 0.003772
-0.000876 -0.008673 0.006960
-0.004003 -0.009679 0.007034
-0.005642 -0.009799 0.002281
-0.003158 -0.008830 -0.001684
-0.000838 -0.009443 0.006960
-0.000988 -0.006388 -0.001736
-0.003864 -0.008306 0.007030
-0.002492 -0.009260 0.006998
-0.004138 -0.008977 0.007037
-0.001198 -0.009797 0.004423
-0.001539 -0.009799 0.001077
-0.001848 -0.006142 -0.001716
-0.001305 -0.009796 0.006379
-0.003173 -0.009799 0.001944
-0.004663 -0.009798 0.003368
-0.004379 -0.008756 -0.001655
-0.000927 -0.009799 0.001612
-0.003751 -0.009799 0.002567
-0.004775 -0.009798 0.004076
-0.005524 -0.009797 0.005223
-0.003575 -0.009796 0.006084
-0.005383 -0.009798 0.004508
-0.003370 -0.005942 -0.001680
-0.003127 -0.007354 -0.001685
-0.001330 -0.007269 -0.001727
-0.001411 -0.009797 0.005226
-0.003450 -0.007511 0.007020
-0.002195 -0.007578 -0.001707
-0.002265 -0.009801 -0.001449
-0.002628 -0.009799 0.002564
-0.004212 -0.009458 -0.001658
-0.002121 -0.007979 0.006989
-0.004234 -0.005960 0.007037
-0.001648 -0.009801 -0.000857
-0.000991 -0.009801 -0.001515
-0.003953 -0.007668 -0.001666
-0.001633 -0.009798 0.002664
-0.004012 -0.009800 0.001117
-0.004578 -0.009800 0.000622
-0.001169 -0.008028 0.006967
-0.003728 -0.008336 -0.001671
-0.000979 -0.009800 -0.000371
-0.002559 -0.009798 0.003353
-0.001687 -0.009010 0.006979
-0.004353 -0.009798 0.004681
-0.005278 -0.009801 0.000169
-0.004978 -0.009333 -0.001641
-0.004120 -0.009799 0.001932
-0.000948 -0.007907 -0.001736
-0.004856 -0.007576 -0.001645
-0.001622 -0.009262 -0.001719
-0.001869 -0.008313 -0.001714
-0.003918 -0.009801 -0.000735
-0.003419 -0.009797 0.005369
-0.004817 -0.009797 0.005221
-0.000714 -0.009797 0.005026
-0.002057 -0.009796 0.006185
0.002107 -0.008156 0.006890
0.004049 -0.009799 0.001339
0.000273 -0.008054 -0.001765
0.003553 -0.006853 -0.001842
0.000530 -0.009801 -0.001760
-0.000230 -0.009288 -0.001752
0.003782 -0.009797 0.004183
0.001577 -0.009798 0.003388
0.001715 -0.009801 -0.001307
-0.000664 -0.009796 0.005757
-0.000396 -0.007566 0.006948
0.001150 -0.009799 0.000581
0.001235 -0.009481 -0.001786
0.001147 -0.006793 0.006911
-0.000154 -0.009798 0.003861
0.002931 -0.006441 -0.001828
0.002680 -0.009798 0.002467
0.001094 -0.009795 0.006881
0.001015 -0.009800 -0.000411
0.002620 -0.009010 0.006878
0.000771 -0.008919 -0.001776
-0.000069 -0.009798 0.003073
0.000729 -0.009798 0.002917
-0.000082 -0.009800 -0.000205
0.003620 -0.007192 0.006854
0.002948 -0.009797 0.004162
0.004136 -0.009800 -0.000857
0.003540 -0.008540 -0.001841
0.001019 -0.009799 0.001819
0.003818 -0.009796 0.005561
0.004033 -0.009799 0.000450
0.001912 -0.009800 0.000264
0.002149 -0.009800 -0.000502
0.000034 -0.009799 0.001750
0.000314 -0.009796 0.006060
0.000608 -0.009797 0.004235
0.000391 -0.009799 0.000725
0.001584 -0.009797 0.004609
-0.000401 -0.006707 0.006948
0.002955 -0.009800 -0.000283
0.002766 -0.009796 0.004973
0.001279 -0.006228 -0.001789
0.004269 -0.008879 0.006840
0.004268 -0.007279 -0.001859
0.004031 -0.007992 0.006845
0.003459 -0.008854 0.006859
0.004111 -0.009795 0.006697
-0.000352 -0.009801 -0.001093
0.002759 -0.007521 -0.001823
0.002092 -0.009204 -0.001806
0.002562 -0.009799 0.000584
0.003846 -0.009647 -0.001847
0.001391 -0.007094 -0.001791
0.001996 -0.009798 0.002717
0.000099 -0.008615 0.006937
0.002508 -0.008344 -0.001817
0.002623 -0.009801 -0.001336
0.000775 -0.006191 0.006920
0.002627 -0.009796 0.005867
0.000246 -0.009795 0.006816
0.000577 -0.007338 0.006925
0.002618 -0.006652 0.006877
0.000030 -0.009797 0.004774
0.003391 -0.009800 -0.001161
0.001877 -0.007098 0.006894
0.000199 -0.006622 -0.001764
0.001914 -0.009796 0.005383
0.001030 -0.008455 0.006915
0.002911 -0.009307 -0.001826
0.001734 -0.005981 0.006897
-0.000535 -0.009800 0.000785
0.001620 -0.009315 0.006902
0.003404 -0.006291 0.006858
0.000631 -0.009107 0.006925
0.000388 -0.009801 -0.000936
0.001918 -0.006559 -0.001804
0.002703 -0.007361 0.006875
0.001217 -0.007743 0.006910
0.002216 -0.009797 0.004262
0.001505 -0.008058 -0.001793
-0.000223 -0.007530 -0.001753
0.001129 -0.009796 0.006061
0.000803 -0.009797 0.004986
0.001956 -0.009799 0.001068
0.002896 -0.008252 0.006871
0.003561 -0.009796 0.004865
0.002305 -0.009729 0.006886
0.002966 -0.009795 0.006592
0.002777 -0.009799 0.001628
0.003682 -0.007705 -0.001845
0.003751 -0.009797 0.003361
0.002915 -0.009798 0.003314
0.001879 -0.009796 0.006202
-0.000295 -0.008581 -0.001751
0.003696 -0.009798 0.002222
0.001747 -0.009799 0.001893
0.003204 -0.009799 0.001007
0.000644 -0.007238 -0.001774
0.004331 -0.009798 0.002819
0.006541 -0.009796 0.005421
0.008041 -0.009448 0.006752
0.007602 -0.009799 0.000015
0.004662 -0.009796 0.005079
0.006686 -0.007546 -0.001915
0.008833 -0.009750 0.006733
0.007045 -0.009012 -0.001923
0.006822 -0.009800 -0.001327
0.007301 -0.009795 0.005840
0.006852 -0.009797 0.003565
0.008836 -0.008096 -0.001965
0.005263 -0.008038 -0.001882
0.008125 -0.009798 0.001201
0.009002 -0.009798 0.001153
0.005145 -0.007337 0.006818
0.004346 -0.006353 0.006836
0.007404 -0.009798 0.000932
0.004353 -0.007317 0.006837
0.008648 -0.009796 0.004456
0.007465 -0.007963 0.006764
0.008023 -0.009800 -0.000864
0.007990 -0.009797 0.002726
0.006637 -0.009799 0.001028
0.005872 -0.009796 0.004668
0.005364 -0.009799 0.000370
0.007350 -0.008946 0.006768
0.008048 -0.009795 0.006109
0.009248 -0.009442 -0.001974
0.007067 -0.006585 -0.001925
0.007515 -0.007356 -0.001935
0.008725 -0.009800 -0.001077
0.004751 -0.009798 0.001648
0.005431 -0.009797 0.003356
0.004528 -0.009800 -0.000115
0.006881 -0.009796 0.004372
0.006470 -0.009787 0.006789
0.005594 -0.009795 0.006103
0.005552 -0.009643 -0.001887
0.009289 -0.007788 0.006721
0.004721 -0.006423 -0.001870
0.005185 -0.009797 0.004456
0.005511 -0.008052 0.006810
0.007803 -0.009796 0.004625
0.004544 -0.009139 -0.001864
0.008143 -0.007184 0.006748
0.008162 -0.008147 0.006748
0.004515 -0.009800 -0.001476
0.005770 -0.009799 -0.000318
0.008980 -0.009797 0.003547
0.006264 -0.009797 0.003963
0.007121 -0.006634 0.006771
0.004880 -0.009795 0.006085
0.008159 -0.009800 -0.001639
0.007877 -0.006285 -0.001944
0.006704 -0.009797 0.002860
0.005120 -0.007041 -0.001879
0.006268 -0.006601 -0.001906
0.005931 -0.009798 0.002831
0.004736 -0.009445 0.006829
0.004503 -0.009797 0.003676
0.007592 -0.009798 0.002023
0.008829 -0.009798 0.001915
0.008987 -0.006358 0.006727
0.008091 -0.008951 -0.001947
0.008580 -0.008896 0.006739
0.008823 -0.009799 0.000164
0.005361 -0.009800 -0.001032
0.004642 -0.008407 -0.001867
0.006845 -0.009798 0.002130
0.006525 -0.009799 -0.000122
0.007891 -0.009795 0.005409
0.005391 -0.009796 0.005281
0.005941 -0.009799 0.000838
0.006061 -0.009798 0.002114
0.006403 -0.007473 0.006789
0.006579 -0.008261 -0.001912
0.006094 -0.009800 -0.001042
0.006378 -0.009752 -0.001906
0.007309 -0.008336 -0.001929
0.007322 -0.009765 0.006769
0.005480 -0.008891 -0.001886
0.007460 -0.009800 -0.001802
0.005979 -0.007394 -0.001899
0.005418 -0.009781 0.006813
0.004641 -0.009799 0.000905
0.007595 -0.009797 0.003730
0.008592 -0.009796 0.005214
0.005992 -0.008635 0.006799
0.005338 -0.006292 0.006813
0.005353 -0.006088 -0.001885
0.005466 -0.009798 0.001428
0.008236 -0.006072 0.006745
0.008516 -0.007273 -0.001958
0.009115 -0.007064 0.006725
0.008754 -0.009797 0.002799
0.006080 -0.006749 0.006796
0.005045 -0.009798 0.002731
0.006681 -0.008412 0.006783
0.006218 -0.009058 -0.001903
0.007964 -0.008047 -0.001945
0.004864 -0.008328 0.006825
0.011418 -0.008845 0.006672
0.009373 -0.006749 -0.001979
0.012853 -0.009794 0.006111
0.013143 -0.008959 -0.002066
0.011124 -0.008022 -0.002019
0.010054 -0.009800 -0.001831
0.012177 -0.005931 -0.002045
0.011249 -0.009795 0.005212
0.013818 -0.008460 0.006615
0.009734 -0.009797 0.002357
0.011787 -0.006948 0.006662
0.010111 -0.007176 0.006702
0.010181 -0.008761 -0.001996
0.013758 -0.009800 -0.001846
0.014058 -0.007669 0.006609
0.010959 -0.008836 -0.002015
0.011006 -0.006753 0.006680
0.013098 -0.008775 0.006633
0.014250 -0.007499 -0.002093
0.012016 -0.008366 -0.002040
0.013493 -0.009799 -0.001189
0.011110 -0.006441 -0.002020
0.011154 -0.008003 0.006678
0.013046 -0.009799 -0.000466
0.011329 -0.009796 0.003937
0.012612 -0.006634 -0.002055
0.011748 -0.007582 -0.002034
0.014083 -0.009798 0.000296
0.010137 -0.006107 -0.001997
0.012540 -0.009800 -0.001840
0.013372 -0.009796 0.003855
0.010516 -0.009797 0.002733
0.013301 -0.007248 -0.002071
0.011911 -0.009795 0.006104
0.012445 -0.009154 0.006648
0.013385 -0.006936 0.006625
0.012069 -0.007896 0.006656
0.009695 -0.009799 -0.000053
0.009931 -0.007695 -0.001991
0.010077 -0.009798 0.001599
0.012636 -0.009799 -0.001061
0.012382 -0.009799 -0.000049
0.010694 -0.009799 0.000171
0.010435 -0.006021 0.006693
0.010641 -0.009796 0.004488
0.011702 -0.009797 0.001921
0.012209 -0.009205 -0.002044
0.011501 -0.009799 0.000047
0.010954 -0.009799 -0.000858
0.012285 -0.009797 0.002990
0.013180 -0.009797 0.002980
0.014106 -0.009796 0.003451
0.009793 -0.009797 0.003062
0.012853 -0.006454 0.006637
0.011361 -0.009452 -0.002023
0.010127 -0.008138 0.006702
0.012617 -0.009797 0.001659
0.010365 -0.009799 -0.000458
0.013565 -0.009797 0.001697
0.009983 -0.009798 0.000863
0.009807 -0.006371 0.006708
0.009407 -0.008679 -0.001978
0.012284 -0.009795 0.004872
0.011083 -0.009798 0.001178
0.010324 -0.009795 0.006050
0.012053 -0.009796 0.004025
0.010360 -0.009795 0.005218
0.010674 -0.008638 0.006689
0.013467 -0.009795 0.004881
0.010914 -0.009797 0.002099
0.011726 -0.009798 0.000830
0.013390 -0.009782 0.006626
0.010820 -0.009675 0.006687
0.010249 -0.007033 -0.001999
0.014284 -0.009794 0.006328
0.011375 -0.009797 0.003109
0.012803 -0.008251 -0.002058
0.014151 -0.009795 0.004381
0.012719 -0.007341 0.006640
0.009352 -0.009795 0.006038
0.014106 -0.009128 0.006609
0.012764 -0.009796 0.004314
0.010188 -0.009150 0.006701
0.013626 -0.006509 -0.002079
0.011725 -0.009799 -0.000922
0.013367 -0.009798 0.000600
0.009481 -0.008812 0.006717
0.009598 -0.009795 0.005123
0.013422 -0.006007 0.006623
0.013573 -0.009795 0.005874
0.013239 -0.007892 0.006629
0.013911 -0.008910 -0.002084
0.009672 -0.009796 0.004361
0.009632 -0.009800 -0.001236
0.011103 -0.009795 0.005996
0.013630 -0.008066 -0.002078
0.012516 -0.007567 -0.002052
0.011779 -0.006823 -0.002035
0.012909 -0.009795 0.005403
0.010473 -0.009797 0.003441
0.013941 -0.006501 0.006611
0.009780 -0.009794 0.006662
0.016835 -0.009798 0.000817
0.015748 -0.009562 0.006571
0.017519 -0.009794 0.005974
0.017057 -0.007246 0.006539
0.016278 -0.009799 -0.001287
0.016152 -0.009797 0.002197
0.017081 -0.007744 -0.002159
0.016675 -0.006253 0.006547
0.015172 -0.009796 0.003027
0.018102 -0.007560 0.006514
0.017173 -0.009799 -0.001427
0.014932 -0.009795 0.004474
0.015570 -0.008689 -0.002123
0.016484 -0.006090 -0.002146
0.017742 -0.006671 0.006522
0.018455 -0.008102 -0.002191
0.018674 -0.009798 -0.000425
0.018210 -0.009799 -0.002003
0.015309 -0.008143 0.006580
0.015305 -0.009798 0.000736
0.018692 -0.009794 0.005679
0.016237 -0.009796 0.003124
0.017037 -0.009796 0.002570
0.015581 -0.009799 -0.000946
0.015356 -0.006518 0.006578
0.016801 -0.008536 -0.002152
0.014839 -0.007965 -0.002106
0.018998 -0.009796 0.003257
0.016623 -0.009799 -0.002139
0.017138 -0.006612 -0.002161
0.018250 -0.009796 0.003275
0.016154 -0.007559 0.006560
0.017809 -0.008737 0.006522
0.015471 -0.008873 0.006577
0.014695 -0.008876 -0.002102
0.016809 -0.009795 0.005322
0.015865 -0.006025 0.006566
0.018991 -0.005983 -0.002205
0.014639 -0.006638 0.006595
0.017119 -0.009797 0.001648
0.018503 -0.009794 0.006491
0.019123 -0.006930 0.006490
0.017041 -0.009796 0.003621
0.016650 -0.009798 -0.000247
0.018986 -0.008795 0.006495
0.016168 -0.007685 -0.002137
0.019158 -0.009797 0.001676
0.016001 -0.009798 0.000629
0.015478 -0.007116 -0.002122
0.019114 -0.009797 0.000791
0.014660 -0.009799 -0.001248
0.015898 -0.009797 0.001453
0.017746 -0.009797 0.002222
0.015187 -0.007265 0.006583
0.017658 -0.009798 0.000195
0.015286 -0.009423 -0.002116
0.016217 -0.008880 0.006560
0.015677 -0.009794 0.005685
0.018622 -0.009796 0.002645
0.017925 -0.009799 -0.001343
0.014510 -0.009795 0.005291
0.015125 -0.009794 0.006255
0.016376 -0.009794 0.006202
0.018712 -0.009799 -0.001163
0.014522 -0.009800 -0.002083
0.017005 -0.009402 0.006541
0.018777 -0.009795 0.004124
0.019061 -0.009795 0.004842
0.017319 -0.007966 0.006533
0.016355 -0.009135 -0.002141
0.019125 -0.008353 -0.002206
0.018543 -0.006549 -0.002194
0.017532 -0.009795 0.004312
0.017365 -0.009799 -0.002155
0.018300 -0.009797 0.001710
0.015828 -0.009799 -0.001836
0.017895 -0.009797 0.000994
0.015183 -0.009798 -0.000153
0.017418 -0.009798 -0.000481
0.019282 -0.006947 -0.002211
0.016371 -0.006848 -0.002143
0.014338 -0.009797 0.002237
0.016551 -0.009795 0.004242
0.014805 -0.009258 0.006593
0.014653 -0.008532 0.006596
0.014460 -0.009797 0.001427
0.014367 -0.006430 -0.002096
0.018615 -0.009163 -0.002194
0.015549 -0.009796 0.003997
0.018350 -0.009798 0.000343
0.019173 -0.009799 -0.001758
0.017909 -0.008818 -0.002177
0.015207 -0.009797 0.001732
0.018926 -0.007896 0.006495
0.014380 -0.009799 -0.000503
0.017544 -0.009794 0.005247
0.015651 -0.009795 0.004721
0.016130 -0.006750 0.006560
0.018085 -0.007451 -0.002182
0.018188 -0.009795 0.004767
0.017718 -0.008065 -0.002173
0.014895 -0.009796 0.003706
0.022462 -0.007032 0.006412
0.021679 -0.007465 0.006431
0.023527 -0.009796 0.002327
0.023654 -0.009027 -0.002312
0.021687 -0.006744 0.006430
0.019789 -0.009795 0.003776
0.019923 -0.009799 -0.001944
0.020704 -0.009794 0.005353
0.021593 -0.009794 0.005682
0.022659 -0.007006 -0.002290
0.019342 -0.009242 -0.002211
0.023817 -0.009798 -0.001901
0.021137 -0.008796 0.006444
0.023319 -0.006125 0.006391
0.020270 -0.008410 -0.002233
0.020773 -0.009798 -0.000440
0.023321 -0.009796 0.001417
0.024324 -0.009796 0.001782
0.021222 -0.007761 -0.002256
0.023004 -0.009797 0.000594
0.020658 -0.008116 0.006455
0.020574 -0.009797 0.000296
0.021332 -0.009795 0.004252
0.021493 -0.009798 -0.000889
0.022108 -0.008496 -0.002276
0.022173 -0.009795 0.003747
0.019956 -0.009335 0.006472
0.022635 -0.009799 -0.001889
0.022372 -0.009798 -0.000313
0.022388 -0.007716 -0.002283
0.020925 -0.009796 0.002311
0.019899 -0.008630 0.006473
0.023687 -0.006897 0.006383
0.019920 -0.007797 -0.002225
0.023762 -0.009794 0.004876
0.023979 -0.007913 -0.002320
0.019655 -0.009798 -0.001043
0.021766 -0.009796 0.001569
0.023959 -0.009794 0.005579
0.021970 -0.008825 0.006425
0.023004 -0.009794 0.005397
0.019549 -0.009796 0.002485
0.020849 -0.009797 0.001549
0.021083 -0.008884 -0.002252
0.020017 -0.009794 0.004783
0.020130 -0.006855 -0.002231
0.023973 -0.009798 -0.000872
0.024045 -0.009794 0.004042
0.021886 -0.009798 -0.001484
0.024131 -0.009746 0.006375
0.022036 -0.009610 0.006424
0.019912 -0.009794 0.005732
0.023380 -0.009793 0.006092
0.023407 -0.007555 0.006390
0.023359 -0.009795 0.003319
0.021586 -0.009797 0.000612
0.020983 -0.009724 0.006448
0.023835 -0.009797 0.000684
0.022273 -0.009794 0.004636
0.022597 -0.007987 0.006409
0.023793 -0.007056 -0.002317
0.020221 -0.007187 0.006464
0.023080 -0.009798 -0.000855
0.019702 -0.009798 -0.000144
0.021113 -0.006205 -0.002254
0.023287 -0.009794 0.004211
0.023436 -0.008815 0.006390
0.020544 -0.009795 0.004273
0.020376 -0.009796 0.002963
0.021220 -0.009795 0.003265
0.020145 -0.009797 0.001189
0.019811 -0.007766 0.006475
0.024277 -0.009795 0.002901
0.020737 -0.006260 0.006452
0.021019 -0.009747 -0.002250
0.023251 -0.006557 -0.002304
0.021819 -0.009796 0.002354
0.021733 -0.009462 -0.002267
0.020653 -0.009799 -0.001497
0.021623 -0.007041 -0.002266
0.022862 -0.009022 -0.002293
0.022492 -0.009796 0.001429
0.020128 -0.009126 -0.002229
0.020040 -0.006382 0.006468
0.022337 -0.006007 -0.002283
0.023262 -0.008049 -0.002303
0.022798 -0.009796 0.002399
0.020930 -0.006980 0.006448
0.020142 -0.009796 0.002100
0.022322 -0.009794 0.005589
0.022722 -0.008843 0.006407
0.019402 -0.009794 0.006295
0.021699 -0.009798 -0.000088
0.023213 -0.009797 -0.000113
0.022491 -0.009795 0.003052
0.023657 -0.005937 -0.002314
0.027170 -0.009797 -0.000569
0.027903 -0.006765 0.006284
0.024388 -0.009797 0.000193
0.027612 -0.007882 -0.002406
0.026734 -0.008763 0.006313
0.028670 -0.007690 0.006267
0.027989 -0.009240 -0.002414
0.029110 -0.009798 -0.001469
0.026237 -0.006041 -0.002375
0.026445 -0.009798 -0.001525
0.028116 -0.009793 0.005207
0.026876 -0.009243 -0.002387
0.026934 -0.009793 0.005700
0.024695 -0.007497 -0.002337
0.026556 -0.009794 0.005079
0.026474 -0.007498 -0.002379
0.024370 -0.008293 0.006368
0.028010 -0.009795 0.002519
0.027502 -0.009798 -0.001791
0.024353 -0.006537 -0.002330
0.025248 -0.006265 -0.002351
0.026902 -0.009794 0.004273
0.025191 -0.009793 0.006281
0.025457 -0.008964 -0.002354
0.026047 -0.007867 0.006328
0.029263 -0.006889 -0.002445
0.025669 -0.008996 0.006338
0.024429 -0.006916 0.006366
0.027543 -0.009710 0.006295
0.025030 -0.009794 0.005189
0.026544 -0.009797 0.000013
0.028760 -0.008579 0.006265
0.027593 -0.009794 0.004575
0.024674 -0.009069 0.006361
0.028339 -0.009794 0.003455
0.028997 -0.009794 0.004256
0.027959 -0.006515 -0.002415
0.029237 -0.009797 -0.000606
0.026081 -0.006788 -0.002370
0.027043 -0.009796 0.001121
0.027271 -0.007240 0.006299
0.026451 -0.006371 0.006318
0.026574 -0.007081 0.006316
0.028701 -0.009793 0.005956
0.027499 -0.009794 0.003597
0.024754 -0.009065 -0.002338
0.027938 -0.009796 0.000915
0.024858 -0.009797 -0.000527
0.024343 -0.006074 0.006367
0.028394 -0.008180 -0.002424
0.025319 -0.009771 -0.002351
0.026338 -0.009796 0.000805
0.024808 -0.009795 0.003678
0.029319 -0.008611 -0.002445
0.028273 -0.007446 -0.002421
0.027945 -0.009076 0.006285
0.028699 -0.006032 0.006265
0.026077 -0.009795 0.003445
0.026162 -0.009798 -0.002324
0.027141 -0.006589 -0.002395
0.025706 -0.006901 0.006336
0.027634 -0.009797 -0.000009
0.025265 -0.009794 0.004454
0.028229 -0.009794 0.004256
0.025739 -0.009796 0.001266
0.028349 -0.009798 -0.001997
0.028458 -0.009795 0.001867
0.025243 -0.009797 0.000495
0.025238 -0.007912 0.006347
0.026270 -0.009749 0.006324
0.024574 -0.009798 -0.001695
0.026783 -0.007977 0.006311
0.027460 -0.008273 0.006295
0.026045 -0.009794 0.004392
0.026159 -0.009796 0.001944
0.029060 -0.009796 0.001475
0.029210 -0.007724 -0.002443
0.026231 -0.009798 -0.000829
0.025736 -0.009795 0.002769
0.025441 -0.006217 0.006342
0.029233 -0.009795 0.002513
0.029185 -0.009174 0.006256
0.028655 -0.006760 0.006266
0.028828 -0.009169 -0.002433
0.028355 -0.009797 -0.000038
0.028837 -0.009793 0.005206
0.025538 -0.009798 -0.001127
0.024770 -0.009796 0.001128
0.026938 -0.009796 0.001847
0.029092 -0.009796 0.000574
0.025678 -0.009793 0.005531
0.024923 -0.008376 -0.002342
0.025510 -0.009797 -0.000163
0.024888 -0.009795 0.002428
0.025834 -0.007896 -0.002364
0.027304 -0.008565 -0.002398
0.025259 -0.009796 0.001788
0.028244 -0.009797 -0.000927
0.026307 -0.008671 -0.002375
0.026985 -0.009795 0.003005
0.027379 -0.006175 0.006296
0.027648 -0.009796 0.001793
0.028678 -0.006399 -0.002432
0.032430 -0.006951 0.006178
0.031115 -0.009793 0.004780
0.030553 -0.009797 -0.001315
0.034304 -0.008469 -0.002562
0.032832 -0.009797 -0.000894
0.030824 -0.007089 0.006216
0.033449 -0.006765 0.006154
0.034210 -0.006137 0.006136
0.032448 -0.008020 0.006178
0.031851 -0.009794 0.002791
0.031383 -0.006030 0.006202
0.031751 -0.009118 -0.002502
0.031652 -0.008042 0.006197
0.031447 -0.009795 0.002168
0.030085 -0.006677 0.006233
0.029856 -0.007419 0.006239
0.033968 -0.009796 -0.000396
0.030336 -0.005958 0.006227
0.030019 -0.009794 0.004211
0.034262 -0.009793 0.004355
0.032288 -0.007373 -0.002515
0.032360 -0.008412 -0.002517
0.029860 -0.009796 0.000597
0.031194 -0.009794 0.003657
0.032107 -0.008640 0.006187
0.034193 -0.006897 0.006137
0.033048 -0.008574 -0.002533
0.033434 -0.009794 0.002769
0.029894 -0.005976 -0.002460
0.034131 -0.009794 0.002877
0.029741 -0.009798 -0.002104
0.030049 -0.007816 -0.002463
0.030908 -0.009717 -0.002482
0.032885 -0.006707 -0.002530
0.031780 -0.006144 -0.002504
0.031785 -0.009798 -0.002275
0.031416 -0.009797 -0.001375
0.030052 -0.009794 0.003018
0.032999 -0.007382 0.006165
0.031700 -0.009796 0.000366
0.033331 -0.009798 -0.002377
0.029482 -0.006141 0.006247
0.031546 -0.007181 0.006199
0.034199 -0.007270 -0.002560
0.031722 -0.006946 -0.002503
0.030060 -0.009797 -0.000223
0.031240 -0.008174 -0.002490
0.030840 -0.009793 0.005444
0.032510 -0.009795 0.001863
0.030886 -0.009795 0.002687
0.032342 -0.009792 0.006025
0.032408 -0.009793 0.004455
0.031106 -0.006595 -0.002488
0.030208 -0.007014 -0.002467
0.033542 -0.009796 0.000272
0.029907 -0.009795 0.002073
0.032678 -0.009796 -0.000086
0.029781 -0.008614 0.006241
0.033667 -0.009793 0.005512
0.029370 -0.009794 0.003204
0.033230 -0.007668 -0.002537
0.031088 -0.009795 0.001489
0.031957 -0.009797 -0.000791
0.032872 -0.009794 0.003898
0.032710 -0.006012 -0.002526
0.033619 -0.009797 -0.001261
0.033335 -0.009795 0.002050
0.030418 -0.009081 -0.002471
0.033769 -0.008944 -0.002549
0.031015 -0.009797 -0.000493
0.032859 -0.009797 -0.001670
0.032620 -0.009383 -0.002522
0.030905 -0.007486 -0.002483
0.030710 -0.007965 0.006219
0.033930 -0.006584 -0.002555
0.030533 -0.008766 0.006224
0.031423 -0.009792 0.006088
0.030637 -0.009796 0.000448
0.033696 -0.009795 0.001093
0.030217 -0.009519 0.006232
0.032744 -0.008974 0.006172
0.031748 -0.009795 0.001222
0.029623 -0.009793 0.005614
0.031444 -0.008997 0.006203
0.032847 -0.009796 0.000841
0.031792 -0.009794 0.004073
0.033612 -0.009793 0.004789
0.030661 -0.006044 -0.002478
0.032542 -0.009794 0.003220
0.030206 -0.009793 0.004922
0.033958 -0.007977 0.006143
0.032917 -0.009793 0.005153
0.033438 -0.009221 0.006156
0.030351 -0.009796 0.001206
0.029959 -0.009797 -0.000928
0.031940 -0.009793 0.005354
0.033518 -0.009794 0.003616
0.029375 -0.006849 0.006250
0.033149 -0.008180 0.006162
0.034004 -0.009797 -0.002024
0.034642 -0.008771 0.006127
0.036553 -0.009505 0.006083
0.038794 -0.009123 0.006030
0.037537 -0.009797 -0.001721
0.034523 -0.009795 0.001910
0.036015 -0.009794 0.003489
0.038595 -0.009793 0.004559
0.037161 -0.009796 -0.000197
0.038694 -0.009462 -0.002664
0.035420 -0.009795 0.001291
0.036167 -0.009795 0.001044
0.037057 -0.008994 0.006071
0.037533 -0.008640 -0.002638
0.034846 -0.009794 0.003456
0.035476 -0.008481 0.006108
0.038583 -0.006167 -0.002664
0.038144 -0.009793 0.003451
0.038266 -0.007168 -0.002656
0.035428 -0.009798 -0.002503
0.035261 -0.009793 0.005103
0.034443 -0.009793 0.005255
0.035111 -0.008526 -0.002581
0.037010 -0.009794 0.002678
0.038887 -0.008117 0.006028
0.037456 -0.008280 0.006061
0.036701 -0.009797 -0.002469
0.038712 -0.007075 0.006031
0.038390 -0.008165 -0.002658
0.035234 -0.007549 -0.002585
0.037416 -0.009663 -0.002634
0.035402 -0.009796 -0.000637
0.037117 -0.006298 0.006068
0.034621 -0.009797 -0.001197
0.039101 -0.009792 0.005573
0.035276 -0.006791 -0.002586
0.035919 -0.009796 0.000385
0.035420 -0.009794 0.003046
0.035005 -0.007360 0.006118
0.036378 -0.008447 0.006087
0.039119 -0.009796 -0.000229
0.036936 -0.009793 0.003678
0.036630 -0.008452 -0.002617
0.036343 -0.009795 0.001806
0.039168 -0.009794 0.001662
0.037206 -0.009792 0.005819
0.038580 -0.009794 0.002428
0.037653 -0.009793 0.004080
0.037150 -0.006866 -0.002630
0.039301 -0.009793 0.003881
0.037213 -0.009796 -0.000997
0.034538 -0.009753 -0.002567
0.037655 -0.009793 0.004802
0.036221 -0.009796 -0.000609
0.036079 -0.007577 0.006093
0.037735 -0.009795 0.000575
0.038225 -0.009796 -0.000115
0.035389 -0.006023 -0.002589
0.038106 -0.009792 0.005763
0.039227 -0.009793 0.003119
0.037776 -0.008937 0.006054
0.036246 -0.006801 0.006089
0.035303 -0.006173 0.006110
0.039022 -0.008817 -0.002672
0.036003 -0.009793 0.004815
0.036379 -0.009797 -0.001374
0.034771 -0.009796 0.000160
0.038832 -0.006151 0.006028
0.034486 -0.009655 0.006132
0.037436 -0.007341 0.006061
0.036978 -0.007673 -0.002625
0.038068 -0.006708 0.006046
0.035166 -0.009793 0.004132
0.038407 -0.009796 -0.000870
0.038092 -0.009797 -0.002232
0.037829 -0.009794 0.002285
0.035958 -0.008172 -0.002601
0.036321 -0.009793 0.004182
0.037102 -0.009795 0.001644
0.037711 -0.006183 -0.002643
0.036873 -0.009792 0.005099
0.036963 -0.009113 -0.002624
0.038533 -0.009795 0.000912
0.036282 -0.009794 0.002804
0.038088 -0.007610 0.006046
0.034523 -0.009795 0.000958
0.035661 -0.009794 0.002094
0.035604 -0.009792 0.005888
0.038366 -0.009794 0.001661
0.036814 -0.009795 0.000514
0.038632 -0.009797 -0.001580
0.035993 -0.006799 -0.002603
0.035842 -0.009206 -0.002598
0.035252 -0.009797 -0.001781
0.034707 -0.008032 0.006125
0.036773 -0.007855 0.006077
0.039106 -0.007236 -0.002675
0.039841 -0.009792 0.005331
0.044026 -0.009796 -0.001336
0.041913 -0.008073 -0.002741
0.040289 -0.007362 0.005994
0.043895 -0.009795 0.000074
0.042735 -0.008144 0.005937
0.040803 -0.009797 -0.001928
0.043838 -0.006618 -0.002787
0.042289 -0.009794 0.002350
0.042492 -0.009795 -0.000702
0.044025 -0.009791 0.005509
0.040809 -0.009793 0.004235
0.042137 -0.006819 -0.002747
0.043266 -0.009792 0.004763
0.042816 -0.007006 0.005935
0.039506 -0.007900 -0.002684
0.041405 -0.009795 0.000865
0.040700 -0.009135 -0.002712
0.039494 -0.009794 0.002320
0.042566 -0.009791 0.005615
0.041371 -0.009794 0.002195
0.041996 -0.009115 -0.002742
0.040449 -0.009792 0.004870
0.040437 -0.006127 -0.002707
0.043322 -0.009269 -0.002773
0.043785 -0.008615 -0.002784
0.043871 -0.006816 0.005910
0.042973 -0.006291 -0.002767
0.041893 -0.007714 0.005957
0.044084 -0.009796 -0.002065
0.039447 -0.009795 0.000809
0.042392 -0.009797 -0.002446
0.041056 -0.006507 -0.002722
0.040627 -0.009791 0.005747
0.040184 -0.009793 0.003035
0.043036 -0.007342 -0.002768
0.039805 -0.009792 0.004530
0.043320 -0.007509 0.005923
0.042941 -0.008900 0.005933
0.040623 -0.006671 0.005986
0.040229 -0.009796 -0.000438
0.040274 -0.006013 0.005994
0.043513 -0.009795 -0.000715
0.041631 -0.007045 0.005962
0.039555 -0.009556 -0.002685
0.044096 -0.009038 0.005906
0.039735 -0.006743 -0.002691
0.041887 -0.009792 0.004265
0.042031 -0.009796 -0.001542
0.041783 -0.009795 0.000190
0.041656 -0.009795 -0.000623
0.043623 -0.009794 0.002144
0.039621 -0.006564 0.006009
0.042823 -0.009793 0.002852
0.041067 -0.009795 -0.000003
0.044326 -0.009794 0.001967
0.040371 -0.008047 -0.002705
0.039561 -0.009796 -0.001143
0.041856 -0.008923 0.005958
0.040998 -0.009793 0.003395
0.040932 -0.008132 0.005980
0.043783 -0.007376 -0.002785
0.041059 -0.007817 -0.002721
0.043086 -0.009795 -0.000149
0.040682 -0.009105 0.005986
0.041284 -0.008517 -0.002726
0.041291 -0.006179 0.005970
0.039855 -0.008559 -0.002692
0.042964 -0.009793 0.003764
0.040687 -0.007163 -0.002713
0.041629 -0.009797 -0.002217
0.040397 -0.009795 0.000430
0.039609 -0.009244 0.006011
0.043206 -0.009796 -0.001576
0.040840 -0.009794 0.001549
0.039451 -0.009797 -0.001892
0.040191 -0.009794 0.002018
0.042599 -0.009795 0.000726
0.043148 -0.006204 0.005926
0.040943 -0.009797 -0.002704
0.042915 -0.009794 0.001672
0.042255 -0.009792 0.004956
0.039755 -0.008252 0.006007
0.043281 -0.009659 0.005925
0.044065 -0.009797 -0.002773
0.043704 -0.009794 0.000992
0.043677 -0.009792 0.004024
0.041511 -0.009792 0.005083
0.040231 -0.009796 -0.001495
0.044200 -0.008313 0.005903
0.044042 -0.009793 0.003262
0.041125 -0.009796 -0.001178
0.042363 -0.006283 0.005945
0.039366 -0.007563 0.006016
0.041405 -0.009517 0.005969
0.043485 -0.008432 0.005920
0.041747 -0.009793 0.003380
0.043113 -0.009797 -0.002302
0.042805 -0.008457 -0.002761
0.039973 -0.009794 0.001290
0.042043 -0.009794 0.001596
0.040014 -0.009793 0.003819
0.048016 -0.009793 0.001787
0.048242 -0.009723 0.005809
0.047786 -0.006961 -0.002879
0.048522 -0.007680 -0.002896
0.045038 -0.009793 0.002475
0.044937 -0.009683 -0.002811
0.049089 -0.009792 0.003011
0.047659 -0.009796 -0.002760
0.048795 -0.009794 0.000321
0.045746 -0.007283 -0.002831
0.046541 -0.009796 -0.002105
0.045214 -0.009001 0.005880
0.046514 -0.009791 0.005397
0.044880 -0.009791 0.005803
0.045919 -0.009795 -0.001281
0.048564 -0.006291 0.005799
0.049023 -0.007353 0.005789
0.044374 -0.007761 -0.002799
0.048480 -0.008623 0.005803
0.044749 -0.006543 0.005889
0.045570 -0.009792 0.004569
0.044616 -0.008478 -0.002804
0.046132 -0.008331 0.005858
0.047739 -0.009794 0.001117
0.047553 -0.006237 0.005823
0.046319 -0.009035 0.005854
0.048371 -0.007080 0.005805
0.046879 -0.007370 0.005840
0.047307 -0.009792 0.004292
0.049055 -0.009773 -0.002907
0.048694 -0.006659 -0.002901
0.047216 -0.007690 -0.002865
0.046295 -0.009278 -0.002843
0.046778 -0.009793 0.002415
0.045582 -0.009794 0.000636
0.044649 -0.009792 0.004922
0.045642 -0.009796 -0.002466
0.047328 -0.009795 -0.000981
0.047186 -0.009792 0.003157
0.046974 -0.009794 0.001041
0.046278 -0.009795 -0.000001
0.045345 -0.009792 0.003470
0.046889 -0.009796 -0.002743
0.048800 -0.008632 -0.002902
0.045024 -0.009796 -0.001896
0.048135 -0.009792 0.003495
0.048014 -0.008638 -0.002883
0.049047 -0.009793 0.001290
0.048812 -0.009793 0.002293
0.045371 -0.005958 -0.002823
0.047290 -0.008851 -0.002866
0.047650 -0.007272 0.005821
0.045213 -0.009794 0.001640
0.048252 -0.009349 -0.002888
0.047340 -0.009001 0.005830
0.049117 -0.009796 -0.002149
0.049174 -0.009791 0.005060
0.047909 -0.008170 0.005816
0.048118 -0.006248 -0.002887
0.046562 -0.009792 0.003582
0.045101 -0.008160 0.005882
0.046407 -0.006909 -0.002847
0.044460 -0.009794 0.000702
0.044838 -0.009795 -0.001004
0.046520 -0.008196 -0.002849
0.045870 -0.006614 0.005863
0.044628 -0.009795 -0.000122
0.047384 -0.009791 0.005411
0.047034 -0.009795 -0.000311
0.047139 -0.006098 -0.002865
0.044573 -0.006561 -0.002804
0.046060 -0.007629 0.005859
0.045774 -0.009793 0.002336
0.048219 -0.009793 0.002744
0.049052 -0.009795 -0.001223
0.045608 -0.008092 -0.002827
0.044939 -0.007220 -0.002812
0.046439 -0.009792 0.004557
0.046267 -0.009793 0.002909
0.044824 -0.007406 0.005888
0.045398 -0.008904 -0.002822
0.048038 -0.009791 0.004710
0.047867 -0.009794 0.000102
0.049008 -0.009735 0.005791
0.048777 -0.009792 0.004066
0.045558 -0.009791 0.005529
0.049327 -0.006628 0.005782
0.046844 -0.008209 0.005841
0.045323 -0.009795 -0.000265
0.046689 -0.006375 0.005844
0.044437 -0.009792 0.004150
0.046334 -0.009794 0.001591
0.048387 -0.009796 -0.002005
0.048368 -0.009795 -0.000452
0.047705 -0.009795 -0.001590
0.046282 -0.009794 0.000713
0.047581 -0.009793 0.002350
0.052895 -0.009791 0.004376
0.049603 -0.009792 0.003805
0.052478 -0.006074 -0.002990
0.051225 -0.009793 0.002243
0.049455 -0.007307 -0.002918
0.053879 -0.009795 -0.001373
0.049741 -0.009793 0.002310
0.050031 -0.009795 -0.002015
0.050353 -0.006690 -0.002939
0.049968 -0.008804 0.005768
0.050061 -0.009791 0.005147
0.053890 -0.006005 -0.003023
0.049510 -0.009794 0.000685
0.050493 -0.009792 0.003303
0.052070 -0.009793 0.002062
0.052690 -0.005974 0.005703
0.049530 -0.008124 -0.002919
0.052613 -0.009793 0.001298
0.050112 -0.006968 0.005764
0.050810 -0.008702 0.005748
0.053469 -0.009794 0.000349
0.053374 -0.009795 -0.002120
0.050834 -0.009795 -0.001372
0.052228 -0.009791 0.004924
0.052451 -0.008497 -0.002988
0.051866 -0.008711 0.005724
0.054028 -0.008638 -0.003024
0.053214 -0.009589 -0.003005
0.052413 -0.009794 -0.000184
0.051443 -0.006171 0.005732
0.053979 -0.007189 0.005673
0.050884 -0.009794 0.000544
0.052500 -0.009792 0.003459
0.051489 -0.009793 0.001336
0.053262 -0.006466 -0.003008
0.050620 -0.009595 -0.002944
0.051403 -0.009792 0.003369
0.050900 -0.009796 -0.002296
0.051579 -0.009795 -0.001147
0.052918 -0.009792 0.002869
0.053273 -0.009792 0.002046
0.053817 -0.009792 0.002545
0.051790 -0.009759 -0.002971
0.052784 -0.009664 0.005703
0.051168 -0.009791 0.004071
0.052625 -0.007804 -0.002992
0.051476 -0.007685 0.005732
0.053254 -0.007646 0.005690
0.049853 -0.009795 -0.001137
0.049577 -0.006442 -0.002922
0.053221 -0.008353 -0.003006
0.052628 -0.008147 0.005705
0.051607 -0.009795 -0.002058
0.050393 -0.009794 -0.000242
0.050026 -0.009793 0.001509
0.053989 -0.009791 0.003957
0.053745 -0.008666 0.005679
0.051014 -0.006776 0.005742
0.052393 -0.009359 -0.002986
0.050299 -0.006020 0.005759
0.050280 -0.008461 -0.002937
0.054116 -0.009793 0.001809
0.051434 -0.008687 -0.002964
0.053824 -0.009793 0.001071
0.051061 -0.007411 -0.002956
0.053706 -0.009791 0.004819
0.052666 -0.009795 -0.001141
0.052452 -0.009794 0.000547
0.051222 -0.009688 0.005739
0.050682 -0.007676 0.005751
0.053816 -0.009685 0.005679
0.053526 -0.009794 -0.000525
0.053576 -0.006106 0.005682
0.053138 -0.006949 0.005693
0.054054 -0.009795 -0.002736
0.049557 -0.009794 -0.000487
0.051989 -0.009791 0.004122
0.049801 -0.009796 -0.002692
0.051444 -0.006714 -0.002965
0.049849 -0.009064 -0.002926
0.053354 -0.009791 0.003546
0.050134 -0.007633 -0.002934
0.052815 -0.008873 0.005701
0.051603 -0.009794 0.000071
0.052283 -0.006892 -0.002985
0.052769 -0.009795 -0.002498
0.053262 -0.007497 -0.003007
0.054127 -0.007374 -0.003028
0.051683 -0.005981 -0.002971
0.052065 -0.006645 0.005718
0.049447 -0.008328 0.005780
0.051276 -0.009791 0.004988
0.054300 -0.009794 -0.000329
0.052059 -0.009437 0.005720
0.050544 -0.009791 0.004430
0.049910 -0.007646 0.005769
0.054144 -0.009792 0.003174
0.050733 -0.009793 0.001501
0.050511 -0.009642 0.005756
0.052261 -0.009795 -0.001786
0.051788 -0.007945 -0.002972
0.049827 -0.009792 0.003021
0.049731 -0.009657 0.005774
0.052295 -0.007515 0.005713
0.050488 -0.009793 0.002412
0.057759 -0.008209 0.005585
0.058933 -0.008090 -0.003140
0.059014 -0.009156 -0.003141
0.055527 -0.008896 -0.003059
0.059044 -0.009791 0.002496
0.055685 -0.008064 0.005634
0.055767 -0.009721 0.005633
0.054578 -0.009207 0.005660
0.058379 -0.006142 0.005569
0.056735 -0.008677 0.005609
0.058931 -0.009790 0.004912
0.056824 -0.006215 0.005606
0.056308 -0.009790 0.005103
0.057038 -0.009794 -0.000532
0.058943 -0.009791 0.003797
0.056169 -0.008386 -0.003075
0.055989 -0.009792 0.001766
0.058257 -0.009795 -0.002752
0.059153 -0.009793 0.000200
0.057089 -0.009531 0.005602
0.057414 -0.007380 -0.003105
0.057321 -0.009795 -0.002942
0.056407 -0.009795 -0.002056
0.054492 -0.006217 0.005660
0.057816 -0.009147 -0.003113
0.058488 -0.008849 0.005569
0.055357 -0.009793 0.000398
0.055377 -0.009794 -0.000493
0.059142 -0.009795 -0.002621
0.054479 -0.009302 -0.003034
0.054887 -0.006218 -0.003046
0.057503 -0.009791 0.003466
0.058786 -0.009794 -0.000589
0.055307 -0.008784 0.005643
0.054989 -0.009790 0.005572
0.055271 -0.006250 0.005642
0.054646 -0.007894 -0.003039
0.058153 -0.006619 -0.003122
0.056103 -0.009794 -0.001320
0.058929 -0.007259 -0.003140
0.055202 -0.009795 -0.002560
0.056281 -0.009794 -0.000423
0.057060 -0.009082 -0.003095
0.054810 -0.009791 0.003700
0.056131 -0.009793 0.000356
0.054432 -0.009795 -0.001812
0.058340 -0.007710 0.005571
0.058983 -0.009794 -0.001906
0.056676 -0.009792 0.002598
0.057320 -0.007388 0.005595
0.055514 -0.009795 -0.001856
0.056130 -0.005962 0.005622
0.058087 -0.009794 -0.000717
0.057806 -0.009794 -0.001887
0.054992 -0.009792 0.002768
0.057942 -0.009793 0.000256
0.058365 -0.009792 0.002138
0.059008 -0.008312 0.005556
0.057852 -0.009791 0.002786
0.056523 -0.007279 0.005613
0.054718 -0.006975 -0.003042
0.054597 -0.009791 0.004470
0.054474 -0.009793 0.000590
0.058575 -0.009791 0.003098
0.055592 -0.009793 0.001165
0.056498 -0.007121 -0.003083
0.055804 -0.009582 -0.003065
0.057903 -0.009766 0.005583
0.055983 -0.007644 -0.003071
0.056709 -0.006222 -0.003089
0.055476 -0.009791 0.004096
0.059100 -0.006415 0.005553
0.057588 -0.009790 0.004831
0.059020 -0.006484 -0.003143
0.058404 -0.008733 -0.003127
0.054697 -0.007594 0.005656
0.057256 -0.009794 -0.001413
0.054940 -0.009792 0.002045
0.058639 -0.009742 0.005565
0.055546 -0.006678 -0.003061
0.056856 -0.007933 -0.003091
0.056103 -0.009791 0.003032
0.058155 -0.009791 0.003806
0.056818 -0.007938 0.005607
0.058598 -0.009794 -0.001303
0.055669 -0.006890 0.005633
0.056937 -0.009792 0.001916
0.056186 -0.009791 0.004406
0.058406 -0.006991 0.005569
0.056577 -0.009685 -0.003084
0.054346 -0.009790 0.005163
0.057795 -0.009792 0.001635
0.054914 -0.009794 -0.001069
0.056955 -0.009791 0.004203
0.057682 -0.008353 -0.003110
0.054829 -0.009793 0.001260
0.057712 -0.006775 0.005585
0.054467 -0.008399 0.005662
0.054865 -0.008595 -0.003044
0.056390 -0.009793 0.001076
0.057321 -0.009793 0.000726
0.058137 -0.007394 -0.003122
0.057383 -0.006430 -0.003105
0.058580 -0.009793 0.000794
0.056690 -0.009791 0.003431
0.055467 -0.009790 0.004936
0.059322 -0.009791 0.003184
0.056030 -0.009001 0.005626
0.057714 -0.008985 0.005587
0.060084 -0.009791 0.002896
0.062599 -0.009794 -0.001491
0.063710 -0.008144 0.005446
0.061668 -0.009667 0.005494
0.061345 -0.009791 0.002185
0.063988 -0.009793 -0.000271
0.062893 -0.009792 0.001041
0.063647 -0.009790 0.003160
0.061566 -0.009645 -0.003201
0.062430 -0.008833 0.005476
0.063297 -0.009794 -0.002522
0.061969 -0.008078 0.005486
0.062863 -0.009791 0.002101
0.062063 -0.009790 0.003932
0.061547 -0.007940 -0.003201
0.063022 -0.009791 0.002794
0.060032 -0.009172 -0.003165
0.061505 -0.009790 0.004814
0.063197 -0.006723 -0.003241
0.062287 -0.009791 0.003071
0.061764 -0.009794 -0.001088
0.060130 -0.009794 -0.002123
0.061648 -0.008868 0.005494
0.060900 -0.007652 -0.003186
0.059828 -0.009794 -0.001022
0.059887 -0.006639 0.005534
0.061083 -0.009794 -0.001997
0.060815 -0.009399 -0.003183
0.062954 -0.008171 0.005463
0.060330 -0.008427 -0.003172
0.060736 -0.006556 -0.003183
0.063474 -0.008058 -0.003246
0.060029 -0.009790 0.003802
0.062991 -0.007507 -0.003235
0.063714 -0.009794 -0.001516
0.061432 -0.009792 0.001370
0.059517 -0.007797 0.005544
0.060779 -0.009792 0.000798
0.059376 -0.009792 0.001251
0.061650 -0.006252 -0.003205
0.060151 -0.009430 0.005530
0.061569 -0.006429 0.005495
0.061326 -0.009793 -0.000260
0.060834 -0.007987 0.005513
0.060936 -0.009026 0.005511
0.060467 -0.009790 0.004560
0.062060 -0.009794 -0.002185
0.064221 -0.009791 0.002303
0.062599 -0.006280 0.005470
0.060537 -0.007192 0.005519
0.063946 -0.006034 0.005439
0.062940 -0.007432 0.005463
0.061971 -0.007163 -0.003212
0.060595 -0.006142 0.005517
0.062331 -0.009795 -0.003153
0.061542 -0.009793 0.000493
0.064031 -0.009794 -0.002157
0.059441 -0.009166 0.005546
0.063909 -0.009791 0.001613
0.063700 -0.009150 0.005446
0.063037 -0.009790 0.003648
0.064093 -0.009794 -0.003075
0.060293 -0.009795 -0.002918
0.063749 -0.009792 0.000588
0.062252 -0.007884 -0.003218
0.062505 -0.006432 -0.003225
0.063087 -0.009486 -0.003236
0.060565 -0.009793 0.000103
0.060757 -0.009789 0.005442
0.060715 -0.009794 -0.001215
0.062205 -0.009793 -0.000465
0.059660 -0.006939 -0.003158
0.061138 -0.009791 0.003526
0.059767 -0.009790 0.004712
0.063529 -0.006995 0.005449
0.063070 -0.009790 0.004581
0.062317 -0.009790 0.004856
0.061549 -0.009791 0.002861
0.063159 -0.009793 -0.001023
0.061547 -0.007287 0.005496
0.062347 -0.009007 -0.003219
0.062320 -0.009792 0.000428
0.062567 -0.009530 0.005473
0.063660 -0.008789 -0.003250
0.062929 -0.008512 -0.003233
0.062965 -0.009793 -0.000032
0.063270 -0.009781 0.005457
0.062124 -0.009791 0.002333
0.060819 -0.009791 0.002805
0.059600 -0.007814 -0.003156
0.059487 -0.005941 -0.003154
0.060249 -0.009792 0.002045
0.061024 -0.008628 -0.003188
0.060162 -0.008629 0.005529
0.062162 -0.009792 0.001311
0.059925 -0.009793 0.000399
0.060202 -0.009792 0.001226
0.062322 -0.007087 0.005477
0.063845 -0.007220 -0.003255
0.060243 -0.005980 -0.003172
0.064164 -0.008238 -0.003262
0.067289 -0.008882 0.005362
0.064510 -0.009790 0.003014
0.066988 -0.009792 0.000912
0.066349 -0.009794 -0.002554
0.065288 -0.009794 -0.003247
0.065901 -0.006277 -0.003304
0.064720 -0.008843 0.005422
0.068700 -0.009793 -0.001149
0.065002 -0.009793 -0.000667
0.066130 -0.009790 0.002726
0.067459 -0.009793 -0.001560
0.064465 -0.009789 0.005170
0.067044 -0.009472 -0.003329
0.065593 -0.009789 0.004686
0.068552 -0.008914 -0.003365
0.067414 -0.009790 0.003192
0.064354 -0.009790 0.004137
0.066904 -0.008335 -0.003327
0.065961 -0.006822 0.005392
0.064634 -0.009793 -0.001282
0.068636 -0.009793 -0.002108
0.066705 -0.006529 -0.003323
0.068471 -0.009791 0.001975
0.064757 -0.009791 0.001572
0.065616 -0.009792 0.000085
0.064558 -0.007577 -0.003272
0.066023 -0.009791 0.001151
0.067617 -0.008216 -0.003343
0.064714 -0.009792 0.000758
0.065589 -0.008814 -0.003295
0.065933 -0.009793 -0.000630
0.066361 -0.009790 0.003855
0.068280 -0.009790 0.002840
0.068197 -0.007157 0.005340
0.067499 -0.009792 -0.000130
0.066341 -0.009792 0.000179
0.067811 -0.009153 -0.003347
0.068177 -0.009792 0.000083
0.067869 -0.007109 -0.003350
0.068316 -0.008775 0.005338
0.065338 -0.006790 -0.003291
0.065095 -0.006080 0.005412
0.069131 -0.007192 0.005318
0.068115 -0.009790 0.003566
0.066578 -0.007538 -0.003319
0.067905 -0.009791 0.001295
0.068599 -0.009791 0.000997
0.068393 -0.005952 0.005334
0.065540 -0.009791 0.002190
0.069101 -0.009790 0.002382
0.066634 -0.007372 0.005377
0.068256 -0.006226 -0.003360
0.068859 -0.009792 -0.000184
0.065631 -0.009790 0.003949
0.067688 -0.009789 0.004139
0.065373 -0.008423 0.005407
0.068476 -0.009760 0.005335
0.064535 -0.006497 -0.003272
0.068371 -0.009640 -0.003360
0.069076 -0.008461 0.005320
0.064703 -0.007551 0.005422
0.067294 -0.009793 -0.000845
0.069265 -0.008468 -0.003382
0.068900 -0.006629 -0.003374
0.066211 -0.009113 0.005388
0.067788 -0.009789 0.004928
0.067503 -0.006479 -0.003342
0.065453 -0.009790 0.003005
0.067440 -0.007438 0.005358
0.069188 -0.009775 0.005318
0.069326 -0.005982 -0.003385
0.069223 -0.007763 -0.003381
0.067680 -0.009794 -0.003045
0.066904 -0.009794 -0.002027
0.064692 -0.006747 0.005422
0.067081 -0.009791 0.002418
0.066817 -0.006058 0.005371
0.064584 -0.009230 -0.003272
0.068453 -0.009789 0.004419
0.068589 -0.007844 0.005331
0.066298 -0.008307 0.005385
0.066080 -0.008245 -0.003307
0.068869 -0.009790 0.003372
0.065206 -0.009589 0.005411
0.067205 -0.009771 0.005365
0.066795 -0.009791 0.001751
0.066320 -0.009354 -0.003312
0.066878 -0.009789 0.004736
0.065479 -0.007351 0.005404
0.065905 -0.009748 0.005395
0.068119 -0.009793 -0.000716
0.067897 -0.009794 -0.002270
0.065382 -0.009793 -0.001273
0.069203 -0.009287 -0.003380
0.067905 -0.008057 0.005347
0.069065 -0.006346 0.005319
0.064942 -0.009794 -0.002033
0.065449 -0.009794 -0.002540
0.066082 -0.009793 -0.001424
0.066006 -0.007014 -0.003306
0.068323 -0.007715 -0.003360
0.067631 -0.006738 0.005353
0.064934 -0.008315 -0.003280
0.065615 -0.007689 -0.003297
0.064737 -0.009792 0.000014
0.068942 -0.009794 -0.002793
0.067095 -0.008127 0.005366
0.070550 -0.006047 0.005284
0.072793 -0.009790 0.003032
0.069883 -0.009789 0.005069
0.070244 -0.007155 -0.003406
0.070587 -0.008499 -0.003413
0.072510 -0.008780 -0.003458
0.072501 -0.009791 0.001412
0.073943 -0.009789 0.003045
0.070604 -0.009794 -0.002945
0.071155 -0.006992 0.005270
0.074059 -0.008374 -0.003494
0.072006 -0.009789 0.003620
0.072731 -0.007837 -0.003463
0.070405 -0.009790 0.003401
0.071391 -0.007044 -0.003432
0.069789 -0.006442 0.005302
0.072034 -0.008101 -0.003447
0.070419 -0.009789 0.004254
0.073051 -0.009790 0.002021
0.072849 -0.009792 -0.000199
0.070263 -0.009791 0.001591
0.072845 -0.009794 -0.003139
0.074206 -0.006693 0.005199
0.069698 -0.006669 -0.003393
0.073690 -0.009791 0.000976
0.069586 -0.009793 -0.001797
0.070164 -0.007337 0.005294
0.071323 -0.008055 -0.003430
0.070375 -0.009187 -0.003407
0.070987 -0.009792 -0.001096
0.070417 -0.009793 -0.001564
0.071350 -0.009794 -0.003401
0.072284 -0.007077 -0.003453
0.073353 -0.008677 -0.003478
0.073993 -0.009792 -0.000566
0.073801 -0.007664 -0.003489
0.071211 -0.009791 0.000480
0.073248 -0.007110 -0.003476
0.072179 -0.009541 -0.003449
0.072831 -0.009793 -0.002259
0.072897 -0.007370 0.005230
0.072136 -0.009793 -0.001481
0.074291 -0.009788 0.004713
0.071077 -0.009789 0.003785
0.069518 -0.009791 0.001064
0.073768 -0.009790 0.002210
0.071352 -0.006302 0.005265
0.069738 -0.009794 -0.003061
0.070164 -0.009792 -0.000473
0.070148 -0.009790 0.002418
0.074088 -0.009789 0.003883
0.073309 -0.006759 0.005220
0.073399 -0.006032 0.005217
0.069480 -0.009793 -0.000956
0.072287 -0.006212 -0.003454
0.071945 -0.009790 0.002910
0.069986 -0.008778 0.005299
0.069436 -0.009789 0.003933
0.071734 -0.007759 0.005257
0.071741 -0.009790 0.002131
0.069686 -0.007879 0.005305
0.073744 -0.008791 0.005211
0.074113 -0.009792 -0.001591
0.074233 -0.009790 0.001597
0.073441 -0.009788 0.004963
0.072043 -0.009792 -0.000562
0.070941 -0.009790 0.002041
0.072855 -0.009418 0.005232
0.073128 -0.009792 -0.000895
0.072952 -0.009789 0.004444
0.072600 -0.008071 0.005237
0.074008 -0.009793 -0.002502
0.071393 -0.009023 -0.003431
0.073671 -0.006512 -0.003486
0.071065 -0.009790 0.002892
0.070111 -0.009792 0.000332
0.071271 -0.009793 -0.002041
0.072233 -0.009791 0.000326
0.071338 -0.009791 0.001209
0.074209 -0.009715 -0.003497
0.071946 -0.009793 -0.002648
0.071344 -0.009792 -0.000272
0.073481 -0.007800 0.005216
0.073408 -0.009793 -0.001756
0.072023 -0.009789 0.004602
0.073434 -0.009411 -0.003479
0.071327 -0.009131 0.005268
0.074161 -0.009791 0.000391
0.073198 -0.009791 0.000453
0.072032 -0.006849 0.005250
0.072264 -0.006107 0.005244
0.071010 -0.006324 -0.003424
0.070797 -0.008510 0.005280
0.073106 -0.009789 0.003710
0.071150 -0.009789 0.004893
0.072168 -0.009186 0.005248
0.070521 -0.009339 0.005287
0.071954 -0.008508 0.005253
0.070619 -0.009791 0.000889
0.069716 -0.009790 0.003088
0.074174 -0.007475 0.005200
0.069950 -0.007928 -0.003398
0.072417 -0.009790 0.002377
0.075082 -0.009788 0.005057
0.077676 -0.009790 0.002010
0.077674 -0.009788 0.004945
0.076221 -0.009793 -0.002627
0.075209 -0.006136 0.005175
0.076889 -0.007018 0.005136
0.075879 -0.007228 0.005160
0.077440 -0.009510 -0.003573
0.076453 -0.008937 -0.003550
0.076676 -0.009793 -0.003549
0.074591 -0.009282 0.005191
0.075309 -0.009792 -0.001582
0.079155 -0.009788 0.003626
0.075478 -0.009789 0.003292
0.076820 -0.009792 -0.000896
0.077016 -0.009345 0.005134
0.077587 -0.006278 -0.003578
