ply
format ascii 1.0
element vertex 1689
property float x
property float y
property float z
end_header
0.047201 -0.060256 0.004482
0.044263 -0.060992 0.004241
0.045966 -0.061043 0.002580
0.047665 -0.060450 -0.003296
0.044896 -0.061522 0.000185
0.046078 -0.060678 0.003862
0.046908 -0.060955 -0.001407
0.045167 -0.061352 0.001528
0.044211 -0.061588 -0.001254
0.045583 -0.061074 -0.002775
0.044609 -0.060466 -0.005282
0.047122 -0.061019 0.000100
0.043254 -0.061893 -0.000324
0.045257 -0.060757 -0.004189
0.043914 -0.061609 0.001894
0.045659 -0.061243 -0.001402
0.044558 -0.061256 0.002987
0.043197 -0.061427 0.003521
0.046463 -0.061077 0.001253
0.047877 -0.060396 0.003374
0.049305 -0.060269 0.002621
0.048565 -0.060620 0.000957
0.049065 -0.060305 -0.002659
0.049501 -0.060444 -0.000486
0.048270 -0.060684 -0.000955
0.020979 -0.058929 -0.005055
0.021717 -0.059705 0.003333
0.021494 -0.058288 0.006566
0.022408 -0.057364 0.007952
0.021605 -0.059125 0.005004
0.020436 -0.059352 0.003289
0.022846 -0.058418 -0.006894
0.020829 -0.059835 -0.000947
0.022145 -0.060106 -0.002044
0.022930 -0.056874 -0.008419
0.021561 -0.057801 -0.007182
0.020938 -0.059833 0.001332
0.022788 -0.056114 0.008829
0.021273 -0.059444 -0.003806
0.020747 -0.059633 -0.002603
0.021759 -0.058573 -0.006174
0.023106 -0.058888 0.006327
0.022311 -0.059292 -0.005086
0.023077 -0.059472 0.005147
0.025719 -0.057723 -0.008385
0.028053 -0.058992 -0.007930
0.025367 -0.060062 -0.005281
0.024385 -0.056540 -0.008880
0.024687 -0.059970 0.005065
0.024196 -0.056619 0.008762
0.026210 -0.055404 -0.009300
0.024022 -0.057651 -0.008132
0.025563 -0.058959 -0.007160
0.023807 -0.059301 -0.005893
0.024311 -0.060235 -0.004067
0.027394 -0.056437 -0.009167
0.026753 -0.058869 -0.007649
0.024537 -0.058918 0.006842
0.023197 -0.060173 0.003157
0.026407 -0.059874 -0.006216
0.025492 -0.057997 0.008124
0.027154 -0.057966 -0.008488
0.027906 -0.056959 0.009019
0.026709 -0.058758 0.007752
0.025935 -0.059357 0.006793
0.023941 -0.055248 -0.009206
0.024097 -0.057996 0.007775
0.025642 -0.055829 0.009119
0.026047 -0.057029 0.008836
0.027991 -0.059249 0.007605
0.027940 -0.060224 -0.006384
0.026922 -0.056117 0.009135
0.024104 -0.058694 -0.006988
0.030659 -0.056307 -0.009306
0.030025 -0.057036 0.009089
0.028409 -0.055642 0.009192
0.029700 -0.055560 -0.000038
0.031235 -0.059615 0.007548
0.029948 -0.058458 -0.008532
0.032431 -0.056964 -0.009182
0.031748 -0.055304 -0.000033
0.032797 -0.055495 -0.009178
0.028676 -0.056433 -0.009238
0.028614 -0.057707 -0.008903
0.030333 -0.058310 0.008593
0.031971 -0.058059 0.008788
0.029056 -0.059892 -0.007165
0.031227 -0.055772 0.009152
0.032474 -0.056260 0.009245
0.032631 -0.059449 0.007795
0.031607 -0.059259 -0.007993
0.031912 -0.058210 -0.008720
0.030389 -0.059627 -0.007519
0.028363 -0.055274 -0.000038
0.029769 -0.059288 0.007897
0.028627 -0.058398 0.008433
0.037889 -0.057979 -0.008960
0.037779 -0.059641 0.007732
0.036325 -0.057083 0.009122
0.037239 -0.058340 0.008701
0.034765 -0.059856 -0.007378
0.037202 -0.055970 0.009169
0.038068 -0.057313 0.009085
0.033969 -0.056932 0.009138
0.037209 -0.060072 -0.007192
0.034384 -0.058135 0.008782
0.035649 -0.055975 0.009175
0.036435 -0.059273 0.008073
0.036297 -0.057144 -0.009159
0.036209 -0.058994 -0.008284
0.034380 -0.059727 0.007515
0.034921 -0.057252 -0.009134
0.038009 -0.056335 -0.009320
0.033180 -0.055600 -0.000033
0.035723 -0.060063 0.007151
0.034674 -0.055929 -0.009256
0.033759 -0.059285 -0.008025
0.034807 -0.058643 -0.008488
0.033924 -0.055589 0.009105
0.035725 -0.058248 0.008733
0.033658 -0.058023 -0.008867
0.037767 -0.059167 -0.008197
0.039856 -0.059124 -0.008256
0.038582 -0.059978 -0.007345
0.039348 -0.058447 0.008669
0.042453 -0.059587 0.007436
0.039545 -0.056809 -0.009239
0.041264 -0.055828 0.009171
0.041105 -0.056556 -0.009263
0.038644 -0.055466 -0.000023
0.042528 -0.056762 0.009126
0.039391 -0.055529 -0.009140
0.040952 -0.058014 -0.008930
0.041727 -0.057935 0.008863
0.042616 -0.055605 -0.009248
0.039896 -0.056836 0.009199
0.040829 -0.059078 0.008260
0.041657 -0.059797 -0.007393
0.038865 -0.055903 0.009149
0.041232 -0.060030 0.007239
0.042491 -0.058189 -0.008596
0.039351 -0.059523 0.007927
0.042928 -0.058516 0.008316
0.047397 -0.059904 -0.005122
0.046086 -0.056924 0.008883
0.043225 -0.059025 -0.007866
0.043561 -0.057538 0.008852
0.046818 -0.058970 -0.006966
0.043717 -0.059395 0.007324
0.045366 -0.058351 -0.008072
0.048080 -0.059189 -0.006216
0.046665 -0.059210 0.006750
0.043681 -0.055560 0.009233
0.047099 -0.058001 0.008047
0.047701 -0.056228 0.009006
0.045881 -0.060140 -0.005346
0.048004 -0.058930 0.006723
0.045523 -0.058945 0.007371
0.047617 -0.058172 -0.007676
0.046373 -0.057026 -0.008756
0.046135 -0.060005 0.005540
0.044799 -0.057366 -0.008774
0.043873 -0.055354 -0.009253
0.043148 -0.057091 -0.009062
0.045629 -0.055459 -0.009262
0.045517 -0.059195 -0.007054
0.048023 -0.056614 -0.008772
0.045022 -0.057883 0.008421
0.043959 -0.059637 -0.006961
0.044806 -0.056328 0.009114
0.048275 -0.059672 0.005227
0.052312 -0.058495 0.005746
0.052983 -0.059308 0.003082
0.050220 -0.055874 0.008960
0.049665 -0.057234 0.008169
0.050414 -0.057322 -0.007910
0.049344 -0.056353 -0.008742
0.051361 -0.059833 0.002495
0.050661 -0.057960 0.007158
0.051850 -0.059765 -0.002015
0.051375 -0.058023 -0.006840
0.052633 -0.056442 -0.008132
0.052593 -0.059736 -0.000471
0.052640 -0.057494 -0.007079
0.051386 -0.056891 0.008141
0.052360 -0.056042 0.008479
0.050168 -0.058978 0.005757
0.051085 -0.060098 0.000283
0.049411 -0.058780 -0.006415
0.050680 -0.059536 -0.004090
0.049292 -0.059807 0.004375
0.050352 -0.060122 -0.001869
0.051760 -0.059147 0.004683
0.052306 -0.057489 0.007274
0.053029 -0.058849 0.004676
0.048968 -0.057418 -0.008132
0.051966 -0.059403 -0.003506
0.050767 -0.059605 0.003866
0.052134 -0.058550 -0.005634
0.048692 -0.059985 -0.004122
0.051459 -0.055538 -0.008943
0.050372 -0.059061 -0.005428
0.052464 -0.059723 0.001007
0.048797 -0.055552 0.009097
0.048378 -0.058046 0.007668
0.055441 -0.056531 -0.006544
0.057040 -0.056943 -0.004042
0.056087 -0.057426 0.004201
0.053405 -0.059232 -0.002696
0.054183 -0.057495 0.006073
0.054484 -0.058488 -0.003311
0.055666 -0.057033 0.005524
0.055234 -0.058592 0.000175
0.057520 -0.057173 -0.002466
0.057835 -0.056116 -0.005062
0.056771 -0.056225 0.005964
0.056156 -0.057886 0.002503
0.055928 -0.057874 -0.002870
0.054106 -0.059083 -0.001113
0.058021 -0.057059 0.001241
0.053964 -0.055986 -0.007945
0.055787 -0.057146 -0.005121
0.054044 -0.058591 0.003812
0.055397 -0.058393 -0.001339
0.057308 -0.056759 0.004333
0.056757 -0.055833 -0.006570
0.053678 -0.059397 0.000155
0.054472 -0.057757 -0.005247
0.054947 -0.056538 0.006886
0.056644 -0.057765 0.001284
0.053838 -0.056995 -0.006949
0.057239 -0.057564 0.000108
0.053929 -0.055746 0.008186
0.053350 -0.058429 -0.005088
0.057514 -0.057028 0.003048
0.054591 -0.058714 0.002428
0.055749 -0.055312 0.007767
0.054866 -0.057933 0.004618
0.056497 -0.057797 -0.001623
0.053642 -0.056747 0.007382
0.053552 -0.059313 0.001824
0.059954 -0.056115 0.000638
0.060764 -0.055565 0.002127
0.061362 -0.055437 -0.000067
0.059487 -0.056140 0.002609
0.060649 -0.055647 -0.001659
0.059638 -0.055908 -0.003018
0.058910 -0.056023 0.004026
0.059153 -0.056423 -0.001642
0.058375 -0.055717 0.005385
0.058192 -0.056993 -0.000895
0.058265 -0.055292 -0.006138
0.058401 -0.056486 -0.003224
0.059056 -0.055483 -0.005060
0.022925 -0.054471 -0.009300
0.025733 -0.052419 0.008217
0.027556 -0.052293 0.007645
0.026191 -0.054515 -0.000038
0.026691 -0.054856 0.009134
0.025760 -0.051398 -0.000020
0.023316 -0.054481 0.009247
0.028121 -0.053772 0.008632
0.027467 -0.050904 0.005763
0.025689 -0.050794 -0.006668
0.026397 -0.052936 -0.008540
0.025148 -0.051268 0.007257
0.025078 -0.053881 0.009035
0.026982 -0.050859 -0.006121
0.028079 -0.050581 -0.004943
0.026435 -0.051463 0.007061
0.023793 -0.052709 -0.000030
0.027709 -0.050269 0.004204
0.026191 -0.051832 -0.007716
0.024660 -0.052700 -0.008704
0.024444 -0.051493 -0.000022
0.027223 -0.050608 -0.000013
0.027278 -0.052037 -0.000021
0.027574 -0.054186 -0.009046
0.027670 -0.052660 -0.008137
0.024850 -0.053769 -0.000035
0.024491 -0.055121 0.009197
0.026888 -0.053259 0.008531
0.026768 -0.053336 -0.000029
0.025965 -0.054079 -0.009117
0.024748 -0.051596 -0.007920
0.024085 -0.053759 -0.009160
0.029791 -0.055205 0.009044
0.029590 -0.051894 -0.006657
0.032296 -0.051250 -0.004981
0.032156 -0.053144 0.007799
0.031404 -0.052862 -0.000019
0.029800 -0.050511 -0.003107
0.028947 -0.053153 -0.008220
0.032964 -0.050569 0.002440
0.032652 -0.053544 -0.008258
0.031690 -0.051094 0.004496
0.030177 -0.051176 -0.000011
0.030000 -0.050674 0.003327
0.032194 -0.051682 0.005717
0.030328 -0.051284 0.005012
0.029132 -0.051842 0.006618
0.031160 -0.050819 -0.003709
0.032951 -0.050999 0.004029
0.030723 -0.052740 0.007362
0.031141 -0.054080 -0.008639
0.028772 -0.050994 0.005218
0.030956 -0.050503 0.002356
0.029481 -0.050823 -0.004609
0.032917 -0.051897 -0.006287
0.030093 -0.055019 -0.009096
0.029452 -0.052947 0.007775
0.032547 -0.054020 -0.000024
0.028766 -0.051432 -0.000015
0.030650 -0.051668 -0.005935
0.030992 -0.050368 0.000835
0.030947 -0.051895 0.006209
0.032957 -0.051687 -0.000010
0.032980 -0.050915 -0.003897
0.028576 -0.055097 -0.009173
0.029704 -0.052634 -0.000021
0.032064 -0.050606 -0.002790
0.030278 -0.052828 -0.007628
0.031311 -0.054296 0.008655
0.028471 -0.053544 -0.000028
0.031715 -0.052810 -0.007559
0.030270 -0.050391 -0.001584
0.032826 -0.054580 0.008814
0.028339 -0.051478 -0.006585
0.031731 -0.050424 -0.001457
0.031020 -0.054229 -0.000027
0.031601 -0.051499 -0.000011
0.032367 -0.050327 -0.000003
0.034825 -0.052907 -0.007575
0.035304 -0.050502 0.001105
0.033506 -0.052077 0.006446
0.036086 -0.054031 0.008413
0.036760 -0.050457 0.000180
0.036843 -0.050641 0.002204
0.033324 -0.050494 -0.001820
0.033651 -0.050395 -0.000434
0.037266 -0.051688 -0.005611
0.034490 -0.051221 -0.004798
0.035974 -0.054803 -0.000024
0.035986 -0.051842 -0.006004
0.035738 -0.053580 -0.008226
0.037500 -0.052209 0.006508
0.036783 -0.052949 -0.007560
0.038094 -0.050542 0.000746
0.036148 -0.051248 0.004643
0.038021 -0.053356 -0.000012
0.035654 -0.051436 -0.000005
0.037231 -0.054580 0.008747
0.035679 -0.054986 -0.009050
0.033677 -0.050457 0.001063
0.034613 -0.051280 0.004788
0.037696 -0.050567 -0.001301
0.036697 -0.050624 -0.002350
0.033994 -0.053957 0.008397
0.035634 -0.051914 0.006011
0.035130 -0.050466 -0.000855
0.034593 -0.050733 -0.003025
0.034417 -0.052437 -0.000012
0.038052 -0.051097 0.003909
0.034947 -0.054788 0.008915
0.035642 -0.053031 -0.000014
0.035569 -0.051016 -0.004021
0.036826 -0.052440 -0.000009
0.037212 -0.051146 -0.004358
0.037292 -0.054791 -0.000021
0.036950 -0.054658 -0.008911
0.033949 -0.054561 -0.008903
0.037924 -0.053031 0.007495
0.034980 -0.053082 0.007642
0.034225 -0.051933 -0.006289
0.034527 -0.054135 -0.000022
0.036108 -0.052601 0.007037
0.033181 -0.052663 -0.007331
0.034537 -0.050688 0.002732
0.033496 -0.052908 0.007479
0.035686 -0.050890 0.003369
0.039410 -0.053851 0.008248
0.039287 -0.054009 -0.000014
0.041082 -0.052653 -0.007361
0.042465 -0.051489 0.006078
0.038858 -0.050519 -0.000293
0.040652 -0.050848 0.003456
0.041251 -0.050985 -0.004618
0.038984 -0.052079 -0.006327
0.042789 -0.054875 -0.000013
0.038303 -0.054368 -0.008696
0.042580 -0.054843 0.009042
0.041947 -0.050411 0.002957
0.039375 -0.050975 0.003333
0.040829 -0.051748 -0.005972
0.040866 -0.051194 0.004777
0.038537 -0.050690 0.002257
0.038164 -0.051568 0.005186
0.040461 -0.052216 0.006588
0.042558 -0.053339 0.008265
0.038793 -0.052288 0.006588
0.039956 -0.051507 0.000002
0.041535 -0.054586 -0.000014
0.041968 -0.054457 -0.008963
0.042305 -0.051211 0.000008
0.042923 -0.052303 -0.007441
0.039543 -0.050641 -0.001625
0.040580 -0.054384 -0.008716
0.040298 -0.054947 -0.000018
0.039658 -0.052775 -0.000006
0.040617 -0.054658 0.008805
0.042201 -0.050250 -0.002668
0.039484 -0.050855 -0.002998
0.039276 -0.051182 -0.004286
0.041527 -0.053460 -0.008262
0.038141 -0.050763 -0.002780
0.041133 -0.052983 0.007657
0.040030 -0.050637 0.001711
0.041655 -0.052729 -0.000003
0.042341 -0.051510 -0.006187
0.040985 -0.050344 0.000899
0.038437 -0.051950 -0.000003
0.039715 -0.053201 -0.007770
0.039629 -0.051565 0.005108
0.042468 -0.050917 -0.005050
0.038242 -0.053073 -0.007663
0.040989 -0.050440 -0.002202
0.040665 -0.050389 -0.000652
0.045585 -0.053214 -0.008688
0.044946 -0.054887 0.009163
0.046357 -0.051731 0.000010
0.043924 -0.050414 -0.004703
0.046466 -0.050345 -0.005734
0.043874 -0.051087 0.005929
0.043223 -0.050552 0.004525
0.043147 -0.050279 -0.003589
0.045345 -0.053493 0.008768
0.046120 -0.054536 -0.000006
0.047877 -0.053726 0.000001
0.047583 -0.052496 -0.008516
0.047821 -0.055108 -0.009226
0.047952 -0.051444 -0.007774
0.045748 -0.052306 0.008086
0.047054 -0.050551 0.006317
0.046836 -0.051489 0.007457
0.045823 -0.051031 0.006655
0.045901 -0.050445 0.000017
0.043223 -0.053620 -0.000006
0.044637 -0.051565 0.006954
0.044618 -0.054108 -0.009028
0.045896 -0.050381 0.005460
0.047776 -0.050397 -0.006442
0.044304 -0.052768 0.008163
0.043340 -0.053787 -0.008732
0.044468 -0.051133 0.000010
0.046372 -0.051977 -0.007982
0.044840 -0.054657 -0.000009
0.044322 -0.051060 -0.006190
0.046354 -0.054485 0.009151
0.044671 -0.051935 -0.007475
0.044421 -0.052876 0.000000
0.045690 -0.051047 -0.006697
0.045743 -0.053185 0.000001
0.043279 -0.052350 0.007499
0.043206 -0.052288 0.000002
0.046291 -0.054336 -0.009150
0.047139 -0.053283 0.008899
0.048057 -0.051432 0.000015
0.043702 -0.054037 0.008868
0.044308 -0.052888 -0.008295
0.048588 -0.052609 0.000009
0.052091 -0.051568 0.008825
0.051191 -0.053707 -0.009240
0.048440 -0.054293 0.009213
0.049083 -0.052420 -0.008683
0.050173 -0.051040 -0.007895
0.051097 -0.050995 0.008202
0.049023 -0.050369 -0.006789
0.050309 -0.054582 0.009231
0.051624 -0.054740 0.009131
0.048474 -0.052183 0.008407
0.050579 -0.052084 -0.008687
0.051081 -0.052219 0.000015
0.048130 -0.053555 -0.009070
0.052504 -0.052382 0.000016
0.052716 -0.055060 -0.008893
0.049209 -0.050466 0.000022
0.050359 -0.051992 0.008563
0.049376 -0.050705 0.007230
0.053024 -0.054684 0.009011
0.051427 -0.050843 -0.008214
0.049471 -0.053244 0.009058
0.052742 -0.050663 -0.008500
0.052087 -0.053284 0.009247
0.049658 -0.053825 0.000003
0.050476 -0.051030 0.000021
0.048180 -0.051140 0.007413
0.049504 -0.054539 -0.009257
0.051978 -0.051947 -0.008980
0.050793 -0.053109 0.009095
0.052442 -0.053329 -0.009284
0.056519 -0.051454 -0.009224
0.055751 -0.053384 0.009003
0.053266 -0.051757 -0.009064
0.055138 -0.051074 0.000028
0.053910 -0.053493 -0.009114
0.055737 -0.053586 -0.008831
0.056676 -0.050315 0.009161
0.057994 -0.055215 0.006630
0.057965 -0.050675 0.009309
0.056450 -0.050584 0.000033
0.055095 -0.050820 0.009099
0.057591 -0.053211 -0.008491
0.054382 -0.053809 0.009050
0.053667 -0.051575 0.009095
0.057883 -0.054566 -0.007290
0.056159 -0.051703 0.009283
0.054432 -0.054762 -0.008551
0.053502 -0.051093 0.000025
0.055828 -0.054959 -0.008006
0.057238 -0.054639 0.007670
0.053487 -0.050310 0.008525
0.054610 -0.051740 -0.009186
0.057628 -0.051921 0.009105
0.058086 -0.051632 -0.009042
0.053305 -0.052792 0.009277
0.062524 -0.052229 0.007349
0.060531 -0.054280 -0.005844
0.060846 -0.053833 0.006512
0.059568 -0.054462 0.006563
0.062361 -0.054302 -0.003667
0.060119 -0.050904 0.009066
0.060711 -0.052935 -0.007459
0.059856 -0.052986 0.008008
0.062411 -0.053094 0.006393
0.058231 -0.052987 0.008519
0.062692 -0.054655 0.001182
0.060886 -0.052054 0.008276
0.061754 -0.053215 -0.006588
0.062753 -0.054214 0.003446
0.060496 -0.055108 0.004365
0.060297 -0.054989 -0.004792
0.059059 -0.054016 -0.007223
0.062326 -0.054718 -0.002292
0.059542 -0.055099 0.005417
0.062821 -0.050975 0.008274
0.062394 -0.053720 -0.005117
0.061729 -0.054014 0.005346
0.059260 -0.051996 0.008793
0.061408 -0.051698 -0.008213
0.060122 -0.051876 -0.008496
0.061142 -0.055021 -0.003377
0.062510 -0.054793 -0.000570
0.061666 -0.054933 0.002899
0.062854 -0.052279 -0.006972
0.059240 -0.052887 -0.008184
0.059193 -0.050363 -0.009161
0.058867 -0.053928 0.007536
0.061647 -0.054580 0.004144
0.063674 -0.052586 -0.005920
0.066430 -0.050789 -0.004908
0.064445 -0.050562 0.007506
0.066048 -0.051940 -0.002915
0.065366 -0.052874 0.001437
0.065878 -0.052536 -0.000257
0.066283 -0.051859 0.002699
0.066121 -0.051141 0.004948
0.064270 -0.052535 0.005330
0.066099 -0.050245 -0.006174
0.064760 -0.053381 -0.001542
0.065178 -0.051354 -0.005747
0.067670 -0.050709 -0.002208
0.065013 -0.052807 -0.003072
0.064490 -0.052752 -0.004528
0.067073 -0.051457 0.000485
0.063493 -0.054050 -0.002564
0.063437 -0.050918 -0.007845
0.064428 -0.053449 0.002868
0.064392 -0.053746 0.001391
0.063185 -0.053446 0.005017
0.067509 -0.051006 -0.000893
0.067191 -0.050889 0.003169
0.066322 -0.051999 -0.001463
0.063505 -0.054218 -0.001188
0.065471 -0.050933 0.006158
0.066753 -0.051060 -0.003611
0.063733 -0.051737 0.007010
0.063710 -0.054218 0.000193
0.064220 -0.053191 0.004139
0.063746 -0.053538 -0.003824
0.064262 -0.051424 -0.006737
0.064758 -0.053535 -0.000249
0.067360 -0.051066 0.001744
0.065304 -0.052360 0.003758
0.027562 -0.049683 0.002013
0.026286 -0.050016 -0.004835
0.026482 -0.049673 0.003330
0.026659 -0.049316 -0.000985
0.025653 -0.050152 0.005307
0.025751 -0.049156 -0.002198
0.026923 -0.049689 -0.003093
0.026846 -0.049344 0.000584
0.025555 -0.049590 -0.000009
0.028190 -0.049991 -0.002874
0.028990 -0.049911 0.000125
0.029676 -0.050232 0.001466
0.028206 -0.049798 -0.001514
0.028622 -0.050137 0.002815
0.042322 -0.050062 0.001179
0.041917 -0.050133 -0.001038
0.043082 -0.049960 0.000016
0.045408 -0.049417 0.001867
0.047202 -0.049212 -0.003061
0.046994 -0.048888 -0.000014
0.045549 -0.049365 -0.001826
0.046634 -0.049576 0.003834
0.047032 -0.049132 0.002562
0.044668 -0.049431 0.000021
0.044998 -0.049793 -0.003351
0.043737 -0.049787 -0.001921
0.043760 -0.049724 0.001079
0.047635 -0.050082 0.000022
0.043268 -0.049968 0.002452
0.044603 -0.050238 0.004536
0.046382 -0.049712 -0.004238
0.047555 -0.049776 0.005023
0.045196 -0.050230 -0.004919
0.047094 -0.048993 -0.001596
0.044774 -0.049785 0.003041
0.047425 -0.048898 0.001247
0.051039 -0.047611 -0.002106
0.052223 -0.046889 0.000868
0.049156 -0.048400 0.000159
0.052186 -0.047014 -0.002044
0.051501 -0.047927 0.004122
0.052321 -0.049570 -0.007496
0.052789 -0.048697 0.006815
0.050319 -0.047845 -0.000574
0.049158 -0.048554 -0.002012
0.048634 -0.049739 -0.005509
0.048647 -0.048653 0.001643
0.053088 -0.046370 0.000052
0.053033 -0.047090 -0.004020
0.051703 -0.048190 0.000039
0.052946 -0.046630 0.002019
0.051878 -0.047040 -0.000563
0.052350 -0.048138 0.005547
0.049428 -0.048689 0.003093
0.050557 -0.047795 0.001324
0.052103 -0.049834 0.000030
0.051679 -0.047306 0.002220
0.049704 -0.048730 -0.003762
0.052304 -0.047774 -0.004856
0.050283 -0.050030 -0.006866
0.051465 -0.048947 0.006174
0.050823 -0.048036 -0.003359
0.050844 -0.049034 -0.005792
0.050421 -0.048759 0.004866
0.049175 -0.049537 0.005287
0.048618 -0.049219 -0.004305
0.050925 -0.048349 -0.004606
0.048389 -0.050177 0.006187
0.050479 -0.049684 0.006579
0.051546 -0.049989 0.007496
0.050611 -0.048035 0.002960
0.050844 -0.049592 0.000030
0.048458 -0.049212 0.004034
0.052153 -0.048489 -0.006026
0.054832 -0.050051 -0.008763
0.056566 -0.045940 -0.005510
0.055932 -0.048455 0.000044
0.055240 -0.045601 0.002834
0.057405 -0.047245 0.000054
0.053473 -0.047326 0.005136
0.053604 -0.046505 -0.003022
0.054192 -0.046832 -0.004907
0.053792 -0.049359 -0.008051
0.056961 -0.047991 0.008242
0.057320 -0.049612 0.000040
0.054166 -0.048260 -0.007102
0.054057 -0.046028 -0.001814
0.053586 -0.047945 0.000043
0.057812 -0.049699 -0.009098
0.055704 -0.046811 0.006288
0.054556 -0.045610 0.000134
0.057157 -0.046792 0.007206
0.057021 -0.046549 -0.006833
0.056218 -0.049725 -0.008954
0.053744 -0.049220 0.000036
0.055949 -0.045585 -0.004003
0.054887 -0.048395 0.007650
0.053296 -0.046928 0.003889
0.053402 -0.047810 -0.005958
0.055453 -0.046634 -0.005733
0.055330 -0.049591 0.000037
0.055022 -0.045511 0.001557
0.053938 -0.046300 0.002917
0.056182 -0.047433 -0.007324
0.056730 -0.046042 0.005864
0.054407 -0.047450 0.006226
0.056458 -0.046197 0.000059
0.054805 -0.046460 0.004824
0.056653 -0.045291 0.004223
0.053526 -0.049241 0.007794
0.056051 -0.048986 0.008536
0.054795 -0.049660 0.008545
0.055216 -0.048598 -0.008029
0.055371 -0.047154 0.000051
0.057980 -0.049395 0.009123
0.058089 -0.048353 0.000048
0.056516 -0.048372 -0.008282
0.054896 -0.045880 -0.003161
0.057425 -0.047287 -0.007853
0.061308 -0.048008 0.000055
0.059681 -0.046112 0.008030
0.062805 -0.045336 0.009049
0.060984 -0.046357 -0.008658
0.061563 -0.046989 0.009123
0.062398 -0.045711 -0.008921
0.060406 -0.046245 0.000064
0.059886 -0.045780 -0.007829
0.059542 -0.047965 0.000053
0.060936 -0.045987 0.008551
0.058572 -0.045708 0.006838
0.060362 -0.048149 0.009131
0.062102 -0.048139 0.009333
0.058197 -0.047474 0.008316
0.061341 -0.050227 -0.008979
0.058679 -0.046137 0.000062
0.058571 -0.046696 -0.007847
0.059669 -0.047229 -0.008551
0.062138 -0.047282 -0.009137
0.058809 -0.049489 0.000043
0.061010 -0.049855 0.009181
0.058967 -0.048475 0.009055
0.061945 -0.046826 0.000063
0.062444 -0.048855 -0.009056
0.060512 -0.049215 -0.009238
0.058412 -0.048314 -0.008812
0.060852 -0.047966 -0.009071
0.059675 -0.049663 0.009334
0.064610 -0.046936 0.009185
0.065836 -0.048282 -0.008141
0.063192 -0.049358 0.008909
0.066897 -0.046424 -0.008570
0.064470 -0.046400 -0.009138
0.063240 -0.046838 0.009332
0.066659 -0.047722 0.008218
0.065896 -0.048839 0.007906
0.065547 -0.049909 0.007215
0.064247 -0.048507 0.008873
0.067292 -0.047450 -0.007848
0.065458 -0.047863 0.008667
0.064731 -0.047738 -0.008878
0.067165 -0.050086 0.005147
0.063390 -0.047886 -0.009068
0.065228 -0.045734 0.009294
0.067118 -0.045908 0.008911
0.064229 -0.049647 -0.008184
0.065818 -0.045272 -0.009118
0.067980 -0.047183 0.007737
0.067690 -0.048893 -0.006065
0.063247 -0.045426 0.000074
0.067011 -0.049199 0.006685
0.065144 -0.050038 -0.007263
0.066468 -0.049111 -0.007031
0.067979 -0.049051 0.005631
0.055688 -0.045113 -0.000990
0.056144 -0.045113 -0.002730
0.056816 -0.044570 -0.001428
0.057750 -0.044223 0.002575
0.057737 -0.044577 -0.003708
0.056499 -0.044733 0.001408
0.057256 -0.044219 -0.000042
0.056406 -0.044952 0.002686
0.058008 -0.043939 -0.002261
0.059346 -0.042702 -0.001851
0.061262 -0.041149 -0.002604
0.058385 -0.043425 0.000714
0.060498 -0.043137 0.005613
0.058918 -0.043833 -0.004325
0.058462 -0.043392 -0.000944
0.060397 -0.042327 -0.003774
0.062608 -0.043048 -0.007533
0.061557 -0.041157 0.003481
0.058346 -0.044843 -0.005213
0.061603 -0.041933 -0.005180
0.061836 -0.044799 0.008373
0.060200 -0.042421 0.003625
0.059921 -0.042011 -0.000187
0.061603 -0.044075 -0.007659
0.063122 -0.042499 0.000090
0.059300 -0.042699 0.001488
0.059343 -0.044469 0.000073
0.060718 -0.041446 0.001588
0.059312 -0.043339 0.003973
0.061639 -0.042378 0.006011
0.061362 -0.044946 0.000073
0.058972 -0.044504 0.005615
0.061321 -0.043561 0.007074
0.058951 -0.045125 -0.006473
0.061660 -0.042536 0.000088
0.059113 -0.043255 -0.003166
0.063044 -0.043584 0.008314
0.061176 -0.040904 -0.000291
0.059686 -0.044153 -0.005980
0.061093 -0.042100 0.004853
0.060173 -0.044338 0.006848
0.061716 -0.040516 0.001246
0.063105 -0.041898 -0.006890
0.058787 -0.043366 0.002742
0.062066 -0.043871 0.000080
0.061392 -0.042931 -0.006430
0.061724 -0.041258 -0.004093
0.062478 -0.041165 0.000097
0.060521 -0.043061 -0.005438
0.058138 -0.044596 0.004550
0.060554 -0.043895 0.000078
0.062258 -0.041269 0.005174
0.062787 -0.040897 -0.005201
0.060318 -0.041803 -0.001532
0.063855 -0.041383 0.000098
0.063772 -0.042820 -0.008121
0.066570 -0.044304 0.009340
0.063610 -0.044283 -0.008769
0.063399 -0.042006 0.007352
0.067238 -0.042768 -0.009107
0.064989 -0.044218 0.000083
0.067607 -0.042388 0.009280
0.067572 -0.042361 0.000098
0.067933 -0.044267 0.009162
0.064854 -0.043392 -0.008869
0.064736 -0.044044 0.009126
0.066079 -0.042970 0.009154
0.063502 -0.043958 0.000082
0.066198 -0.043317 0.000090
0.066887 -0.041081 0.000104
0.065705 -0.041296 -0.008206
0.065540 -0.040812 0.000103
0.066108 -0.043668 -0.009098
0.067100 -0.041434 -0.008875
0.067071 -0.044741 -0.009023
0.065138 -0.041199 0.008023
0.064619 -0.042693 0.008570
0.064947 -0.042666 0.000092
0.063175 -0.041038 0.006064
0.065052 -0.040423 -0.007111
0.066523 -0.041289 0.008723
0.064314 -0.041650 -0.007633
0.063933 -0.040898 -0.006645
0.062329 -0.040112 0.002462
0.062692 -0.039745 -0.002053
0.063118 -0.039277 0.001343
0.063028 -0.040067 -0.004001
0.062353 -0.039846 -0.000181
0.065529 -0.037187 0.003117
0.064362 -0.038958 -0.004219
0.068083 -0.035361 0.006129
0.065920 -0.038754 0.006326
0.064619 -0.040143 0.006665
0.065021 -0.037526 -0.001463
0.064312 -0.038121 0.000571
0.064512 -0.039761 0.000108
0.066204 -0.035759 -0.001412
0.066309 -0.036213 0.003515
0.063682 -0.039096 0.003030
0.063874 -0.038855 -0.002682
0.068100 -0.035667 0.000138
0.067563 -0.038474 -0.007709
0.063374 -0.038924 0.000111
0.066952 -0.036926 -0.005774
0.065774 -0.036776 -0.002807
0.066275 -0.039974 0.007842
0.066771 -0.035793 -0.003868
0.066187 -0.040037 -0.007671
0.065602 -0.038867 0.000116
0.067667 -0.038923 0.008247
0.063387 -0.039753 0.004126
0.064168 -0.039564 0.005183
0.065814 -0.037377 0.004399
0.065681 -0.038822 -0.005957
0.066502 -0.035346 0.001811
0.066860 -0.037372 0.000126
0.063981 -0.038510 -0.001230
0.067520 -0.039553 0.000114
0.068120 -0.035754 -0.006412
0.066803 -0.037983 -0.006617
0.065740 -0.036483 0.001813
0.066236 -0.037657 0.005600
0.065437 -0.036822 0.000127
0.066735 -0.036158 0.004725
0.067640 -0.035398 -0.005187
0.066872 -0.038495 0.007238
0.067223 -0.036431 0.005883
0.065802 -0.037933 -0.004975
0.064994 -0.038104 -0.003382
0.064679 -0.038099 0.002736
0.064802 -0.038525 0.004225
0.066081 -0.036928 -0.004103
0.066183 -0.035605 0.000406
0.067782 -0.037097 -0.006995
0.064182 -0.040013 -0.005743
0.067408 -0.039868 -0.008241
0.067381 -0.034460 0.003194
0.067140 -0.034390 -0.001556
0.068069 -0.033065 0.000153
0.067574 -0.033726 0.001653
0.067775 -0.034359 -0.003984
0.066916 -0.034572 0.000788
0.067935 -0.033325 -0.002287
0.066904 -0.035035 -0.002672
0.067477 0.009327 0.003784
0.067508 0.008628 -0.000036
0.067014 0.009526 -0.001878
0.066851 0.009451 0.000759
0.067651 0.009712 0.005145
0.066687 0.009749 -0.000543
0.067919 0.008479 -0.002218
0.068012 0.008043 0.001330
0.063029 0.014488 0.002024
0.062548 0.014746 0.000593
0.062760 0.014703 -0.000784
0.064365 0.013897 0.005154
0.065855 0.013376 -0.005941
0.066717 0.012484 0.007095
0.066330 0.011065 -0.003484
0.066764 0.009768 0.002357
0.065645 0.011051 0.001246
0.066972 0.011983 0.000414
0.066824 0.013298 -0.006879
0.063455 0.014590 0.004120
0.064117 0.013872 0.000420
0.067760 0.013953 0.000427
0.067111 0.014489 -0.007838
0.066960 0.011903 -0.005870
0.064738 0.012175 0.000985
0.064707 0.012830 0.003725
0.064047 0.014459 -0.004411
0.065764 0.012161 0.005209
0.065295 0.012541 -0.003834
0.066029 0.010759 0.002789
0.063694 0.013679 -0.001280
0.066215 0.011786 -0.004541
0.063738 0.014221 -0.003125
0.067751 0.011310 0.007197
0.065186 0.011803 0.002550
0.065393 0.011327 -0.000016
0.064327 0.013124 -0.002335
0.067145 0.010985 0.005949
0.065615 0.013240 0.006347
0.066775 0.013689 0.008056
0.066462 0.010940 0.004548
0.063710 0.013768 0.002935
0.064446 0.012590 -0.000403
0.067513 0.010827 -0.005415
0.067505 0.010728 0.000407
0.066031 0.010721 -0.001479
0.065406 0.014511 0.007369
0.067553 0.009872 -0.004293
0.065204 0.012069 -0.002489
0.064112 0.013071 0.001747
0.065204 0.011742 -0.001221
0.066380 0.013618 0.000423
0.062031 0.017198 0.000437
0.061785 0.019172 0.000448
0.062384 0.015599 -0.003364
0.062575 0.016556 -0.005514
0.060239 0.016693 -0.001261
0.059029 0.017534 -0.000470
0.059421 0.017324 0.002379
0.062575 0.015563 0.004721
0.061514 0.015754 -0.001614
0.059203 0.018216 -0.003864
0.060188 0.018304 0.006385
0.059745 0.016882 0.000419
0.059278 0.018095 0.004731
0.062229 0.016476 0.005952
0.061252 0.018125 -0.006285
0.062834 0.017486 -0.006832
0.060533 0.018743 0.000444
0.061155 0.015877 0.001219
0.060649 0.016850 -0.003120
0.061485 0.016192 0.004088
0.061233 0.018949 0.008040
0.060490 0.019606 -0.007126
0.060356 0.017984 -0.005067
0.062844 0.014836 -0.002165
0.061200 0.017245 0.005920
0.061013 0.015984 -0.000237
0.061829 0.017883 0.007451
0.063057 0.015950 0.000431
0.062334 0.015212 0.003073
0.061311 0.016858 -0.004444
0.060309 0.017302 0.004724
0.062353 0.018585 -0.007517
0.060493 0.016533 0.002705
0.059572 0.017353 -0.002166
0.066180 0.018497 0.000451
0.065474 0.017131 0.000442
0.064712 0.015796 0.007672
0.067307 0.015566 0.000435
0.066735 0.016718 0.000441
0.064279 0.015165 -0.005658
0.065465 0.014785 0.000428
0.064680 0.017499 0.008865
0.066185 0.018658 -0.008708
0.064091 0.018269 -0.008079
0.064696 0.019333 0.000454
0.063400 0.017123 0.007877
0.063901 0.014994 0.005803
0.065226 0.015333 -0.006867
0.064321 0.015535 0.000430
0.067561 0.018027 -0.008824
0.065076 0.016584 -0.007627
0.067069 0.018480 0.009722
0.064178 0.017559 0.000443
0.066436 0.014980 0.008600
0.066255 0.016976 -0.008381
0.068103 0.017376 0.009739
0.063144 0.019552 -0.008357
0.063319 0.015958 0.006475
0.065813 0.016740 0.008997
0.067014 0.016073 0.009342
0.064056 0.016298 -0.006600
0.067991 0.019523 -0.008595
0.063169 0.019266 0.000451
0.067266 0.016081 -0.008540
0.063536 0.018271 0.008813
0.065606 0.018361 0.009509
0.063962 0.019498 0.009492
0.063157 0.015445 -0.004458
0.061541 0.022908 0.009762
0.062188 0.023932 -0.008592
0.061402 0.021492 -0.008562
0.061828 0.020054 -0.008096
0.062988 0.021274 -0.008724
0.061265 0.021095 0.000458
0.060536 0.020360 0.008710
0.062553 0.019914 0.009280
0.062384 0.021186 0.009577
0.061791 0.022702 -0.008801
0.062267 0.024366 0.009423
0.062849 0.020511 0.000458
0.067181 0.024661 0.005838
0.065508 0.019817 0.009743
0.067673 0.021214 -0.008027
0.067856 0.024158 -0.004955
0.064853 0.020437 -0.008824
0.067341 0.023079 0.007705
0.065804 0.023692 0.008253
0.065953 0.024020 -0.006971
0.065716 0.021821 -0.008484
0.066648 0.020948 0.009438
0.066805 0.020309 -0.008619
0.063952 0.023633 0.009133
0.066410 0.024617 0.006864
0.065121 0.021097 0.009608
0.063635 0.024532 -0.007898
0.067227 0.022465 -0.007522
0.064479 0.022163 -0.008601
0.067329 0.021825 0.008729
0.063139 0.022444 0.009641
0.067488 0.023435 -0.006392
0.065387 0.022463 0.009166
0.063843 0.021325 0.009731
0.063219 0.022910 -0.008634
0.064964 0.023550 -0.007880
0.064610 0.024651 0.008216
0.065703 0.025694 0.006001
0.067231 0.026072 0.000259
0.065150 0.026958 0.004261
0.064404 0.028244 0.000254
0.068049 0.025216 -0.001963
0.064436 0.027084 -0.004470
0.066247 0.024994 -0.005624
0.065770 0.026758 -0.002572
0.063287 0.026144 -0.006887
0.063891 0.027630 0.005134
0.066052 0.026863 -0.000872
0.064509 0.025906 -0.006214
0.064499 0.025811 0.007206
0.066587 0.025614 0.004978
0.067172 0.026003 0.001692
0.066072 0.026775 0.002371
0.067402 0.025609 0.003148
0.065021 0.027598 -0.001486
0.064810 0.024864 -0.006999
0.065224 0.027556 0.001231
0.067112 0.025998 -0.001451
0.063478 0.025512 0.008222
0.065401 0.026086 -0.004893
0.067660 0.025041 -0.003427
0.064428 0.028039 0.002328
0.064039 0.026719 0.006406
0.066545 0.025750 -0.003850
0.064569 0.027479 -0.003221
0.066171 0.026392 0.003627
0.067750 0.024830 0.004636
0.069494 -0.048993 -0.002546
0.070116 -0.046208 -0.006697
0.069471 -0.045650 0.007932
0.072028 -0.046903 0.001800
0.072811 -0.045484 -0.004062
0.071336 -0.047686 0.000253
0.071643 -0.045839 -0.005333
0.070323 -0.048064 -0.003071
0.068853 -0.046449 -0.007490
0.071199 -0.047152 -0.003427
0.069511 -0.049215 0.001140
0.069100 -0.047594 -0.006120
0.068823 -0.049619 0.002650
0.072024 -0.046977 -0.000918
0.070388 -0.046866 -0.005480
0.068278 -0.049477 -0.004222
0.068574 -0.050100 -0.000514
0.069075 -0.048561 -0.004695
0.068451 -0.050166 0.001078
0.069338 -0.048657 0.004099
0.071522 -0.047058 0.003119
0.070957 -0.047876 0.001619
0.068777 -0.048047 0.006087
0.070730 -0.048057 -0.001544
0.071437 -0.046209 0.005286
0.069729 -0.046594 0.006869
0.068189 -0.049635 0.004218
0.072141 -0.046721 -0.002201
0.072706 -0.045946 0.003289
0.070679 -0.047505 0.003983
0.070350 -0.047069 0.005446
0.068306 -0.045223 -0.008535
0.072437 -0.046671 0.000576
0.069676 -0.049096 -0.000701
0.070837 -0.045680 0.006812
0.070102 -0.047791 -0.004380
0.069814 -0.048810 0.002405
0.073096 -0.046026 -0.000867
0.069493 -0.045239 -0.008013
0.073850 -0.045431 0.000096
0.073166 -0.045886 0.001826
0.073673 -0.045386 -0.001908
0.072084 -0.041710 -0.008304
0.070062 -0.041856 -0.009022
0.070333 -0.041447 0.009243
0.069542 -0.040376 -0.009091
0.072552 -0.044351 0.006575
0.071582 -0.043419 -0.007966
0.069488 -0.044371 0.008645
0.071883 -0.043378 0.007940
0.072539 -0.045165 0.005390
0.071315 -0.040744 -0.008927
0.070502 -0.044878 0.007807
0.073002 -0.043143 -0.006746
0.070617 -0.044881 -0.007476
0.071838 -0.041136 0.008885
0.072882 -0.042384 0.007616
0.068519 -0.041315 -0.009049
0.072994 -0.041092 0.008280
0.068904 -0.041141 0.009282
0.071205 -0.042319 0.008791
0.068716 -0.042847 -0.009075
0.071816 -0.044874 -0.006524
0.069842 -0.043456 -0.008714
0.069777 -0.043034 0.009108
0.076733 -0.040975 -0.000960
0.074029 -0.044472 0.003226
0.073447 -0.043202 0.006375
0.074455 -0.043849 -0.002957
0.074323 -0.044598 0.000983
0.074751 -0.043052 0.003966
0.075938 -0.042198 -0.000717
0.075912 -0.041487 -0.003348
0.077309 -0.040212 0.000623
0.076257 -0.041539 0.002235
0.074706 -0.044035 -0.000702
0.075220 -0.043366 0.000293
0.073218 -0.045144 0.004281
0.074777 -0.040848 -0.006499
0.076430 -0.041506 0.000700
0.075185 -0.042658 -0.003173
0.073829 -0.041967 -0.006701
0.075444 -0.042592 0.002756
0.073206 -0.040788 -0.008025
0.074413 -0.042484 0.005556
0.074675 -0.041878 -0.005539
0.075603 -0.042638 0.001371
0.075868 -0.041353 0.004058
0.074184 -0.041416 0.006972
0.073428 -0.044394 -0.004806
0.074078 -0.043080 -0.005190
0.075235 -0.042031 -0.004325
0.075215 -0.043143 -0.001565
0.076989 -0.040467 0.002120
0.075965 -0.040861 -0.004486
0.073728 -0.044016 0.004961
0.075351 -0.041334 0.005284
0.074834 -0.043722 0.001774
0.076887 -0.040516 -0.002336
0.068817 -0.038238 -0.008398
0.069706 -0.039707 0.009264
0.069355 -0.040163 0.000114
0.071955 -0.036942 -0.009085
0.072528 -0.035400 -0.008996
0.068148 -0.037249 0.007685
0.069286 -0.035271 -0.007258
0.070150 -0.035863 -0.008239
0.070942 -0.035263 0.008713
0.072824 -0.039689 -0.008623
0.070910 -0.037995 0.000129
0.069656 -0.036610 0.000135
0.068643 -0.039484 -0.008763
0.072537 -0.037531 0.009342
0.068198 -0.040097 0.008952
0.068520 -0.037286 0.000129
0.070489 -0.037928 0.009205
0.071069 -0.039981 0.009295
0.070731 -0.037344 -0.008926
0.072065 -0.039102 0.009232
0.071213 -0.036671 0.009192
0.071550 -0.036655 0.000137
0.071188 -0.035379 0.000144
0.069232 -0.037571 0.008610
0.069920 -0.038760 -0.008960
0.071564 -0.039263 -0.009046
0.072240 -0.035184 0.009207
0.069755 -0.036275 0.008432
0.069574 -0.038583 0.000123
0.072567 -0.035741 0.000144
0.069371 -0.036918 -0.008209
0.068552 -0.035905 0.007196
0.077184 -0.039799 0.003210
0.076934 -0.038135 -0.005947
0.077483 -0.038829 0.004331
0.076624 -0.037281 -0.007022
0.074641 -0.038112 -0.008203
0.074763 -0.036166 -0.008829
0.073716 -0.039875 0.008339
0.075426 -0.035619 0.008988
0.075744 -0.038773 0.007206
0.077462 -0.039851 -0.001212
0.076252 -0.039774 -0.005249
0.076999 -0.039664 -0.003766
0.074794 -0.037768 0.008537
0.075013 -0.039489 -0.007163
0.073476 -0.038665 0.008914
0.077624 -0.038176 -0.004734
0.075435 -0.040098 0.006562
0.073597 -0.037114 -0.008929
0.075697 -0.038234 -0.007314
0.077257 -0.035354 0.008013
0.078013 -0.038937 0.002174
0.076851 -0.037231 0.007146
0.073709 -0.035243 0.009420
0.077871 -0.036455 -0.006260
0.076510 -0.040070 0.004764
0.076528 -0.038987 0.005981
0.077401 -0.037850 0.005803
0.076412 -0.036157 -0.007943
0.077819 -0.038565 -0.003500
0.078062 -0.036511 0.006217
0.073810 -0.036934 0.009198
0.076246 -0.036318 0.008289
0.073960 -0.039323 -0.008140
0.079747 -0.036572 0.000737
0.078153 -0.038711 -0.001929
0.078663 -0.037104 -0.003922
0.078658 -0.035417 -0.006100
0.078673 -0.038080 0.001331
0.079238 -0.037178 -0.001383
0.078987 -0.035722 0.005551
0.078191 -0.038924 0.000470
0.079287 -0.037000 0.002457
0.080384 -0.035562 -0.000790
0.079093 -0.035966 -0.004746
0.078370 -0.035376 0.006887
0.078794 -0.037563 -0.002558
0.078200 -0.038203 0.003397
0.079796 -0.035959 0.003135
0.079534 -0.036320 -0.002847
0.078246 -0.037576 0.004587
0.078145 -0.037063 -0.005109
0.079049 -0.037649 -0.000154
0.080260 -0.035648 0.001829
0.079129 -0.036409 0.004286
0.071528 -0.031624 0.007325
0.068918 -0.031503 0.000097
0.071379 -0.031031 -0.006475
0.070750 -0.033652 0.007895
0.069229 -0.033167 -0.005324
0.069458 -0.033080 0.005878
0.070293 -0.031623 0.005645
0.070080 -0.030690 -0.003450
0.072776 -0.033507 0.009077
0.068239 -0.033107 0.003045
0.071406 -0.030403 0.006157
0.070703 -0.033598 0.000154
0.070931 -0.033196 -0.007494
0.068376 -0.032513 -0.001298
0.070504 -0.030224 0.004087
0.071303 -0.032121 0.000163
0.069757 -0.034944 0.000145
0.072974 -0.034185 -0.008925
0.070042 -0.031345 -0.004612
0.071672 -0.034172 -0.008436
0.070409 -0.030842 0.000170
0.071712 -0.032069 -0.007509
0.068291 -0.034325 0.005311
0.072815 -0.030251 0.007937
0.071904 -0.032521 0.008256
0.069754 -0.030399 -0.000853
0.069632 -0.030770 -0.002146
0.068491 -0.033028 -0.003411
0.070165 -0.032314 -0.005935
0.072867 -0.032484 -0.008457
0.070487 -0.032662 0.006976
0.068702 -0.034424 -0.005874
0.068282 -0.032638 0.001450
0.069482 -0.031786 0.004160
0.069056 -0.034586 0.006825
0.070258 -0.034507 -0.007711
0.072139 -0.033563 0.000156
0.068993 -0.031999 -0.002808
0.072374 -0.031350 0.000170
0.069314 -0.031070 0.001244
0.069947 -0.034867 0.007898
0.072816 -0.031089 -0.007916
0.068733 -0.033007 0.004377
0.068943 -0.031825 0.002555
0.069768 -0.030838 0.003076
0.069906 -0.033397 -0.006607
0.077824 -0.033505 0.008454
0.074239 -0.032017 -0.008876
0.077747 -0.035155 -0.007311
0.075083 -0.033009 0.009457
0.077085 -0.034168 -0.008287
0.073407 -0.033946 0.000156
0.075803 -0.034564 -0.008827
0.074378 -0.032823 0.000164
0.077331 -0.032037 0.009080
0.075921 -0.030489 -0.009075
0.074249 -0.034905 -0.009058
0.075804 -0.033101 -0.008986
0.073637 -0.031730 0.000169
0.075639 -0.031781 -0.009117
0.075449 -0.034234 0.009246
0.073573 -0.031463 0.008789
0.076704 -0.034396 0.008751
0.078009 -0.032871 -0.008138
0.077083 -0.031350 -0.008873
0.076446 -0.033194 0.009203
0.075266 -0.031019 0.009338
0.074637 -0.030408 0.000179
0.074459 -0.033568 -0.009101
0.080179 -0.032101 0.006432
0.078900 -0.032697 0.007768
0.080867 -0.034461 0.001877
0.079944 -0.033084 -0.005856
0.079965 -0.030628 0.007405
0.081536 -0.031666 0.003517
0.081790 -0.032200 0.000513
0.080455 -0.031474 -0.005959
0.079715 -0.031190 -0.007087
0.079488 -0.034435 -0.005805
0.078901 -0.031016 0.008351
0.081282 -0.030931 -0.004734
0.080610 -0.034647 -0.002696
0.081169 -0.030361 0.005726
0.078946 -0.034117 0.007138
0.081471 -0.032637 -0.001985
0.080802 -0.032000 0.005305
0.081847 -0.031713 0.001821
0.081515 -0.031701 -0.003168
0.080276 -0.033971 0.004959
0.080748 -0.033406 -0.003762
0.081321 -0.033390 0.001051
0.081150 -0.033954 -0.000369
0.082125 -0.030685 0.002659
0.080148 -0.034274 -0.004659
0.078546 -0.031175 -0.008166
0.082116 -0.030748 -0.002223
0.081322 -0.033038 0.002449
0.079179 -0.032730 -0.007086
0.081002 -0.032929 0.003818
0.078646 -0.033919 -0.007221
0.080767 -0.032244 -0.004838
0.081787 -0.032049 -0.000785
0.080165 -0.034975 0.004066
0.079558 -0.034577 0.005899
0.080824 -0.034918 0.000527
0.081896 -0.030247 0.004034
0.080753 -0.034118 0.003194
0.072388 -0.027952 0.006391
0.071906 -0.026949 0.004740
0.072574 -0.027101 -0.005796
0.071079 -0.028760 -0.003713
0.071990 -0.029504 -0.006326
0.073021 -0.025874 -0.005812
0.071588 -0.026034 -0.001773
0.073043 -0.029770 0.000180
0.071825 -0.025278 0.001814
0.071205 -0.027100 0.000193
0.071011 -0.027582 0.001821
0.072271 -0.025519 -0.003850
0.071507 -0.025871 0.000600
0.070615 -0.029279 0.003065
0.071546 -0.029181 0.005599
0.072603 -0.025202 0.000206
0.071461 -0.026912 0.003106
0.070651 -0.028351 0.000835
0.071042 -0.027476 -0.001387
0.071995 -0.026747 -0.004427
0.072226 -0.029378 0.006923
0.070446 -0.028922 -0.000444
0.070392 -0.029418 -0.001812
0.070191 -0.029651 0.000831
0.071098 -0.029931 -0.004904
0.073112 -0.028106 -0.007054
0.072000 -0.028396 -0.005582
0.072613 -0.025858 0.005409
0.071335 -0.027169 -0.002606
0.072946 -0.029574 -0.007464
0.071348 -0.028234 0.004363
0.071558 -0.029129 0.000181
0.073864 -0.028634 -0.008001
0.076829 -0.025262 -0.008860
0.076677 -0.025425 0.009262
0.076311 -0.025187 0.000211
0.075354 -0.028272 0.009182
0.078004 -0.026500 -0.008997
0.074084 -0.025680 0.007568
0.076589 -0.027362 0.009367
0.076613 -0.026625 -0.008919
0.074673 -0.026820 -0.008091
0.074147 -0.026303 0.000202
0.073613 -0.026681 -0.007040
0.074232 -0.027175 0.008290
0.077110 -0.029949 -0.008955
0.073244 -0.027529 0.000193
0.077602 -0.026431 0.009496
0.077399 -0.028476 0.009382
0.076293 -0.028317 -0.008984
0.075519 -0.025325 -0.008275
0.074278 -0.028764 0.000188
0.075482 -0.026191 0.008849
0.075829 -0.029463 0.000186
0.074944 -0.025299 0.000209
0.076303 -0.026816 0.000202
0.073969 -0.028927 0.008497
0.074395 -0.030085 0.009003
0.075061 -0.029088 -0.008804
0.074098 -0.030059 -0.008461
0.077541 -0.030088 0.009234
0.073160 -0.026713 0.006929
0.075571 -0.027956 0.000195
0.077756 -0.028480 -0.008921
0.073400 -0.028055 0.007730
0.075562 -0.029622 0.009308
0.082909 -0.029021 0.000617
0.081847 -0.026260 -0.006619
0.078850 -0.028971 0.008837
0.082117 -0.029082 0.004724
0.082460 -0.030051 0.001564
0.083012 -0.028290 0.002374
0.081183 -0.025317 0.008190
0.082112 -0.027415 -0.005509
0.079142 -0.027437 0.009000
0.082564 -0.026050 0.006006
0.082848 -0.027111 -0.004185
0.081634 -0.027421 0.006822
0.083093 -0.027458 -0.002875
0.082335 -0.028316 -0.004472
0.082723 -0.027190 0.004918
0.079938 -0.028992 0.008102
0.080698 -0.029605 -0.006599
0.082510 -0.028851 -0.003202
0.079502 -0.026153 -0.008638
0.078937 -0.029113 -0.008360
0.082582 -0.029524 -0.001873
0.079716 -0.029896 -0.007598
0.082548 -0.029987 -0.000429
0.079579 -0.026083 0.009034
0.080484 -0.027574 -0.007644
0.081091 -0.028666 0.006930
0.082463 -0.029345 0.003158
0.083103 -0.028208 -0.001258
0.081623 -0.029245 -0.005216
0.080579 -0.027474 0.007995
0.078841 -0.027811 -0.008694
0.082733 -0.025844 -0.005377
0.081374 -0.028269 -0.006353
0.080704 -0.026062 -0.007921
0.083074 -0.027273 0.003606
0.081870 -0.028359 0.005753
0.082031 -0.030056 -0.003399
0.083695 -0.026581 0.001519
0.083534 -0.027156 -0.000595
0.083649 -0.026259 0.002842
0.083859 -0.025593 -0.002490
0.083546 -0.026808 -0.001835
0.083414 -0.025636 -0.004018
0.083352 -0.027731 0.000772
0.083318 -0.026043 0.004298
0.072335 -0.023983 0.002387
0.072535 -0.023033 -0.000436
0.072074 -0.024579 -0.001438
0.072852 -0.022488 0.002255
0.073110 -0.021377 0.000754
0.072853 -0.024624 0.005039
0.072110 -0.025078 0.003118
0.072804 -0.023735 0.003903
0.072736 -0.023759 -0.003277
0.072212 -0.023931 0.000814
0.072586 -0.023257 -0.001920
0.072978 -0.021967 -0.001171
0.073037 -0.024499 -0.004896
0.075017 -0.020856 -0.006302
0.074397 -0.020937 -0.005065
0.076028 -0.022824 0.000225
0.073876 -0.021548 0.004930
0.075723 -0.024669 0.008676
0.076267 -0.022206 0.008490
0.074559 -0.024984 -0.007420
0.073372 -0.020612 -0.000552
0.076201 -0.023994 -0.008395
0.073316 -0.022361 0.004000
0.074829 -0.021972 0.006947
0.077280 -0.020567 -0.008446
0.073243 -0.021722 -0.002497
0.075164 -0.023167 0.007799
0.073349 -0.021201 0.002667
0.078117 -0.024608 0.009493
0.075104 -0.023448 -0.007412
0.074100 -0.022363 -0.005472
0.077134 -0.021201 0.000236
0.073725 -0.024417 0.000213
0.077188 -0.023049 0.009213
0.074975 -0.022280 -0.006789
0.073496 -0.024511 0.006199
0.077173 -0.020632 0.008871
0.074293 -0.021582 0.000230
0.074171 -0.022930 0.000221
0.073942 -0.024000 -0.006296
0.075658 -0.020750 0.000236
0.073371 -0.023054 -0.004546
0.076918 -0.023774 0.000221
0.077510 -0.023856 -0.008885
0.075260 -0.023885 0.000218
0.076830 -0.022451 -0.008436
0.073885 -0.022757 0.005764
0.073672 -0.021817 -0.004148
0.075978 -0.020400 -0.007412
0.074189 -0.023552 0.006847
0.075058 -0.020485 0.006815
0.075863 -0.021023 0.007835
0.074683 -0.024392 0.007738
0.078569 -0.022229 0.009432
0.082093 -0.023731 0.007806
0.080761 -0.022759 0.009053
0.079405 -0.020806 0.009502
0.082675 -0.024575 -0.006343
0.081394 -0.024684 -0.007755
0.079237 -0.021675 -0.009046
0.082403 -0.025029 0.006928
0.080964 -0.020903 0.009096
0.082548 -0.022278 0.007733
0.082386 -0.020853 -0.007613
0.081361 -0.021747 -0.008319
0.081678 -0.022986 -0.007972
0.078920 -0.022996 -0.009039
0.082793 -0.022407 -0.006967
0.079533 -0.024580 -0.008819
0.078686 -0.020617 0.000242
0.080394 -0.022492 -0.008782
0.078708 -0.020494 -0.008934
0.080760 -0.024117 0.008751
0.078158 -0.023240 0.000226
0.079358 -0.023764 0.009356
0.082171 -0.021135 0.008304
0.083380 -0.022590 0.006630
0.085075 -0.020528 0.002041
0.084470 -0.023240 -0.003263
0.085038 -0.021096 -0.001414
0.085093 -0.021640 -0.000175
0.084624 -0.020181 0.004268
0.083955 -0.020361 -0.005402
0.084267 -0.025068 -0.000648
0.084862 -0.022815 -0.001690
0.084558 -0.024192 0.001331
0.083285 -0.021260 0.006967
0.084978 -0.022968 0.000599
0.084743 -0.022630 0.002987
0.084624 -0.021062 -0.003500
0.083556 -0.022778 -0.005789
0.083335 -0.021051 -0.006453
0.084094 -0.024559 0.003413
0.083802 -0.024239 -0.004390
0.084025 -0.020954 0.005630
0.084960 -0.022064 0.001771
0.084122 -0.022293 -0.004721
0.084309 -0.023408 0.004108
0.084725 -0.023755 -0.000719
0.084357 -0.024308 -0.002326
0.084424 -0.021855 0.004449
0.083411 -0.024849 0.005202
0.083129 -0.024004 0.006326
0.083900 -0.023247 0.005364
0.084792 -0.021344 0.003242
0.074679 -0.018686 -0.005210
0.077082 -0.018800 0.000251
0.076950 -0.019094 -0.008139
0.073684 -0.020053 0.003133
0.076141 -0.019584 0.008023
0.075072 -0.018936 0.006572
0.074734 -0.015759 0.005324
0.073786 -0.017018 0.002172
0.076422 -0.017299 0.000258
0.073638 -0.018543 -0.001493
0.076038 -0.017239 0.007662
0.077290 -0.015493 0.008680
0.077497 -0.017547 -0.008392
0.077027 -0.015934 0.000267
0.075339 -0.019372 -0.006534
0.074870 -0.015199 0.000268
0.074183 -0.018177 -0.003863
0.076877 -0.015897 -0.007889
0.074202 -0.015993 0.003742
0.074698 -0.018820 0.000246
0.073746 -0.016883 -0.001003
0.074188 -0.015551 -0.002988
0.073812 -0.018481 0.003095
0.074165 -0.019559 -0.004268
0.076944 -0.016804 0.008524
0.075091 -0.016636 0.006208
0.073738 -0.019965 -0.002805
0.078048 -0.019655 0.009276
0.075739 -0.017928 -0.006850
0.075177 -0.017167 -0.005937
0.074609 -0.016246 -0.004613
0.073593 -0.018813 0.001775
0.073905 -0.017630 -0.002637
0.073721 -0.016050 0.000368
0.077498 -0.018512 0.008972
0.074420 -0.020061 0.005442
0.073414 -0.019663 0.000544
0.075948 -0.016031 -0.006885
0.075675 -0.015622 0.007062
0.075033 -0.016919 0.000258
0.074288 -0.017163 0.004456
0.073625 -0.017452 0.000253
0.074126 -0.018907 0.004422
0.073878 -0.015328 -0.000913
0.075264 -0.015565 -0.005813
0.074565 -0.018112 0.005395
0.078497 -0.017262 0.009340
0.081727 -0.019964 0.008664
0.078637 -0.016900 0.000264
0.080817 -0.020055 -0.008739
0.081763 -0.017801 0.008778
0.078746 -0.018948 0.000252
0.082150 -0.019515 -0.007923
0.079054 -0.019098 -0.008971
0.081678 -0.016192 0.008936
0.081549 -0.018121 -0.008385
0.080880 -0.018649 0.009254
0.082879 -0.015230 0.008132
0.079607 -0.015407 -0.008995
0.082709 -0.016387 -0.007678
0.079409 -0.019333 0.009537
0.079926 -0.017834 -0.008951
0.082951 -0.018646 0.007661
0.078737 -0.015174 0.000274
0.078670 -0.016639 -0.008833
0.082858 -0.017337 0.007919
0.082952 -0.018128 -0.007210
0.081050 -0.016876 -0.008730
0.078133 -0.015417 -0.008667
0.079851 -0.017837 0.009483
0.080052 -0.016196 0.009482
0.084005 -0.018952 -0.005548
0.085013 -0.015343 -0.003927
0.085622 -0.015812 0.000600
0.084989 -0.019228 0.003226
0.083872 -0.017147 -0.006137
0.085336 -0.017029 -0.002145
0.083831 -0.015208 -0.006450
0.084775 -0.018168 -0.003887
0.085572 -0.015541 -0.000934
0.084815 -0.019379 -0.003333
0.085250 -0.017223 0.002928
0.085458 -0.016065 0.002255
0.085226 -0.018663 -0.001753
