ply
format ascii 1.0
element vertex 1773
property float x
property float y
property float z
end_header
0.444780 0.990850 0.012020
0.494060 1.192100 0.022218
0.200250 0.987520 0.012888
0.318340 0.910100 0.005334
0.440060 0.839560 0.029721
0.294290 0.985390 0.005661
0.324750 0.836500 0.024324
0.195650 1.137300 0.024590
0.308870 0.910290 -0.000261
0.503130 0.978970 0.011984
0.409160 1.133500 0.011999
0.441790 0.824530 0.032060
0.248350 1.108000 0.005945
0.297830 1.001600 0.012052
0.188500 1.150900 0.036758
0.292010 0.969150 0.012060
0.421830 1.248000 0.028188
0.466390 0.883100 0.015968
0.434440 1.246600 0.034290
0.249840 1.143800 0.013580
0.422280 1.224000 0.016120
0.484420 1.178400 0.008477
0.509010 0.982770 0.012003
0.381430 0.839110 0.024972
0.574020 1.004500 0.019524
0.210320 1.020600 0.007143
0.284580 1.242300 0.034101
0.271670 1.002200 0.012058
0.365840 0.861030 0.015634
0.238280 0.868660 0.036364
0.383900 0.816170 0.036887
0.535880 1.156600 0.024466
0.471750 1.163200 0.012404
0.270910 0.889150 0.011882
0.440750 1.085200 0.005606
0.281910 1.111500 0.005638
0.437070 0.902510 0.000050
0.372030 1.221500 0.018406
0.194340 1.142200 0.031927
0.570650 1.079800 0.023521
0.267360 0.846180 0.036847
0.185490 1.143100 0.036455
0.569100 0.939540 0.027880
0.203860 0.990250 0.017117
0.387590 1.138000 0.005607
0.387250 0.861090 0.008852
0.501570 1.111200 0.011992
0.231850 1.038000 0.012114
0.456100 0.973930 0.012020
0.246950 1.102700 0.002462
0.415710 0.904830 0.012020
0.446510 0.921390 0.012009
0.234980 1.056700 0.012079
0.248380 0.868120 0.027451
0.524120 1.052700 0.012048
0.172120 1.057500 0.023844
0.514290 1.146100 0.007331
0.466170 1.186700 0.014662
0.271200 0.896210 0.016023
0.339920 0.881430 0.012823
0.507600 0.868650 0.026858
0.417000 0.898680 0.012059
0.317730 1.091800 0.012029
0.306680 1.077000 0.005639
0.260770 0.909460 0.007552
0.599460 1.046600 0.036787
0.532730 0.878590 0.036776
0.284320 1.144900 0.003963
0.221760 0.954900 0.015690
0.479710 1.227100 0.028114
0.253940 0.915400 0.015063
0.570830 1.106500 0.028172
0.352730 0.952820 0.012049
0.325800 1.211200 0.011169
0.168250 1.004800 0.032414
0.332400 1.237700 0.028059
0.218480 0.894160 0.032904
0.491470 1.057200 0.011995
0.273230 1.096800 0.012038
0.395400 1.245900 0.030094
0.345770 1.095600 0.012021
0.515520 1.090200 0.002040
0.187250 1.071200 0.023053
0.329630 1.220500 0.020464
0.213560 0.936950 0.016937
0.354560 1.099000 0.012019
0.374580 1.013200 0.005636
0.354070 1.224200 0.014490
0.398060 0.865220 0.014933
0.544290 1.184600 0.036521
0.375830 0.961710 0.012042
0.321980 0.978770 0.005656
0.308970 1.102400 0.012029
0.223140 1.148200 0.021069
0.503710 1.158400 0.007282
0.410330 1.042100 0.012017
0.454790 0.954670 0.012025
0.453710 0.874900 0.009734
0.302960 0.983410 0.005659
0.453290 0.887050 0.013574
0.376510 0.990560 0.005640
0.401370 1.158900 0.005600
0.347270 0.979580 0.005650
0.533480 0.922640 0.022173
0.222810 1.039400 0.007136
0.378330 0.976370 0.012038
0.364420 1.037700 0.012029
0.261760 1.221300 0.029677
0.557340 0.932150 0.029498
0.458210 1.114000 0.005596
0.496400 1.203500 0.027367
0.404420 1.115600 0.005608
0.249710 1.108500 0.000359
0.312960 1.051200 0.005643
0.191890 1.123400 0.023218
0.520680 1.070300 -0.000344
0.387680 0.912570 0.005654
0.585820 1.029100 0.023515
0.246690 1.004700 0.012040
0.456340 1.229000 0.023650
0.496820 1.085800 0.011980
0.481520 0.947460 0.005624
0.231380 1.195600 0.028055
0.277410 1.076200 0.012042
0.421090 1.117500 0.005604
0.301180 1.005500 0.005655
0.188720 1.080500 0.017680
0.437000 1.196600 0.007053
0.544020 1.143600 0.018640
0.442460 0.904040 0.004930
0.377350 1.196200 0.012556
0.211880 1.123900 0.014278
0.483730 1.014300 0.012006
0.231780 0.898340 0.021039
0.426480 1.037400 0.012014
0.380720 0.828080 0.030699
0.363870 1.144900 0.005611
0.274660 1.085800 0.005645
0.362480 1.183600 0.004366
0.262820 0.859800 0.031395
0.415890 1.190800 0.007059
0.473470 1.073300 0.005600
0.510490 1.102700 -0.000348
0.467090 0.937670 0.005630
0.377630 1.057200 0.012022
0.199760 1.099900 0.014582
0.250660 0.920390 0.014672
0.248280 0.945750 0.007149
0.195860 1.008600 0.012696
0.356280 1.062200 0.012026
0.328950 1.206800 0.008572
0.415030 1.148000 0.011994
0.278620 0.970130 0.012063
0.513290 1.017600 0.011974
0.509840 0.901750 0.020160
0.264000 1.100200 0.012023
0.533890 1.163900 0.025721
0.383610 1.065600 0.012019
0.481770 1.025300 0.012004
0.458930 1.127300 0.011988
0.384670 1.200100 0.012861
0.488180 1.062500 0.005599
0.467380 1.019800 0.005613
0.415890 0.962430 0.012032
0.488240 1.044700 0.005603
0.193160 0.940370 0.024500
0.373990 0.855650 0.011027
0.192000 1.055100 0.013796
0.494130 1.111100 0.011959
0.170690 1.072200 0.031603
0.398370 1.029000 0.005627
0.460070 1.065700 0.012001
0.246980 1.173800 0.020361
0.235400 1.074300 0.012131
0.344240 1.210900 0.008303
0.339140 1.059200 0.005635
0.524460 0.959290 0.007081
0.272200 0.933690 0.006110
0.273530 0.849320 0.028387
0.433200 1.118100 0.005601
0.311420 0.906780 0.003788
0.307970 1.211200 0.014122
0.413310 1.211400 0.016004
0.510850 0.927380 0.007123
0.284890 0.925230 0.012125
0.466400 1.079700 0.005601
0.378640 1.165900 0.005604
0.219510 1.032200 0.007138
0.448070 1.252500 0.033362
0.469880 1.122400 0.005591
0.226050 1.155100 0.022125
0.302250 1.047100 0.005646
0.298030 1.219200 0.019456
0.228540 1.069800 0.012320
0.374630 0.889770 0.004510
0.407590 0.973490 0.012032
0.470820 1.116200 0.011988
0.565700 1.088700 0.017197
0.393470 0.835560 0.021728
0.373580 1.033500 0.005632
0.233710 0.903800 0.023830
0.468870 0.975930 0.012017
0.490950 1.069400 0.005597
0.457660 0.872180 0.017779
0.330610 1.186100 0.012424
0.349070 1.240900 0.028554
0.369230 1.099900 0.012015
0.522300 1.185600 0.029070
0.428320 1.218700 0.019762
0.259470 1.095400 0.005646
0.455640 1.115000 0.011991
0.286100 1.115900 0.012031
0.567240 1.003500 0.021848
0.426670 0.919060 0.012031
0.417910 1.162200 0.011975
0.349810 1.209200 0.007338
0.178540 0.932660 0.033597
0.205230 0.953140 0.021773
0.576710 1.081300 0.021132
0.348860 1.219800 0.018437
0.485650 1.157900 0.007049
0.479290 0.925400 0.012145
0.331530 1.162500 0.011987
0.441510 1.139700 0.011990
0.539130 1.165300 0.028391
0.384920 0.968480 0.005643
0.553220 1.165200 0.028962
0.255050 1.097500 0.012018
0.483050 1.204700 0.023833
0.532700 0.972310 0.007076
0.473250 1.198600 0.019324
0.235430 0.891540 0.022475
0.488820 0.905960 0.014347
0.173350 0.951910 0.036841
0.570760 1.048100 0.022180
0.563490 1.019100 0.018915
0.399460 0.859780 0.009962
0.282740 0.899320 0.007151
0.363850 0.985040 0.005644
0.475020 0.951550 0.012007
0.397920 1.209700 0.007196
0.498460 0.857570 0.028990
0.417930 0.963290 0.005636
0.536640 1.116800 0.015477
0.446620 1.187900 0.007052
0.499530 1.121500 0.005291
0.564770 0.976020 0.023205
0.522960 1.063800 0.012040
0.281440 0.847820 0.032875
0.592060 1.042700 0.032967
0.263450 1.128800 0.001796
0.419830 0.824040 0.028896
0.551090 1.128400 0.017267
0.256770 0.964030 0.002415
0.302610 0.838800 0.032345
0.254560 1.118500 -0.000179
0.394990 0.958710 0.005642
0.431490 1.177200 0.012094
0.283590 0.961410 0.012064
0.176750 0.969330 0.032841
0.386680 1.185400 0.012064
0.574800 1.033200 0.018093
0.463920 0.932730 0.005631
0.451320 1.058200 0.005609
0.419230 0.955380 0.005637
0.348320 1.087300 0.012023
0.263690 0.972470 0.005671
0.212030 1.095600 0.015459
0.350560 0.918640 0.012057
0.421790 0.938980 0.012036
0.217610 0.879890 0.035003
0.518310 0.897890 0.024422
0.545800 1.150500 0.021329
0.335230 1.141500 0.012015
0.491980 1.122800 0.003047
0.511080 1.070800 0.005592
0.560190 1.036100 0.011014
0.386720 0.890790 0.004180
0.174040 1.094200 0.026388
0.306120 1.186400 0.007086
0.508380 0.914620 0.016456
0.396590 0.944040 0.012041
0.305150 1.041200 0.012042
0.356560 1.014400 0.005640
0.324870 0.986170 0.012049
0.437580 0.845450 0.020832
0.325670 0.950940 0.012056
0.234350 1.065500 -0.000217
0.409920 1.076900 0.005615
0.517460 1.166700 0.014686
0.349670 0.975010 0.012045
0.359830 0.823970 0.033053
0.501800 0.940350 0.012484
0.405420 1.165600 0.005597
0.485600 1.000600 0.012008
0.289200 0.885230 0.015669
0.428190 0.876110 0.013938
0.349130 1.116900 0.012016
0.419110 1.010300 0.012022
0.389060 1.023800 0.005631
0.376990 1.255300 0.029481
0.499250 0.969300 0.011987
0.170180 1.112100 0.031108
0.532790 0.955750 0.007783
0.306980 1.088100 0.012032
0.405510 0.910090 0.005650
0.343120 0.850810 0.021088
0.427080 1.056500 0.012010
0.233150 0.880820 0.027581
0.448730 1.021500 0.012012
0.310390 1.017100 0.005650
0.272080 1.176300 0.007899
0.354400 0.854810 0.012544
0.354720 1.164800 0.011994
0.409330 1.152900 0.011995
0.504730 0.907950 0.016992
0.597150 0.992380 0.036177
0.441840 1.155500 0.005591
0.278000 0.886070 0.010758
0.497650 0.902980 0.016380
0.401600 0.822910 0.028745
0.339530 0.919360 0.005664
0.365780 1.122900 0.012011
0.440860 1.085500 0.012001
0.377360 0.924810 0.005654
0.360810 0.993580 0.012039
0.364500 0.984410 0.012040
0.257290 1.061500 0.012049
0.281300 0.852940 0.030429
0.276390 0.909070 0.007150
0.518260 1.070100 0.011992
0.419120 0.911370 0.005646
0.375660 1.144900 0.012004
0.254820 0.992410 0.012043
0.272510 1.236700 0.035145
0.463910 0.888850 0.014358
0.355910 0.969890 0.012045
0.281270 0.944790 0.005672
0.403320 1.092800 0.005613
0.532150 0.915280 0.018531
0.459630 1.190600 0.014825
0.159110 0.985010 0.035047
0.415510 1.117800 0.012000
0.289740 1.161000 0.012238
0.419380 1.038100 0.005620
0.463130 1.092600 0.005599
0.411820 0.955700 0.005639
0.331680 1.091200 0.012026
0.333970 1.235000 0.020941
0.253060 0.962100 0.012124
0.313610 0.878580 0.007148
0.365810 1.075400 0.005625
0.351480 0.909960 0.005663
0.268910 1.082500 0.012042
0.461670 1.166100 0.007053
0.374120 0.897650 0.012035
0.316790 0.901330 0.012188
0.499590 1.000700 0.005609
0.455210 0.853940 0.025273
0.276070 1.097500 0.005642
0.495910 1.125800 0.000251
0.501670 1.173300 0.018109
0.355870 1.209400 0.014855
0.533570 1.048600 0.007061
0.528410 1.101600 0.007051
0.393450 0.910790 0.012041
0.597230 1.009200 0.031094
0.268820 1.196100 0.022362
0.506370 0.964700 0.003364
0.392400 0.950670 0.005645
0.581190 0.942000 0.033390
0.377670 0.832910 0.022460
0.544160 0.978980 0.007899
0.327350 0.939220 0.005662
0.301340 1.012900 0.005654
0.547170 1.061000 0.007055
0.315320 0.982760 0.012052
0.545820 1.157500 0.023409
0.539440 0.942580 0.019328
0.329010 1.200700 0.007078
0.286670 1.022700 0.012051
0.272290 1.124300 0.005637
0.443410 0.993200 0.005624
0.484460 0.842300 0.036848
0.208740 0.994990 0.007710
0.381830 0.897390 0.012040
0.505800 1.128100 0.012405
0.283780 0.850380 0.025505
0.204630 1.146400 0.027954
0.319460 0.857220 0.014576
0.359750 0.871780 0.007138
0.517740 1.175900 0.018219
0.437680 0.896420 0.012285
0.452520 0.826920 0.036268
0.493910 1.175300 0.016820
0.233980 1.089400 0.007123
0.439440 1.141800 0.005594
0.244340 0.905230 0.020057
0.275110 1.047300 0.012048
0.402660 1.158100 0.011995
0.157540 1.042300 0.036597
0.386380 1.177800 0.011977
0.499650 0.911020 0.015163
0.189380 1.153500 0.031378
0.247310 1.204300 0.026554
0.580580 1.018900 0.021453
0.556900 1.067900 0.016981
0.349820 0.859030 0.017219
0.164240 1.102800 0.036615
0.467030 0.898260 0.007107
0.424570 0.894590 0.012188
0.480850 1.138700 0.011993
0.479290 1.198000 0.014591
0.542760 0.989080 0.014199
0.337360 1.064600 0.005634
0.268060 1.131400 -0.000297
0.211600 1.177200 0.035350
0.271000 0.953780 0.012044
0.354270 0.845710 0.016978
0.276040 0.844990 0.035512
0.473560 1.151300 0.006340
0.233540 1.069300 0.006389
0.252180 1.161200 0.008744
0.331380 1.112200 0.012021
0.218230 1.145200 0.021888
0.507440 0.977090 -0.000321
0.183230 1.037200 0.023315
0.214410 1.145000 0.017718
0.213160 0.919810 0.021962
0.203670 1.070600 0.016264
0.364020 1.194100 0.007071
0.297810 0.870120 0.019232
0.474100 1.150000 0.012065
0.508410 1.081600 0.011962
0.186240 1.028500 0.016672
0.168690 1.088000 0.034203
0.359970 1.032900 0.005635
0.480630 1.017800 0.005610
0.419170 0.951160 0.012034
0.553720 1.012900 0.015853
0.336960 1.018100 0.012040
0.222050 1.197000 0.036575
0.444190 0.908420 -0.000292
0.398870 1.246900 0.025359
0.582120 1.095600 0.031901
0.545210 1.127400 0.020239
0.294310 0.873600 0.012630
0.502020 0.926110 0.007093
0.228940 1.162900 0.023516
0.305110 1.175400 0.012379
0.515520 1.076900 -0.000344
0.258090 0.899590 0.012082
0.411380 1.165700 0.005596
0.215530 0.954480 0.011226
0.428310 1.244300 0.032451
0.504590 1.090100 0.011961
0.305930 0.881250 0.014711
0.255620 1.055100 0.012051
0.539450 1.179200 0.032715
0.227060 1.172300 0.021820
0.476440 0.919590 0.007101
0.197750 1.120400 0.019838
0.292780 1.217000 0.019294
0.514310 1.005000 0.005605
0.359650 0.873970 0.013238
0.233550 1.007700 -0.000233
0.456500 1.192200 0.007282
0.223480 0.930660 0.020294
0.237320 0.883510 0.030619
0.264150 1.054800 0.012049
0.475580 1.183500 0.015044
0.442300 1.241800 0.032507
0.257930 1.126400 0.012155
0.569700 1.132100 0.026553
0.310010 1.093900 0.012030
0.556790 1.124200 0.024370
0.293720 1.106400 0.012032
0.306620 1.123100 0.012025
0.334590 1.128700 0.012017
0.243570 0.978620 0.001063
0.456690 0.880920 0.007476
0.263630 0.864250 0.023741
0.284120 1.223100 0.029310
0.565070 1.067600 0.020249
0.584050 0.951130 0.032456
0.524090 0.941590 0.007250
0.480560 1.118000 0.005589
0.414130 1.024400 0.005624
0.288380 1.126700 0.005633
0.567170 1.044200 0.014759
0.321380 0.929850 0.005666
0.226730 1.131400 0.016070
0.344990 1.245600 0.031219
0.209030 0.895050 0.031245
0.398580 1.140700 0.012000
0.233300 1.030300 0.012099
0.489520 1.205300 0.020227
0.406590 0.885460 0.007124
0.465940 1.034600 0.005610
0.314180 1.077800 0.005637
0.361820 1.153000 0.005610
0.416030 0.867750 0.014760
0.178560 1.088500 0.029059
0.380730 0.822960 0.033443
0.592770 0.971660 0.036474
0.471020 0.840220 0.034918
0.538340 1.150600 0.023768
0.428100 0.883060 0.007120
0.245180 1.161200 0.017544
0.226540 1.021300 0.007139
0.176990 1.060300 0.027152
0.291090 0.947850 0.005669
0.194280 0.910050 0.035629
0.517920 0.942070 0.007086
0.241390 0.897100 0.018385
0.302710 1.141500 0.005627
0.477450 1.145500 0.012040
0.572210 1.042400 0.022667
0.398190 0.845990 0.022221
0.483920 1.232900 0.031905
0.231280 1.076600 0.007126
0.322910 0.879260 0.013596
0.561220 1.135700 0.029156
0.205670 1.095700 0.011055
0.225980 0.908510 0.025352
0.593280 1.093600 0.036790
0.315480 0.974220 0.012054
0.369740 0.968490 0.012042
0.290940 1.191800 0.015859
0.395550 1.114900 0.012006
0.489250 1.016200 0.005608
0.553950 0.937160 0.021217
0.354450 1.020400 0.005639
0.531210 1.039700 0.012223
0.409460 0.931440 0.012040
0.235400 1.105000 0.012598
0.341670 0.875620 0.007142
0.478790 0.932130 0.012050
0.508460 1.113200 0.007016
0.245800 0.912180 0.017514
0.525660 0.878500 0.034015
0.342420 0.949260 0.012052
0.212290 0.891950 0.036339
0.202950 1.036800 0.015421
0.378140 1.131600 0.012006
0.391490 0.928140 0.005650
0.296540 0.936100 0.012049
0.250650 1.193400 0.020869
0.242300 0.863600 0.031428
0.170110 1.000900 0.025994
0.384390 0.964610 0.012039
0.526320 0.977970 0.007077
0.407650 0.903590 0.005651
0.503210 1.007300 0.011993
0.179030 0.959760 0.033397
0.478840 1.045600 0.012000
0.505840 0.919170 0.007462
0.235970 1.142600 0.015844
0.460680 0.870600 0.012884
0.274410 1.122300 0.012009
0.378590 0.920080 0.012050
0.503180 0.945800 0.007089
0.345170 1.258900 0.032788
0.198790 1.002800 0.017651
0.320960 0.984750 0.005655
0.440370 1.094300 0.005604
0.194340 1.089400 0.021311
0.598210 1.089100 0.034541
0.262820 1.001300 0.012061
0.528270 1.061200 0.012171
0.274870 1.212800 0.027569
0.408310 1.156600 0.005598
0.484690 0.993620 0.012010
0.170840 1.057200 0.030051
0.409570 0.965500 0.005638
0.322020 0.853180 0.021804
0.433690 1.133100 0.011993
0.458760 1.023700 0.005614
0.264130 0.855190 0.027723
0.492640 1.131900 0.005583
0.340060 1.218200 0.012084
0.406420 1.082100 0.012010
0.539590 1.060300 0.007057
0.488850 1.142800 0.012186
0.386290 1.030700 0.012025
0.488200 0.924230 0.007097
0.381450 1.062300 0.005624
0.290030 0.961020 0.012062
0.308710 0.918590 0.005671
0.328830 1.013900 0.005647
0.439330 0.875800 0.014794
0.233040 1.122400 0.013769
0.422660 1.010200 0.005625
0.451310 0.833590 0.029155
0.418490 0.882870 0.007122
0.461550 1.100600 0.011993
0.231440 1.170000 0.024868
0.176540 0.992310 0.028852
0.457470 1.072200 0.012000
0.402150 1.113500 0.012004
0.201430 1.050700 0.008810
0.249130 1.125600 0.007112
0.301590 1.075000 0.012036
0.294600 1.242500 0.036827
0.535110 1.079200 0.012843
0.367030 1.171100 0.005605
0.380850 1.037100 0.012025
0.424900 1.042900 0.005618
0.445240 1.015300 0.005619
0.561280 1.163600 0.032057
0.183420 1.113200 0.024940
0.376860 1.066200 0.012020
0.375110 0.819020 0.035330
0.161470 0.999620 0.036285
0.384940 1.151400 0.012001
0.362640 1.143700 0.012008
0.329510 1.087100 0.005631
0.206500 0.931770 0.026845
0.541230 0.902020 0.032148
0.166040 1.079400 0.029167
0.337500 1.020300 0.005643
0.459750 1.088500 0.011996
0.397340 1.203600 0.007061
0.547540 0.976950 0.016459
0.367970 0.895100 0.000003
0.240040 1.139900 0.007121
0.236790 1.083800 0.005961
0.322160 1.149300 0.012016
0.554410 1.140400 0.022066
0.312590 0.855430 0.022341
0.314160 1.193400 0.007083
0.535700 0.933600 0.019696
0.549690 1.015100 0.007125
0.427350 0.912950 0.012016
0.215650 1.134600 0.014871
0.434300 0.838740 0.023548
0.485930 0.935580 0.006030
0.242300 1.093100 0.012115
0.562150 1.093200 0.016270
0.193320 1.161400 0.031693
0.235940 0.939830 0.014839
0.278170 1.196800 0.020167
0.567630 1.124600 0.029760
0.220200 0.886640 0.035330
0.541910 1.062000 0.013247
0.380010 1.034300 0.005630
0.205490 1.024800 0.014984
0.345530 0.817740 0.036792
0.431640 0.830720 0.027092
0.225950 1.122900 0.007786
0.472480 1.058100 0.005604
0.181470 1.066700 0.019966
0.518600 1.089300 0.006897
0.175640 1.102200 0.026330
0.366140 0.854950 0.011412
0.191560 1.016000 0.014533
0.324880 1.050800 0.005640
0.500870 1.124500 0.012126
0.309230 0.837960 0.031217
0.278430 1.060300 0.012045
0.546390 0.915600 0.023950
0.577660 1.086600 0.028070
0.376210 1.074500 0.012019
0.429210 1.239700 0.024547
0.505640 1.047600 0.005598
0.479210 0.863030 0.026404
0.182290 1.089100 0.021639
0.273420 0.966900 0.005670
0.212310 1.087600 0.014755
0.502650 1.052900 0.011993
0.218860 1.008600 0.007143
0.228430 1.087500 0.007125
0.165710 0.993060 0.028676
0.253010 1.085600 0.012021
0.325380 1.108400 0.005628
0.491960 0.957720 0.005620
0.360220 1.058500 0.005630
0.435050 1.005500 0.012019
0.378010 0.821160 0.028702
0.454530 0.942520 0.012027
0.400740 0.871210 0.013723
0.351120 1.171300 0.011981
0.485190 1.149400 0.012292
0.226790 0.942530 0.009978
0.407210 0.817630 0.036876
0.578560 1.037200 0.025636
0.443480 0.879640 0.014268
0.527910 1.204700 0.035143
0.545810 1.182200 0.030860
0.300440 1.186700 0.007087
0.463870 1.158000 0.004745
0.184230 1.016500 0.018125
0.283270 1.096800 0.005641
0.486900 1.025100 0.005607
0.211760 0.958810 0.012255
0.522490 0.917660 0.019841
0.379290 1.262300 0.035362
0.389240 1.255600 0.034712
0.548920 0.939510 0.023928
0.360890 1.110200 0.012015
0.257130 1.074800 0.005651
0.529010 0.886300 0.027061
0.360360 1.012300 0.012035
0.357860 0.986490 0.005646
0.530470 0.877760 0.030648
0.500900 1.045100 0.011995
0.481770 1.178700 0.015164
0.193100 1.146400 0.027909
0.403900 1.244400 0.024570
0.519240 1.057300 0.002275
0.342960 0.926720 0.005661
0.574980 0.978140 0.022470
0.304300 1.106000 0.012029
0.450150 0.960420 0.012025
0.420720 1.162800 0.005594
0.366360 1.079900 0.012020
0.294100 0.907230 0.012361
0.513830 1.010800 0.005604
0.332030 0.990990 0.012046
0.466030 1.170800 0.007051
0.296150 0.983370 0.012056
0.587730 1.084600 0.027187
0.244810 1.018200 0.012037
0.463960 1.221700 0.027469
0.344810 1.038400 0.005638
0.303100 0.969710 0.005662
0.184640 1.097900 0.021273
0.439510 1.120300 0.011994
0.255980 1.137400 0.007108
0.370760 1.109000 0.005617
0.200030 1.091100 0.018970
0.469490 0.876200 0.018645
0.557720 1.063000 0.010824
0.471520 0.970590 0.005622
0.369710 0.853080 0.018160
0.437730 1.076800 0.005608
0.368600 1.212200 0.008017
0.448790 0.855830 0.023309
0.407600 0.920540 0.005647
0.365090 1.245900 0.024957
0.536630 1.021700 0.012555
0.538530 0.957120 0.010048
0.443290 1.112100 0.005599
0.353960 1.088100 0.012021
0.516450 1.185200 0.021368
0.500250 1.208600 0.030727
0.406340 1.195800 0.012765
0.466660 1.235700 0.029240
0.302080 1.088600 0.005638
0.558390 1.019100 0.010615
0.433550 0.847600 0.024639
0.399720 1.072400 0.005618
0.376710 1.091700 0.012015
0.265700 0.966640 0.012043
0.243650 1.087700 0.012058
0.383240 0.830340 0.024031
0.519060 1.207200 0.036685
0.471920 0.952200 0.005626
0.423000 1.109300 0.012000
0.360770 1.084500 0.005625
0.582920 1.101100 0.027703
0.155160 1.030800 0.032763
0.172290 1.048700 0.022904
0.275810 1.079100 0.005646
0.512830 1.217600 0.033604
0.533810 1.106800 0.007049
0.165230 0.991790 0.034657
0.382780 1.250100 0.026455
0.219310 0.917030 0.020169
0.341120 1.160500 0.005614
0.311910 0.844720 0.027367
0.199210 1.127100 0.020633
0.466240 0.966970 0.005624
0.489700 1.020000 0.012003
0.235620 1.106900 0.007119
0.510240 1.095800 -0.000347
0.284270 1.061500 0.005648
0.400100 0.943880 0.005644
0.269890 0.997800 0.005664
0.393280 1.036400 0.012022
0.507650 1.004500 0.005606
0.520270 1.044100 0.002786
0.423010 1.111100 0.005604
0.543940 1.145200 0.024562
0.370940 1.026600 0.012030
0.438560 1.045700 0.005614
0.515180 0.969040 0.012257
0.238290 1.042400 0.012039
0.238280 1.084400 0.012115
0.328900 1.175700 0.003251
0.298740 1.136500 0.012020
0.455110 0.832130 0.036182
0.496810 1.083600 0.005593
0.473000 0.944270 0.011998
0.353140 0.831160 0.024351
0.354890 1.213700 0.009244
0.406630 1.024400 0.005626
0.410130 1.236800 0.021241
0.449940 0.851090 0.020215
0.301680 0.862840 0.015860
0.178880 1.098100 0.024241
0.489580 0.983440 0.005615
0.380580 1.176500 0.005601
0.261890 0.897110 0.017896
0.256800 1.150300 0.013425
0.361140 1.099800 0.012017
0.237680 1.032200 0.005380
0.519800 0.892430 0.021282
0.329950 0.955830 0.012054
0.525790 1.036300 0.000102
0.409990 1.051600 0.005620
0.463010 0.984110 0.005621
0.371740 1.055800 0.012024
0.406730 0.828120 0.026168
0.339460 1.233300 0.019499
0.534870 0.957300 0.015549
0.176630 1.079600 0.029197
0.394030 0.822570 0.028609
0.407080 0.967410 0.012033
0.429710 0.930800 0.012036
0.504110 0.871920 0.029947
0.512310 1.178500 0.017474
0.312740 0.915270 0.012042
0.426070 1.102800 0.012001
0.343240 1.008700 0.005644
0.297990 1.135100 0.005629
0.381950 1.098500 0.005617
0.179320 0.955540 0.028417
0.410930 1.088200 0.005612
0.233970 1.116400 0.007118
0.553130 1.109200 0.014715
0.379400 0.996460 0.012034
0.440780 0.974040 0.005629
0.323890 1.041200 0.005642
0.281130 1.165300 0.012774
0.192630 1.132700 0.030573
0.162180 0.979460 0.036265
0.336360 1.135200 0.012016
0.594670 1.045500 0.028893
0.325870 1.026500 0.012040
0.329470 0.932100 0.005664
0.246320 1.065300 0.005656
0.488990 1.097700 0.005592
0.361150 1.073400 0.012022
0.458020 1.095500 0.011995
0.537920 0.927340 0.022321
0.397950 0.833880 0.028341
0.483590 1.069100 0.005599
0.244040 0.886680 0.021494
0.544690 0.960790 0.012010
0.279310 1.105500 0.012035
0.265040 0.917450 0.013352
0.383860 0.873350 0.007132
0.196210 1.080200 0.014014
0.508010 0.930540 0.013769
0.224140 1.053200 0.012382
0.574420 1.054500 0.024220
0.462050 1.030300 0.012007
0.389130 0.979880 0.012035
0.372740 0.904020 0.012030
0.412100 0.855320 0.012645
0.192360 0.918910 0.031371
0.254560 0.984830 0.012042
0.342830 0.823180 0.035156
0.504360 1.167200 0.017022
0.369020 1.147000 0.012005
0.385300 1.129100 0.012005
0.356870 1.250900 0.028004
0.249670 0.952570 0.007148
0.337070 1.178500 0.000296
0.463680 1.119400 0.011989
0.485110 0.985360 0.012011
0.288470 0.914180 0.007146
0.247490 1.014700 0.005666
0.401250 1.121900 0.005607
0.227240 0.971900 0.007149
0.368620 0.972600 0.005646
0.562430 1.023800 0.012147
0.214760 1.009800 0.013403
0.483800 1.048700 0.005603
0.314500 1.166700 -0.000315
0.285160 1.172700 0.013211
0.409240 0.841170 0.025023
0.468570 0.958320 0.005625
0.419320 1.099500 0.005608
0.517950 1.160500 0.018616
0.392300 1.192800 0.007064
0.401230 0.956960 0.012037
0.438790 1.128900 0.011993
0.374100 1.120900 0.005614
0.416450 1.229900 0.023920
0.463540 1.136800 0.005590
0.440010 1.051300 0.012008
0.356210 1.115800 0.005619
0.245540 0.924150 0.015064
0.567670 1.141800 0.028250
0.377600 1.031100 0.012027
0.483740 1.008300 0.005611
0.282370 1.014500 0.005658
0.479600 1.154200 0.007052
0.557400 1.013500 0.010644
0.398370 0.994410 0.005634
0.270640 1.137300 0.000153
0.279370 1.042000 0.012048
0.262690 1.199100 0.025315
0.248040 1.044900 0.005660
0.370700 0.875840 0.012825
0.256750 0.906540 0.016528
0.308900 1.163500 -0.000313
0.498560 0.931600 0.007093
0.362650 1.092300 0.012018
0.383550 1.260100 0.031782
0.258160 1.129500 0.007109
0.465790 0.894350 0.013690
0.200290 0.900640 0.034051
0.478420 1.133800 0.005587
0.227640 0.874280 0.036808
0.474800 1.114700 0.005591
0.432960 1.062900 0.005612
0.176790 0.964860 0.028030
0.348560 1.194800 0.012632
0.205180 1.125500 0.017606
0.502760 1.115800 0.000213
0.511440 0.955650 0.007085
0.545020 0.887450 0.033423
0.444410 1.234800 0.029269
0.195370 1.100200 0.022127
0.540500 1.129600 0.013285
0.443290 1.167800 0.012026
0.315710 0.928320 0.005668
0.375190 0.854860 0.017635
0.231860 1.128100 0.014470
0.313350 1.131300 0.005626
0.177180 0.946410 0.036748
0.427650 1.073900 0.005611
0.313940 0.883420 0.013619
0.518700 0.924150 0.010635
0.343390 0.955370 0.012051
0.513200 1.017600 0.005602
0.424560 1.196100 0.013186
0.568030 1.148800 0.036153
0.409040 1.140200 0.011997
0.263790 1.116700 0.012013
0.517220 0.912740 0.019497
0.335280 0.870740 0.007155
0.346410 1.013600 0.012038
0.355500 1.185200 0.012112
0.459250 1.161500 0.002586
0.290050 0.919940 0.000316
0.395310 1.055300 0.012018
0.316580 1.020300 0.005648
0.349480 1.140100 0.005616
0.507870 0.962600 0.012122
0.330020 1.134400 0.005622
0.412390 0.991510 0.012027
0.433430 1.189700 0.012791
0.303570 1.028700 0.012045
0.574630 1.140600 0.030997
0.283240 1.151800 0.006244
0.276160 0.975860 0.012063
0.248500 0.966010 0.012154
0.484990 1.126700 0.011958
0.547880 1.045900 0.007058
0.331190 1.123500 0.012019
0.593730 1.057800 0.034496
0.371990 1.094000 0.005620
0.177180 0.976010 0.031427
0.263700 0.976210 0.012052
0.556820 1.092100 0.013618
0.548510 1.090000 0.009406
0.346660 0.996370 0.005646
0.306940 1.137700 0.012022
0.437790 1.092400 0.012000
0.474050 0.905060 0.013078
0.330770 0.910330 0.012039
0.451330 1.179000 0.007053
0.329130 1.046100 0.005640
0.409940 0.818400 0.031522
0.471300 1.103300 0.011990
0.399310 0.828370 0.031318
0.363840 0.999810 0.012037
0.176000 1.000900 0.028463
0.269770 0.857490 0.025310
0.504850 1.061900 0.005595
0.334230 0.915320 0.005666
0.430970 1.143900 0.005596
0.507010 1.120000 0.012220
0.320760 0.866150 0.016812
0.557650 0.964990 0.016888
0.302390 0.859780 0.022567
0.260450 0.989330 0.012057
0.436230 0.878740 0.007119
0.502650 0.884330 0.024202
0.251650 0.962830 0.000194
0.433190 0.936600 0.005638
0.239300 0.935010 0.007262
0.530520 1.002900 0.012398
0.445420 0.941650 0.012030
0.336190 1.246500 0.026482
0.506190 0.945020 0.012501
0.323620 0.940280 0.012059
0.429800 1.149700 0.011990
0.347850 0.821090 0.030170
0.380880 0.958050 0.012042
0.306840 0.904810 0.007144
0.464820 0.903770 0.012659
0.158690 1.026700 0.036637
0.466580 1.145100 0.005587
0.359670 1.077900 0.005626
0.533920 0.940520 0.017680
0.479490 1.199900 0.021015
0.337820 0.937530 0.005660
0.373470 1.209000 0.014436
0.326870 1.218300 0.014307
0.424570 0.850730 0.021746
0.597640 1.083700 0.032086
0.431440 0.852570 0.022002
0.464570 1.041700 0.012004
0.400100 0.928480 0.005648
0.557560 0.963320 0.022701
0.216180 0.888500 0.030378
0.274610 1.229800 0.029542
0.235870 1.074600 0.004516
0.385730 0.909370 0.012040
0.331710 1.061000 0.012032
0.458180 1.163800 0.012079
0.233200 1.135300 0.007587
0.433650 0.854070 0.016146
0.543420 0.970750 0.016104
0.286130 0.943040 0.012045
0.425450 1.187200 0.012386
0.557570 0.989950 0.018715
0.413090 0.910460 0.012023
0.298930 1.192200 0.014723
0.495340 0.854790 0.034876
0.421210 0.990170 0.012025
0.272490 0.961230 0.012049
0.557250 1.027700 0.009277
0.251900 0.936480 0.007150
0.323240 0.992030 0.012048
0.538300 1.155200 0.019555
0.207320 0.994720 0.015593
0.368140 1.035200 0.005633
0.535800 1.065600 0.012603
0.480940 0.932070 -0.000306
0.394770 0.952860 0.012039
0.552340 0.966340 0.014238
0.524720 1.114600 0.013150
0.302980 0.845050 0.029243
0.432620 1.011300 0.012018
0.301010 0.854540 0.025220
0.360800 1.071800 0.005627
0.210750 0.960710 0.018387
0.238540 1.061200 -0.000158
0.168200 1.066200 0.032328
0.302750 0.962880 0.005663
0.214810 1.177900 0.028658
0.241150 1.067100 0.012041
0.512430 0.922140 0.008926
0.374390 1.171600 0.005604
0.277500 1.217600 0.028896
0.311090 1.003900 0.012049
0.538660 0.999830 0.007069
0.344360 0.938960 0.012054
0.573080 1.015700 0.023547
0.273100 1.031600 0.005656
0.200670 1.134100 0.021498
0.560710 1.135900 0.023446
0.472100 0.913880 0.007103
0.474780 0.891410 0.015360
0.336820 0.954470 0.012053
0.450140 1.035600 0.005614
0.195270 1.052800 0.018060
0.368780 1.230000 0.022243
0.507030 1.184700 0.018091
0.363940 0.931250 0.012051
0.368470 1.009100 0.005638
0.237010 1.035800 0.012054
0.489800 0.858280 0.026050
0.569980 1.009000 0.022653
0.368980 0.899190 0.005661
0.455500 1.026900 0.012010
0.409870 1.164500 0.011974
0.337190 1.213300 0.016752
0.558670 1.095000 0.020549
0.549320 1.086800 0.016055
0.548290 1.093200 0.016442
0.466330 1.196600 0.011199
0.421680 1.185800 0.007059
0.385570 1.138300 0.012003
0.458350 1.208300 0.014708
0.335870 1.028200 0.012038
0.365480 1.044500 0.012027
0.182010 1.105000 0.023740
0.566010 1.137700 0.031864
0.543940 1.153300 0.026913
0.597550 1.029800 0.035380
0.568820 0.924530 0.031233
0.522760 1.179100 0.026605
0.329540 0.976160 0.005654
0.536270 0.949460 0.010672
0.376760 1.120600 0.012009
0.470630 0.864810 0.017717
0.336280 0.951790 0.005658
0.532510 1.162200 0.019138
0.511710 0.999000 0.011978
0.580090 1.025000 0.020638
0.555430 1.148200 0.030378
0.200800 1.143800 0.023615
0.287650 0.928630 0.004237
0.192350 1.036500 0.013348
0.310530 1.206900 0.011664
0.204550 1.165800 0.028645
0.423660 1.089000 0.005609
0.302890 1.229000 0.028962
0.322520 1.191000 0.007081
0.395010 1.158100 0.011997
0.332880 1.228100 0.017867
0.365120 0.962640 0.005649
0.385620 1.155600 0.005604
0.404260 1.164600 0.011978
0.186320 0.936750 0.034206
0.314390 1.215100 0.020484
0.379890 0.986760 0.012036
0.319230 0.838500 0.023819
0.174080 1.130100 0.033950
0.493250 0.893090 0.012509
0.256090 1.133500 0.012412
0.429820 0.981320 0.005630
0.388590 1.046200 0.012022
0.500460 1.154300 0.013747
0.533500 0.885480 0.034779
0.462530 0.972480 0.005624
0.193730 1.029500 0.012937
0.270770 0.882130 0.014564
0.512850 1.119800 0.007051
0.471170 1.022600 0.012007
0.547460 1.168600 0.033052
0.447630 0.903150 0.012173
0.520200 1.014500 0.012009
0.376120 0.842240 0.023216
0.506370 0.978650 0.005323
0.358870 1.238500 0.021387
0.490650 0.887870 0.019641
0.316700 1.035900 0.012041
0.375340 0.898200 0.005660
0.411770 1.173100 0.011972
0.400580 1.043300 0.005624
0.173920 1.052800 0.028029
0.451480 1.020100 0.005616
0.427160 1.087300 0.012004
0.246840 0.953170 0.012502
0.521850 1.204100 0.030864
0.513040 0.857730 0.034748
0.509450 1.128700 0.007050
0.354210 1.194300 0.007073
0.522610 1.130300 0.014408
0.423800 0.901170 0.012056
0.510430 1.064700 0.011965
0.557590 1.022500 0.016512
0.224780 1.132300 0.010316
0.462270 1.113100 0.011990
0.536910 1.190200 0.030437
0.199970 1.018200 0.010301
0.587390 0.962670 0.036790
0.385150 1.105500 0.012010
0.418710 1.079000 0.005612
0.467070 1.216900 0.025927
0.558810 0.909770 0.031032
0.382420 0.990390 0.005639
0.416080 1.180800 0.005833
0.329520 0.971670 0.012051
0.239640 1.099500 0.012262
0.298120 1.153200 0.012014
0.349910 1.245500 0.025366
0.209010 0.928260 0.021261
0.233210 1.142100 0.009748
0.201520 0.974760 0.020076
0.268600 1.070500 0.005649
0.347060 0.967980 0.012047
0.316620 0.929870 0.012063
0.206610 1.158800 0.030947
0.214460 0.989050 0.014367
0.492860 0.899060 0.016559
0.426120 0.890360 0.007119
0.337310 1.240500 0.028866
0.154360 1.045900 0.032559
0.231210 0.927900 0.018276
0.468690 1.054200 0.012001
0.320230 0.830970 0.033258
0.494870 1.043800 0.011997
0.522000 1.198600 0.028658
0.419000 0.875660 0.007123
0.385390 1.209300 0.014276
0.577690 0.947870 0.035718
0.474460 0.937950 0.011999
0.231620 1.096800 0.007122
0.389590 1.241100 0.021496
0.560580 1.012700 0.018241
0.294230 0.879630 0.016568
0.253050 1.011500 0.005665
0.401660 0.901670 0.012024
0.278400 0.928740 0.012157
0.376330 0.979110 0.005643
0.370940 0.885800 0.012223
0.223370 1.110300 0.007121
0.290570 1.067200 0.012040
0.405810 1.173100 0.011967
0.483890 1.166200 0.007048
0.273650 1.179900 0.015860
0.421100 1.178200 0.012041
0.470340 1.085900 0.005598
0.589150 0.980640 0.029637
0.586750 0.960440 0.031599
0.460860 0.910930 0.007106
0.580340 0.989000 0.024192
0.167620 1.101100 0.030469
0.222510 0.922470 0.017341
0.503930 0.960680 -0.000317
0.291240 0.890150 0.007151
0.520330 0.936980 0.014859
0.447000 1.224600 0.025049
0.524000 0.896170 0.021671
0.344550 0.834210 0.029169
0.224170 1.021200 0.012421
0.312870 1.057800 0.005641
0.308320 0.974940 0.005660
0.454690 1.018200 0.012012
0.466160 1.096500 0.011993
0.301570 0.875610 0.010185
0.275680 1.136400 0.012034
0.401120 1.246400 0.030942
0.424900 0.954140 0.005636
0.342730 0.984560 0.012045
0.506140 1.138100 0.007049
0.207610 1.065300 0.007314
0.428030 0.989950 0.012024
0.352020 1.148600 0.005613
0.552310 0.920630 0.030170
0.458150 1.235700 0.032891
0.181470 0.953240 0.033329
0.240660 1.133400 0.007112
0.339460 1.086800 0.005629
0.247280 0.890600 0.024430
0.293360 0.832900 0.031771
0.348450 1.226100 0.015643
0.409740 1.150500 0.005600
0.414930 0.828250 0.032033
0.325060 0.956550 0.005660
0.505640 0.889040 0.017620
0.285070 0.967060 0.012062
0.286730 1.076200 0.005644
0.398930 0.853740 0.018782
0.531420 0.986990 0.012691
0.527930 0.995230 0.012328
0.280170 1.117800 0.012027
0.324290 1.255900 0.033228
0.186550 1.042200 0.021538
0.505930 1.216800 0.036068
0.288340 1.138800 0.005631
0.405350 0.951550 0.012037
0.203750 1.027300 0.008084
0.241690 0.996810 -0.000263
0.507520 0.955130 0.012227
0.301490 1.114800 0.005633
0.288610 0.963500 0.005667
0.345050 0.978710 0.012046
0.208390 1.059100 0.014446
0.344350 1.115900 0.005622
0.403200 0.976120 0.005637
0.348110 0.918590 0.005662
0.532890 1.051200 0.012338
0.584370 1.054000 0.029341
0.237490 0.901670 0.017922
0.565510 1.060100 0.014550
0.194400 0.953140 0.026863
0.409550 1.104000 0.012005
0.426500 1.230600 0.019664
0.356710 1.088500 0.005625
0.460740 1.149400 0.005588
0.468420 0.934710 0.012001
0.477220 0.934640 0.003138
0.388780 1.225300 0.013703
0.187470 1.055500 0.021586
0.327660 1.106600 0.012024
0.345070 0.864080 0.008881
0.218750 0.965800 0.015271
0.182290 1.056200 0.018620
0.423520 1.061500 0.005615
0.511780 0.868760 0.033673
0.589470 1.099100 0.036270
0.296640 1.149300 0.005627
0.240400 1.181000 0.019509
0.507280 1.098200 0.011982
0.236660 1.024700 0.012066
0.296370 0.942570 0.012064
0.471780 0.979330 0.005620
0.290310 1.047000 0.012045
0.157000 1.049000 0.036602
0.460410 1.141800 0.005589
0.365090 1.040900 0.005633
0.518730 0.998530 0.012033
0.485600 1.131200 0.004788
0.243590 1.045600 0.012032
0.212510 0.915400 0.029113
0.399190 1.097800 0.012008
0.517530 0.963850 0.007082
0.316430 1.140500 0.005624
0.510870 0.973390 0.004819
0.394470 1.225800 0.014467
0.236280 1.091000 0.012240
0.350120 1.158600 0.005612
0.489530 1.106100 0.005590
0.545680 0.995080 0.007099
0.552790 1.030700 0.007294
0.254390 0.915170 0.007486
0.345560 0.951320 0.005656
0.464970 1.178700 0.013219
0.384550 0.839170 0.019551
0.534120 1.034200 0.012335
0.345860 1.061400 0.012029
0.315100 1.022200 0.012044
0.578220 0.937610 0.036153
0.439990 1.062800 0.012006
0.334390 0.944210 0.005660
0.444300 1.135300 0.005594
0.321510 0.995320 0.005652
0.433820 0.989270 0.012023
0.471250 0.985740 0.005619
0.224480 1.110900 0.014300
0.180020 1.074400 0.021410
0.380950 1.040000 0.005629
0.215130 1.086900 0.007128
0.258720 0.953370 -0.000258
0.432830 1.022500 0.012016
0.248890 1.078600 0.005652
0.375080 1.243000 0.023021
0.491920 0.984650 0.012010
0.284210 0.836170 0.036747
0.528300 1.016400 0.012179
0.404950 1.009500 0.005630
0.237350 1.158700 0.013501
0.367890 1.185500 0.006376
0.368620 1.254300 0.034877
0.399440 0.905830 0.005652
0.302030 0.988950 0.012054
0.490680 1.155200 0.007049
0.562430 1.118400 0.020563
0.296660 1.028900 0.012047
0.194030 1.002700 0.013827
0.313890 1.059100 0.012037
0.406030 0.892160 0.004661
0.321060 0.962580 0.012055
0.555420 1.061300 0.016309
0.405180 1.107100 0.005610
0.411560 0.924510 0.012041
0.404560 1.208500 0.007195
0.294290 1.099600 0.012033
0.373860 0.940340 0.005651
0.247440 1.038800 0.012039
0.535710 0.924290 0.016975
0.213590 1.056700 0.013427
0.156540 1.015400 0.036435
0.454630 0.879140 0.015292
0.416580 1.153500 0.011993
0.519470 1.019900 0.003841
0.472990 0.983430 0.012014
0.347260 1.019700 0.012037
0.191620 0.946950 0.029331
0.511950 1.102300 0.005439
0.379630 0.902830 0.012029
0.354590 1.039800 0.005635
0.567900 0.987220 0.018118
0.430700 1.248100 0.029110
0.411800 1.061800 0.012013
0.282980 1.211100 0.024495
0.454850 0.972920 0.005625
0.248410 1.064100 0.012027
0.371870 0.915380 0.012052
0.169230 1.027800 0.025342
0.342400 0.913560 0.005664
0.186440 1.109000 0.028126
0.230770 0.921350 0.014286
0.546090 0.984250 0.007797
0.184170 1.059700 0.023509
0.416480 1.029900 0.005623
0.325530 1.135300 0.012018
0.453480 0.844000 0.029869
0.244520 1.187300 0.020065
0.386160 1.091300 0.012013
0.403390 1.056000 0.005620
0.312680 1.136300 0.012021
0.201480 1.160500 0.033644
0.423560 1.042800 0.012014
0.353100 1.179700 -0.000327
0.296070 1.096900 0.005637
0.239260 0.955810 0.012882
0.383950 1.198400 0.007065
0.324860 1.056500 0.005639
0.262440 1.020400 0.005661
0.270690 0.989800 0.005666
0.304970 0.893520 0.012936
0.549750 1.099800 0.011589
0.226690 1.092400 0.012822
0.302490 0.849200 0.021830
0.446270 1.055900 0.012006
0.483780 0.895920 0.015751
0.368020 1.138500 0.012007
0.528500 0.937400 0.016613
0.303900 1.038500 0.005648
0.427990 1.027400 0.012016
0.551880 0.995920 0.016263
0.289920 1.225100 0.023694
0.444800 1.126400 0.011992
0.504370 0.860900 0.034914
0.209620 1.026200 0.007142
0.202600 0.966930 0.020785
0.276610 1.021300 0.005658
0.196130 0.974240 0.016999
0.592300 1.029400 0.026957
0.250850 1.147000 0.007107
0.189530 0.980540 0.019036
0.377520 1.137500 0.012005
0.379740 1.004200 0.005637
0.284910 0.891630 0.014641
0.297630 1.207400 0.019746
0.498530 0.960040 0.004258
0.498880 0.899840 0.011330
0.464890 0.953440 0.012023
0.368660 1.083700 0.005623
0.317020 1.029400 0.012042
0.444670 1.190300 0.013453
0.307930 0.827870 0.036423
0.493470 1.001600 0.012006
0.193410 1.023400 0.013334
0.414640 0.933270 0.005643
0.438060 0.851040 0.018281
0.482120 1.171200 0.013921
0.493760 0.951060 0.012031
0.483670 1.076900 0.005597
0.178640 1.023200 0.020637
0.296800 1.235100 0.033097
0.239570 1.066800 0.001776
0.402420 0.837400 0.021141
0.533260 1.017200 0.007067
0.341080 1.027100 0.005641
0.348050 0.963590 0.005653
0.420230 1.078200 0.012007
0.577640 1.022200 0.025199
0.267670 1.137600 0.012148
0.310200 1.242900 0.034640
0.457790 1.201300 0.011475
0.456410 1.080900 0.005603
0.546250 1.112900 0.012112
0.479570 1.083800 0.011992
0.211370 1.046400 0.007137
0.549590 0.925800 0.021760
0.260650 0.873230 0.021199
0.512700 0.946980 0.012805
0.231250 1.048900 0.012126
0.368510 0.866400 0.007137
0.419740 0.834150 0.029089
0.422500 1.175000 -0.000342
0.208540 1.140600 0.024838
0.405370 1.068600 0.005617
0.450570 0.971300 0.012022
0.357680 0.984140 0.012042
0.187460 1.128900 0.026597
0.167060 0.970620 0.031944
0.340950 0.825270 0.028635
0.184260 0.944700 0.027856
0.497120 1.026400 0.005604
0.414990 0.997360 0.012025
0.201930 1.011900 0.009575
0.384240 0.991850 0.012034
0.395050 1.089400 0.012011
0.398300 1.212300 0.015467
0.254940 1.003000 0.005666
0.377920 1.010500 0.012031
0.427320 1.002300 0.012021
0.371310 1.185500 0.012090
0.253830 0.870530 0.024583
0.494770 1.206500 0.022443
0.368780 1.065700 0.012022
0.212700 1.001500 0.007146
0.518510 1.050900 0.011981
0.224390 1.185800 0.027497
0.336580 1.140000 0.005619
0.456460 0.999850 0.012015
0.356200 1.024900 0.012034
0.239920 1.123500 0.007115
0.449670 0.994500 0.012018
0.582630 0.993080 0.030565
0.525360 1.037900 0.012052
0.481750 0.931230 0.005608
0.406470 1.124400 0.012001
0.588020 0.967990 0.030460
0.515150 1.201400 0.027383
0.312660 1.232200 0.028797
0.386350 1.203600 0.007064
0.515990 0.881820 0.023611
0.423120 0.833820 0.024031
0.334760 0.944320 0.012055
0.188190 0.969280 0.027109
0.269760 1.018000 0.005660
0.262230 1.151900 0.013003
0.595690 1.080700 0.036510
0.419940 1.097400 0.012004
0.230380 1.156700 0.015483
0.362950 0.977250 0.005646
0.248710 0.912920 0.010085
0.453320 1.091500 0.005601
0.435530 0.825050 0.036270
0.344690 0.907240 0.012036
0.339030 1.255500 0.031186
0.457870 0.919420 0.012034
0.384720 0.879790 0.007131
0.349010 0.995640 0.012041
0.431790 0.843290 0.020892
0.364630 1.029600 0.012031
0.332760 1.171800 0.000081
0.301360 1.120300 0.012027
0.590850 1.012000 0.027446
0.522530 1.156300 0.019221
0.256810 1.123500 0.006407
0.337030 0.931220 0.012057
0.225330 0.902090 0.021962
0.311550 0.951520 0.012059
0.229050 1.138300 0.010093
0.393320 1.123700 0.012004
0.506980 1.089000 0.005589
0.393720 0.934250 0.005648
0.397820 1.256400 0.030281
0.572100 1.023200 0.022396
0.385350 1.191200 0.007066
0.507920 0.899470 0.014519
0.460210 0.840390 0.027302
0.571710 0.956720 0.025172
0.304210 1.169600 0.012193
0.179920 1.127400 0.029914
0.308190 1.101700 0.005634
0.427640 1.209900 0.016390
0.411480 1.027600 0.012020
0.342500 1.191400 0.012483
0.426010 1.224500 0.022208
0.168570 0.963430 0.032468
0.239340 1.102200 0.007119
0.381790 1.025800 0.012027
0.194440 0.925840 0.033927
0.387980 1.172900 0.005600
0.579380 1.129900 0.036653
0.166190 1.096700 0.036389
0.233770 1.047400 -0.000271
0.240550 1.191900 0.028743
0.233900 1.123500 0.007116
0.409590 1.237600 0.027149
0.368980 1.193600 0.012430
0.406940 0.841470 0.019274
0.396670 1.081900 0.005617
0.468030 1.063900 0.005604
0.500780 0.852920 0.036850
0.407840 1.203000 0.007059
0.403840 1.056900 0.012016
0.419050 0.972810 0.005634
0.368660 1.050800 0.012025
0.424100 0.926480 0.012038
0.518910 1.151600 0.010664
0.345810 0.927270 0.012056
0.231350 0.936780 0.009729
0.484230 1.117600 0.011960
0.225350 1.119600 0.014984
0.257410 0.992570 0.005668
0.363350 0.968320 0.012044
0.563000 0.944810 0.023738
0.513080 1.097900 0.012054
0.359700 1.136100 0.005614
0.191260 1.114700 0.027113
0.341120 1.219000 0.018352
0.170750 0.989070 0.032343
0.461950 0.940690 0.012020
0.504440 1.082800 0.005591
0.256000 1.019300 0.005663
0.498480 1.175100 0.011761
0.381120 1.158900 0.012000
0.312330 1.001800 0.005653
0.265910 1.200900 0.019627
0.410370 0.833400 0.029103
0.280960 1.118000 0.005637
0.509340 1.190300 0.020973
0.516880 0.890930 0.026181
0.336360 1.149600 0.005617
0.511800 1.086000 0.003324
0.449630 1.198700 0.008553
0.207030 1.013000 0.007271
0.436930 0.963540 0.012027
0.331380 0.949840 0.012055
0.483120 1.038400 0.005605
0.239090 1.132500 0.013733
0.315800 0.834300 0.026346
0.225550 0.945060 0.016445
0.281360 0.967710 0.005668
0.384080 1.244900 0.023675
0.297610 0.854760 0.020331
0.351660 1.011400 0.012037
0.322810 1.186100 0.012590
0.328600 0.829720 0.033093
0.534850 1.131900 0.017752
0.446460 0.912880 0.012031
0.486750 1.124300 0.005587
0.365330 1.214800 0.016169
0.309420 0.857870 0.016426
0.219620 1.165700 0.022507
0.469300 0.848020 0.025076
0.492670 1.038700 0.011998
0.264630 1.226100 0.030979
0.486660 1.094600 0.011988
0.473160 1.048200 0.012001
0.228090 1.102400 0.013150
0.343490 1.252400 0.034919
0.323730 1.241900 0.026124
0.336370 1.070800 0.005633
0.421560 0.869780 0.014743
0.476620 0.879920 0.013232
0.540240 0.960670 0.016609
0.370960 0.842510 0.017388
0.376420 0.941880 0.012046
0.299490 0.907470 0.007145
0.483910 0.854910 0.025753
0.486760 0.945470 0.012021
0.501530 0.917760 0.014447
0.204510 1.003500 0.008629
0.279530 1.147600 -0.000303
0.468270 1.054100 0.005606
0.263370 1.207600 0.028775
0.526710 1.134900 0.009158
0.555620 1.116800 0.022622
0.435840 0.929990 0.012034
0.317850 1.238300 0.025342
0.444800 0.964630 0.012025
0.488130 1.146200 0.007051
0.478390 1.193800 0.018422
0.478380 0.956730 0.005623
0.491880 1.067400 0.011993
0.367680 0.921320 0.012052
0.440730 0.830000 0.029085
0.469630 1.013400 0.005613
0.466580 1.207000 0.015892
0.463270 1.202400 0.013110
0.215490 1.037900 0.007138
0.342110 1.104300 0.012021
0.437290 1.028400 0.012014
0.189220 1.138600 0.033578
0.505900 0.988340 0.011982
0.332350 0.844370 0.025125
0.313680 0.871090 0.016336
0.282610 1.204500 0.016405
0.347670 0.866590 0.015033
0.351490 1.005000 0.005643
0.435880 1.124500 0.005599
0.516010 1.033400 0.005598
0.443200 1.248900 0.030798
0.505390 1.098800 0.005553
0.497510 1.060400 0.011993
0.295760 1.184900 0.013834
0.545160 1.106900 0.010619
0.268640 1.175600 0.015650
0.236740 0.922450 0.011540
0.288470 1.153900 0.004019
0.403150 0.860910 0.016280
0.382970 1.117000 0.005613
0.266230 0.919920 0.007150
0.395400 1.147900 0.011999
0.184880 1.024500 0.022995
0.283310 1.070900 0.005646
0.544710 0.967460 0.010596
0.467350 0.840760 0.028388
0.550340 1.122200 0.015543
0.455100 1.139900 0.005591
0.254960 0.925060 0.007152
0.180660 1.101300 0.029198
0.327860 0.850080 0.022743
0.181690 1.136100 0.031066
0.250220 1.154600 0.007434
0.532520 1.184500 0.026550
0.351610 1.054800 0.012029
0.265880 1.221500 0.034150
0.217170 1.082900 0.013608
0.269420 1.036600 0.005656
0.477030 0.846430 0.033009
0.383860 1.016000 0.012029
0.241200 1.056000 0.005659
0.520710 1.006900 0.012039
0.353470 1.227800 0.021773
0.357690 0.891350 0.012141
0.412670 0.834030 0.023292
0.456750 1.134100 0.005592
0.348570 0.868960 0.007141
0.178500 0.998360 0.021706
0.334780 1.118400 0.012019
0.476130 1.141100 -0.000348
0.428000 1.181900 0.012188
0.421010 0.924030 0.005643
0.337360 0.978320 0.005652
0.167370 1.107000 0.031295
0.357870 1.001400 0.012038
0.191810 0.928310 0.028744
0.296980 0.837830 0.028525
0.321210 1.069100 0.012033
0.511640 1.060800 0.005594
0.283930 0.999850 0.005660
0.460380 0.857800 0.024296
0.376030 1.235700 0.024788
0.568250 1.072800 0.021903
0.405010 0.857050 0.011521
0.409100 1.146600 0.011996
0.278610 0.923070 0.012283
0.556330 1.158000 0.033752
0.232030 1.095300 0.012527
0.295540 0.962750 0.012061
0.309290 0.979390 0.012054
0.449060 0.907770 0.004264
0.286630 1.152800 0.012096
0.178590 1.019800 0.026341
0.522460 1.044100 0.012007
0.473590 1.085400 0.011993
0.199870 1.087800 0.012917
0.265230 0.927820 0.012547
0.261110 1.113000 0.005642
0.307510 0.966980 0.012057
0.401380 1.001500 0.012028
0.421300 1.055300 0.005616
0.374010 0.953820 0.005648
0.558670 1.170700 0.033212
0.525280 1.153100 0.013680
0.531000 0.893790 0.030849
0.540710 0.911660 0.023023
0.425360 0.950640 0.012033
0.554730 1.085700 0.011590
0.549220 1.001500 0.007754
0.531460 1.083600 0.012656
0.413190 0.923390 0.005645
0.286100 1.086600 0.005642
0.522480 0.883730 0.025305
0.469640 1.181700 0.013997
0.387330 1.007500 0.005634
0.500320 1.147700 0.012978
0.372370 0.929060 0.005654
0.222740 1.048400 0.007134
0.351160 1.213700 0.016159
0.266300 1.123300 0.012028
0.358990 1.230500 0.022885
0.310770 0.998080 0.012050
0.295300 1.125200 0.012027
0.588870 1.044000 0.025728
0.257990 0.867880 0.029789
0.575200 1.101900 0.029538
0.222800 0.900970 0.028944
0.540030 1.096400 0.014548
0.323300 0.962440 0.005659
0.353870 0.852160 0.019619
0.452660 0.980080 0.012020
0.399460 0.964870 0.005640
0.528750 1.151700 0.020322
0.410140 1.213800 0.010037
0.290300 0.919580 0.012140
0.463890 1.143500 0.011960
0.497480 1.223900 0.030659
0.186260 0.925630 0.032033
0.380400 1.125300 0.012007
0.506940 0.889020 0.023490
0.355540 1.144500 0.012009
0.382180 0.984530 0.005640
0.213210 1.061100 0.007134
