ply
format ascii 1.0
element vertex 1760
property float x
property float y
property float z
end_header
1.168150 0.109129 0.302902
-0.187500 1.536750 0.127727
-0.101580 1.898360 0.625000
1.470830 2.170760 0.178282
1.028360 3.473420 0.188710
1.123360 1.031730 0.625000
0.097632 1.812440 0.125000
1.062500 0.756065 0.175352
-0.176330 2.589670 0.125000
0.141239 3.490680 0.625000
0.152572 2.813340 0.506097
0.187500 1.148590 0.210153
1.079130 2.408800 0.543593
-0.225178 2.932160 0.622124
0.172655 3.244080 0.219961
1.362520 3.965680 0.486474
1.268290 0.834137 0.125000
1.094500 3.310310 0.625000
0.517289 5.174860 0.182511
0.187500 1.626520 0.127609
0.656858 5.377130 0.456247
1.351750 3.383790 0.125000
0.429612 4.864030 0.616488
0.950302 4.107050 0.415356
-0.101100 0.425003 0.625000
1.134940 3.216170 0.125000
0.209515 3.645480 0.511037
0.127278 1.228810 0.125000
-0.187500 1.279910 0.411630
1.027830 5.486610 0.334944
1.450390 3.132780 0.625000
0.187500 0.859256 0.507938
0.158011 2.977960 0.332332
-0.147968 3.746670 0.400778
0.154470 2.291500 0.375480
0.155578 0.207438 0.605564
-0.105474 4.001650 0.214560
1.062500 0.454293 0.570412
1.420820 0.699863 0.625000
0.951387 4.100040 0.572319
-0.192645 3.379730 0.609649
1.062500 1.309830 0.624565
1.069660 2.867270 0.310400
-0.006430 4.353380 0.625000
0.109547 3.237030 0.125000
1.309430 3.340770 0.625000
-0.134175 3.829430 0.387170
0.333050 4.670950 0.625000
-0.001665 2.635630 0.625000
1.010360 5.128750 0.327779
0.262000 4.751750 0.625000
-0.020916 0.567488 0.625000
0.923131 4.282650 0.409764
1.237860 3.983120 0.125000
1.479260 2.339810 0.210789
0.933351 4.216600 0.276740
0.077057 3.170740 0.625000
0.815618 4.874860 0.125000
0.235937 3.856060 0.575564
0.187500 1.510680 0.564121
1.039980 3.335320 0.477578
-0.232273 2.556780 0.472355
1.437500 1.540840 0.173281
-0.097263 1.026330 0.625000
0.834416 5.109460 0.625000
1.348740 0.135076 0.625000
-0.148281 3.744790 0.523239
0.155086 5.027820 0.341648
-0.198658 3.278440 0.125000
0.997733 3.761350 0.625000
1.015730 3.593800 0.566128
1.479820 2.371320 0.328596
0.916849 4.319290 0.168654
1.033640 3.509900 0.125000
1.438770 3.383630 0.125000
1.437500 1.653320 0.126730
1.437500 1.170780 0.308786
1.062500 0.444484 0.519820
-0.228125 2.859030 0.299782
0.367870 4.601020 0.493402
1.080780 2.352480 0.125000
1.069440 2.874190 0.456884
0.386745 4.681860 0.210131
1.030360 4.208970 0.625000
1.133970 0.731496 0.125000
-0.231971 2.538820 0.263135
0.290782 4.208320 0.566704
1.087370 1.534760 0.625000
0.044236 1.910160 0.625000
1.366870 0.155821 0.427437
0.187500 0.454500 0.585675
1.357700 0.521704 0.625000
0.036101 2.002200 0.125000
-0.187500 1.072250 0.501461
-0.019769 0.359511 0.125000
1.062500 0.939470 0.415206
0.047837 1.822770 0.125000
1.040750 5.274750 0.437176
1.064630 2.965490 0.620887
-0.073128 2.044600 0.625000
0.083510 0.111347 0.608636
-0.113002 2.633130 0.125000
0.945033 5.128750 0.234173
0.810885 5.028610 0.625000
-0.116515 0.155353 0.500699
0.877314 5.128750 0.365520
0.187500 1.186430 0.257675
0.046212 0.061616 0.352153
0.417839 4.815010 0.200437
0.114964 0.697281 0.125000
-0.112280 3.960810 0.247448
-0.067661 3.967440 0.625000
1.271680 3.831550 0.125000
1.032290 3.431330 0.576550
0.048629 1.471200 0.625000
0.093287 4.832350 0.316625
1.062500 1.145620 0.135713
0.131560 0.943037 0.125000
0.987312 3.873080 0.625000
1.311230 3.931250 0.125000
0.880518 4.534920 0.125000
1.062500 0.771487 0.325809
1.119750 2.164040 0.125000
1.077900 2.600640 0.582492
-0.200741 3.292290 0.175184
-0.232406 2.564660 0.364923
0.475515 5.036670 0.407478
-0.078164 1.323480 0.125000
0.173925 1.929630 0.505525
1.062500 1.640070 0.620905
1.062500 0.478964 0.449759
0.187500 0.642500 0.175919
-0.096102 2.325640 0.125000
0.089372 4.222830 0.625000
1.337580 0.116780 0.126973
1.432040 3.321600 0.125000
0.187500 0.303504 0.306700
1.340920 0.916207 0.625000
1.218340 3.922230 0.625000
1.326020 2.301100 0.625000
1.290240 3.558150 0.125000
0.051253 3.742340 0.125000
1.437500 1.080120 0.175010
1.062500 1.398030 0.239483
1.126810 2.701410 0.625000
0.918085 4.312420 0.452316
0.435188 4.906840 0.125000
0.127511 1.962750 0.125000
-0.091520 0.479180 0.125000
-0.186271 3.448570 0.181385
-0.081421 0.702554 0.625000
0.116252 3.755990 0.125000
-0.200697 3.292780 0.391648
-0.089973 0.119964 0.297053
1.470540 2.165490 0.604646
1.419670 3.588830 0.286453
1.071430 2.809960 0.327933
1.063220 1.766820 0.467022
0.750795 5.125310 0.284102
1.062500 0.762327 0.246014
1.076760 2.153400 0.568562
1.476640 2.277890 0.195371
0.415582 4.805350 0.447190
1.448490 1.870570 0.517549
1.250620 2.090560 0.625000
1.424560 0.232748 0.152855
1.122960 2.782750 0.625000
0.015977 2.791000 0.125000
1.128640 4.923650 0.592205
1.034770 5.671460 0.161297
0.010238 3.326120 0.625000
0.098227 0.532380 0.125000
1.178630 4.756160 0.572694
1.381350 3.852940 0.182147
1.068100 0.813798 0.125000
-0.010798 4.443340 0.472177
-0.142544 1.935790 0.125000
1.342960 4.072090 0.493920
0.457626 4.970470 0.625000
1.455120 1.943390 0.204864
0.406727 4.767430 0.259290
1.476740 2.279590 0.254658
1.474910 2.245900 0.435501
1.023440 3.691090 0.625000
1.464250 2.049680 0.421798
-0.231067 2.485250 0.453465
1.349820 0.411141 0.625000
1.370570 3.837630 0.125000
0.224682 5.213360 0.125000
-0.226553 2.287290 0.410248
1.481820 2.717070 0.394104
1.078370 2.242480 0.269585
1.323500 4.167080 0.534596
0.211055 4.761500 0.125000
0.157022 2.234750 0.180923
1.200270 4.679530 0.456796
-0.071120 4.174060 0.266437
0.204982 3.678660 0.625000
1.411370 3.652920 0.513149
0.875709 4.547930 0.197553
1.274390 0.226956 0.625000
1.353540 0.815193 0.625000
-0.210322 2.003830 0.125754
-0.220077 3.023260 0.233505
1.245450 4.034570 0.625000
1.437500 1.663230 0.178802
1.062500 1.058160 0.582071
0.150393 2.677320 0.175536
1.215920 0.817377 0.125000
0.207598 3.627710 0.201374
1.437500 1.600210 0.411873
0.378916 4.648330 0.253777
1.037300 4.543460 0.625000
0.134379 4.963340 0.314715
0.967807 3.989940 0.234636
0.455362 4.960880 0.451059
1.437500 1.646800 0.392697
0.177622 5.097990 0.317721
1.461560 3.187510 0.418274
0.255207 3.994860 0.419168
-0.114979 0.282264 0.125000
0.228346 3.801390 0.428892
1.136550 0.151273 0.557149
-0.131459 1.348020 0.625000
-0.187500 1.445250 0.345587
0.751559 5.145240 0.125000
0.856204 4.646170 0.203696
1.469980 2.155240 0.388109
1.075840 0.811051 0.625000
1.058070 3.859160 0.125000
-0.084901 2.458370 0.125000
-0.216833 2.104980 0.208454
0.165788 2.039850 0.337912
-0.082730 4.117230 0.285427
0.341416 4.473590 0.403287
0.858237 4.638370 0.625000
1.433750 1.399810 0.125000
-0.232506 2.634800 0.238931
0.182638 1.814340 0.466383
1.483520 2.581150 0.210292
0.389530 4.751550 0.125000
-0.122000 2.698260 0.125000
0.474249 5.031910 0.261433
0.187500 0.300978 0.171428
0.165382 3.210680 0.125000
1.132080 3.351170 0.625000
0.128261 0.171015 0.133989
1.144450 2.327900 0.625000
1.232360 2.919260 0.625000
1.235780 2.344430 0.125000
1.378000 3.554370 0.125000
0.388359 4.688770 0.441075
0.187500 1.747650 0.612257
0.188700 3.452080 0.597060
1.062500 0.953686 0.246043
0.792362 4.945400 0.362877
0.847119 4.690410 0.618055
0.107160 2.168330 0.625000
-0.054574 0.391242 0.625000
-0.187500 1.422740 0.466592
-0.007475 0.308671 0.125000
1.377610 3.875310 0.247641
1.067070 0.614132 0.625000
1.437500 0.664883 0.180246
1.298360 3.078000 0.625000
0.187500 0.926664 0.494290
1.478950 2.322220 0.287639
0.967610 4.243130 0.125000
0.323664 4.908400 0.125000
1.136870 3.077520 0.125000
1.179610 3.955060 0.625000
-0.230166 2.754550 0.560505
0.963671 4.391180 0.625000
0.008418 1.261930 0.125000
1.124040 0.167946 0.199293
0.186515 1.763030 0.466255
0.656250 5.410330 0.416901
0.187500 1.531260 0.514775
0.242490 4.814390 0.125000
0.547163 5.254520 0.148183
0.164131 2.076710 0.293870
1.275930 4.088300 0.125000
-0.187500 1.747720 0.567683
0.187373 4.980840 0.125000
-0.077146 1.779140 0.625000
0.960157 4.881530 0.125000
1.233330 4.559360 0.384822
1.464540 2.055080 0.127345
0.713460 5.226190 0.605328
1.477990 2.664210 0.625000
1.437500 0.776406 0.333232
1.046770 3.250540 0.319054
1.055370 5.145930 0.625000
-0.180586 1.859920 0.625000
1.481570 2.470350 0.231095
1.067970 2.905260 0.496539
1.155910 2.556120 0.625000
1.233280 2.588020 0.125000
-0.187500 1.435590 0.268972
0.160479 3.182630 0.625000
1.212870 2.747550 0.125000
0.084183 2.365920 0.625000
0.203900 5.231940 0.247214
1.055810 5.168750 0.317773
-0.188526 1.791840 0.125000
1.287680 2.720970 0.625000
1.481180 2.750850 0.295773
0.115416 3.098310 0.125000
0.199947 3.967880 0.125000
1.437500 1.711120 0.612607
1.005450 5.092170 0.625000
-0.093013 2.126520 0.625000
0.009976 0.013302 0.349239
-0.231244 2.699370 0.259993
-0.202401 3.274370 0.338762
-0.002126 0.002835 0.146116
0.187500 1.744910 0.234273
0.403988 4.964120 0.625000
0.161780 5.048660 0.470204
1.287420 0.049892 0.411814
0.220786 3.746930 0.449155
-0.063953 4.153300 0.625000
1.210530 1.519370 0.625000
0.190632 4.018400 0.125000
-0.226609 2.906610 0.280304
1.071530 0.563076 0.625000
1.325290 3.501390 0.125000
0.250358 5.080950 0.125000
0.523231 5.204670 0.125000
1.062500 0.646225 0.445953
-0.157523 0.668289 0.125000
-0.186534 2.119430 0.125000
-0.094467 0.616597 0.625000
1.025830 3.497510 0.567827
-0.214252 3.127290 0.379535
0.187500 1.671320 0.192036
-0.068091 4.188880 0.518995
-0.121226 0.766935 0.625000
0.786383 5.128750 0.186217
1.056420 3.113460 0.176790
0.187500 1.541860 0.289074
-0.007838 2.359840 0.625000
0.174128 4.435260 0.125000
1.195180 4.697580 0.521966
0.159358 2.182830 0.187073
1.031010 5.385310 0.462737
1.370240 3.690510 0.625000
-0.093546 3.418000 0.625000
-0.187500 0.583825 0.219504
1.056610 3.109910 0.247935
1.068910 4.308290 0.625000
0.000803 4.231970 0.625000
1.133110 0.794191 0.125000
1.027850 5.543550 0.483083
0.099610 4.360830 0.625000
-0.056056 2.570990 0.625000
1.043060 5.256310 0.381090
1.186520 4.535730 0.625000
-0.187826 3.431770 0.126116
0.135997 2.740960 0.625000
-0.147410 0.196547 0.619215
1.067860 1.875620 0.210186
1.084880 2.435420 0.625000
1.199710 2.511850 0.625000
1.071780 2.798500 0.377218
1.481120 2.753950 0.351028
1.261840 0.172825 0.625000
1.067600 1.869600 0.340012
1.310060 4.232700 0.296436
1.341180 3.149690 0.125000
1.437500 1.578860 0.365080
0.187500 0.763209 0.407368
1.071320 1.956800 0.446158
0.245326 4.524920 0.625000
0.936149 4.198520 0.140721
-0.058419 3.371640 0.625000
1.078350 0.233009 0.625000
-0.031447 4.358200 0.578854
1.223910 0.720301 0.625000
1.364490 3.953880 0.263898
-0.158775 0.325411 0.125000
1.072210 2.784890 0.280034
1.437500 1.516820 0.388641
-0.228715 2.828810 0.442197
1.065940 4.329830 0.125000
-0.119431 0.159242 0.127596
0.124449 4.932420 0.213697
0.113189 4.026320 0.625000
0.187500 1.445820 0.395263
0.211306 3.672490 0.125000
-0.216122 2.091650 0.552695
0.105965 2.891630 0.125000
-0.121271 3.906860 0.534538
0.123389 0.395777 0.125000
1.218970 2.989270 0.125000
1.222660 4.088120 0.125000
1.128410 0.588748 0.625000
-0.117378 1.834470 0.625000
0.278482 4.343000 0.625000
-0.058559 3.617330 0.125000
-0.187500 1.481870 0.473839
0.367907 4.711360 0.625000
0.758336 5.092670 0.329263
0.187500 0.291288 0.232440
-0.020349 2.002810 0.125000
0.187500 0.645772 0.314388
0.027555 2.057020 0.125000
-0.226399 2.284400 0.199693
0.169356 5.072250 0.604099
1.263610 4.434940 0.277966
-0.232470 2.568430 0.203119
1.051930 5.191940 0.570012
0.006060 1.431560 0.625000
-0.187500 1.229900 0.495837
1.328460 4.142870 0.191799
1.192910 2.757170 0.625000
1.062500 0.447953 0.395562
0.041002 1.290450 0.625000
0.893781 4.447500 0.243070
0.018512 0.024682 0.299152
0.548130 5.257100 0.297968
1.469380 3.054950 0.501437
0.882861 4.508180 0.623989
0.175171 3.276700 0.168099
0.070520 4.751450 0.125846
1.062500 1.344690 0.389731
0.160684 2.153330 0.466633
0.101230 1.613580 0.125000
1.053280 3.169420 0.378179
1.332950 0.200990 0.125000
-0.221958 2.989670 0.377903
0.110223 3.573300 0.125000
1.419640 1.769560 0.125000
-0.043747 0.460285 0.625000
1.437500 1.190950 0.360499
1.005850 3.688030 0.457363
0.187500 1.338040 0.327417
1.428610 2.703440 0.125000
-0.032081 3.109550 0.625000
0.157046 2.234220 0.387749
1.330520 0.107362 0.201251
1.062500 0.979985 0.453943
0.833246 4.757970 0.446139
0.857077 4.641920 0.266279
-0.044813 4.302820 0.377440
1.456670 3.240390 0.469104
-0.054299 4.256390 0.572256
1.188000 0.082668 0.391570
0.131172 4.381770 0.125000
-0.037204 0.762933 0.625000
0.914950 5.128750 0.493877
1.072900 1.424830 0.125000
0.351920 4.525690 0.566181
-0.115137 2.500180 0.125000
1.310940 1.555240 0.125000
1.126530 4.815810 0.125000
0.877754 5.340120 0.125000
-0.230759 2.724220 0.331673
-0.118431 1.610760 0.625000
1.076620 2.642120 0.143625
1.328020 1.111550 0.125000
0.187500 1.595350 0.572998
1.299690 0.066255 0.585275
-0.224612 2.250900 0.496470
1.062500 1.106650 0.394002
0.861365 4.621040 0.315307
-0.196551 3.337550 0.304075
1.050230 3.207360 0.621773
-0.136717 1.198600 0.625000
1.065540 1.821320 0.450114
1.444980 3.366810 0.222071
1.169010 0.695018 0.125000
1.062500 1.228720 0.622025
1.483130 2.558840 0.443368
1.294750 0.426509 0.625000
0.724162 5.197650 0.483041
1.210570 2.990000 0.625000
1.437500 0.797090 0.549459
1.272190 3.099770 0.125000
0.008886 4.524500 0.209279
0.969858 3.974130 0.337186
1.065890 0.245484 0.399148
1.356070 0.964845 0.625000
0.032600 0.043467 0.226061
-0.144523 3.467840 0.625000
0.180694 3.348290 0.427440
1.479990 2.813550 0.296738
0.216925 4.872500 0.125000
-0.167820 2.416830 0.625000
-0.146770 3.753860 0.453131
1.482170 2.698350 0.567333
-0.090745 2.996500 0.625000
1.397510 2.050730 0.125000
0.897389 4.889370 0.125000
1.062500 0.503880 0.625000
1.437500 0.762849 0.127407
1.435660 3.465430 0.127380
-0.159454 1.847430 0.125000
-0.187500 0.349205 0.191697
-0.031489 3.555640 0.125000
1.041470 4.816470 0.625000
1.453590 3.273720 0.130774
0.038996 0.229540 0.125000
-0.189939 3.408960 0.301199
1.026320 3.530670 0.625000
0.015522 2.847150 0.125000
0.153052 2.298910 0.125000
1.476110 2.933950 0.551672
0.183464 3.384200 0.616963
1.109640 4.982580 0.560159
1.437500 1.706650 0.133463
1.437500 0.384139 0.315618
0.163306 2.095060 0.474984
1.300070 2.195120 0.625000
0.154459 2.291740 0.191569
1.255630 2.292460 0.125000
0.343972 4.486270 0.307751
1.126720 2.063760 0.125000
-0.217323 3.072450 0.208380
-0.093235 4.065820 0.615301
1.437500 0.323773 0.468221
0.888653 4.475990 0.488081
0.992226 5.018830 0.125000
1.028120 5.553160 0.540959
1.411560 0.687337 0.125000
0.021039 4.574610 0.213084
1.062500 1.242430 0.338849
1.062500 1.179040 0.576276
0.053519 4.691040 0.509873
-0.214489 3.123060 0.200450
-0.229559 2.395850 0.429831
-0.187500 1.177740 0.497901
0.985412 3.997060 0.625000
0.458432 4.972420 0.201146
1.366690 3.940730 0.321770
0.183231 3.912590 0.125000
-0.028024 1.469420 0.125000
1.464170 3.148440 0.175495
0.015664 3.787510 0.625000
0.900089 4.412440 0.381210
0.187500 1.557020 0.126816
1.092060 4.533200 0.625000
-0.148184 3.745370 0.584459
1.328550 3.807650 0.125000
0.913639 4.337130 0.403956
-0.165406 3.612980 0.289099
1.110420 4.980150 0.344305
0.180570 3.346690 0.185339
1.476630 2.277550 0.502481
1.062500 0.597377 0.279289
-0.187500 0.839661 0.437944
0.795527 5.025050 0.125000
1.313660 4.172560 0.625000
1.334210 0.880583 0.125000
1.186190 2.501840 0.125000
1.062710 1.754830 0.290557
1.404450 3.706300 0.520894
-0.156911 2.478360 0.625000
1.115290 0.890025 0.625000
-0.026977 2.512730 0.625000
-0.233047 2.602620 0.161326
0.167590 2.013450 0.601690
0.470538 5.017950 0.471439
1.478170 2.896900 0.492934
0.023466 3.454070 0.625000
0.281153 4.196480 0.125000
1.068290 1.885740 0.624717
1.429610 1.467000 0.125000
1.333060 3.972650 0.625000
-0.064722 4.205370 0.605283
1.000870 3.735050 0.281540
1.034220 5.343330 0.258378
-0.198741 3.313900 0.575637
1.071290 5.101510 0.383235
1.120150 4.740300 0.625000
0.041931 0.055907 0.501826
0.187500 0.478396 0.412346
1.437500 0.858961 0.188304
0.712449 5.228890 0.235925
0.006890 2.223360 0.625000
0.846678 5.194850 0.625000
0.167482 0.223310 0.546358
0.976093 3.926060 0.622203
0.300215 4.263790 0.305467
0.914813 5.128750 0.400432
-0.187500 0.598144 0.622570
0.091042 4.824370 0.266149
-0.016390 4.420280 0.179816
-0.179735 0.666002 0.625000
0.197138 5.186370 0.495065
-0.231261 2.698510 0.443207
0.891334 4.461090 0.305064
0.993340 4.766250 0.625000
1.387830 0.183768 0.205324
1.382770 0.736768 0.625000
1.468970 2.916820 0.625000
-0.054649 0.072866 0.477082
-0.187500 1.533140 0.611512
0.215157 3.697780 0.520714
1.303610 4.264140 0.125827
1.331090 4.130030 0.385907
1.062500 1.264300 0.470524
0.884926 5.128750 0.204119
1.079430 2.362170 0.572372
0.167407 3.176040 0.376266
-0.187500 0.674698 0.499407
0.125270 0.167027 0.620215
0.187500 1.365970 0.621767
0.483544 5.066870 0.612579
0.149598 2.627700 0.458471
1.086510 4.694410 0.625000
0.214005 4.769000 0.625000
0.160286 3.159570 0.125000
0.440951 4.906680 0.423965
-0.186422 3.446930 0.442377
0.420197 4.825110 0.568596
1.323900 4.165120 0.238887
1.235680 0.622459 0.125000
0.872171 4.937180 0.125000
1.062500 1.331920 0.501498
1.364290 2.489940 0.125000
1.270680 1.662460 0.625000
-0.207724 3.216890 0.436226
0.184851 4.148340 0.625000
1.193430 2.286630 0.125000
0.330907 4.421460 0.402733
-0.054178 3.305740 0.125000
0.502692 5.135930 0.128030
0.731738 5.177450 0.606588
1.476330 2.305100 0.625000
0.534182 5.219900 0.536247
0.001655 2.844000 0.625000
1.078780 2.463970 0.547365
0.134277 4.963020 0.562275
0.495835 5.113090 0.566332
0.207578 3.627530 0.444011
1.437500 1.120740 0.297018
-0.192489 3.354470 0.125000
0.179202 1.859800 0.492754
1.444060 3.376740 0.571087
0.030605 1.977530 0.625000
1.198890 0.068142 0.227591
1.479970 2.814250 0.236269
-0.149120 2.301380 0.125000
1.027850 5.461980 0.161512
1.164870 4.804860 0.345465
0.092695 4.795750 0.625000
-0.179557 2.811880 0.125000
1.231670 4.566170 0.131939
1.019000 3.562600 0.259642
1.332560 0.410429 0.125000
1.057560 3.092930 0.354976
1.056160 3.118140 0.305478
1.197170 2.795850 0.125000
-0.231568 2.514970 0.331958
1.141490 4.883800 0.550761
1.070020 1.926390 0.331880
1.300930 4.277230 0.335094
0.106612 4.876870 0.527353
-0.231994 2.660990 0.181771
0.187500 0.323337 0.612741
1.420010 2.947410 0.625000
1.282790 3.744290 0.125000
1.067800 4.246940 0.625000
1.120220 4.182400 0.125000
1.447710 1.862000 0.444787
-0.042740 0.114532 0.625000
1.049000 3.222750 0.571262
1.397600 2.617210 0.125000
1.036310 3.381140 0.294468
0.006414 1.527950 0.625000
-0.101770 2.786090 0.125000
-0.019694 2.599550 0.125000
0.056065 4.278460 0.625000
-0.000737 3.733560 0.625000
0.073862 0.160867 0.625000
0.113173 0.344781 0.125000
1.367720 2.370190 0.125000
0.180459 5.106830 0.507983
0.895423 4.438370 0.602470
1.098030 3.732020 0.125000
0.036891 3.687620 0.625000
0.151561 2.750200 0.178172
-0.187500 1.562640 0.178546
1.062500 1.522230 0.220343
0.960582 4.299480 0.125000
0.433655 4.879240 0.547571
1.078320 2.535120 0.351725
1.062500 0.298118 0.293731
0.801941 5.080960 0.125000
0.187500 0.526486 0.209963
-0.174300 0.385476 0.125000
-0.162621 1.744680 0.125000
1.059970 3.778520 0.125000
0.187500 1.406800 0.551015
1.030580 5.611750 0.544152
1.479350 2.344520 0.376721
0.187500 1.565990 0.620095
1.104600 4.887060 0.125000
0.963196 5.064400 0.125000
0.152666 2.361180 0.465519
1.379280 1.329180 0.125000
1.306970 1.607220 0.125000
-0.174602 1.585690 0.125000
0.187500 1.280140 0.344772
0.064263 4.729220 0.361923
1.234840 0.877876 0.625000
0.004159 1.207140 0.625000
1.437500 1.661060 0.621666
1.466340 3.109430 0.509457
1.111400 1.365090 0.625000
1.482130 2.502280 0.429605
-0.231011 2.481940 0.271241
1.252080 4.482320 0.497398
0.083696 2.114910 0.625000
0.416868 4.810850 0.315234
0.341790 4.536740 0.125000
0.103595 3.869100 0.625000
-0.172987 3.518260 0.125000
1.064980 2.959140 0.528048
1.383160 0.221253 0.125000
1.465490 3.124740 0.435674
-0.192984 1.811000 0.172610
1.062500 1.722210 0.510913
1.331010 1.675030 0.625000
0.149708 2.565720 0.475785
0.160659 5.045170 0.399871
1.463250 3.165080 0.285457
0.091536 0.747078 0.125000
1.062500 0.698685 0.330398
1.481770 2.719420 0.244191
0.386765 4.681940 0.388937
1.098590 2.710450 0.125000
0.180972 3.351890 0.490486
0.093023 4.831410 0.143640
1.022650 3.527810 0.187208
0.075125 2.869190 0.625000
0.006756 3.289550 0.125000
0.172169 0.377208 0.625000
0.195157 4.541640 0.625000
0.313753 4.336360 0.183238
0.163973 3.106090 0.401481
-0.138539 3.803250 0.196836
-0.001573 0.544579 0.125000
1.200650 4.678190 0.236813
1.389100 1.819150 0.125000
0.000144 0.809844 0.125000
1.060140 5.142840 0.248803
1.065870 2.943080 0.453121
1.171680 2.633280 0.625000
1.053710 3.162230 0.154067
0.445507 4.923810 0.189314
0.154652 2.287450 0.619838
1.062500 1.321600 0.306312
1.467350 2.106790 0.442200
-0.009752 0.711945 0.625000
1.437500 0.749344 0.379239
0.187500 1.018440 0.489564
1.291160 1.781020 0.125000
1.420850 3.579770 0.542010
0.022855 2.312460 0.125000
1.437500 0.470226 0.577205
0.092161 4.632040 0.625000
0.248624 4.951820 0.625000
0.246559 3.932570 0.166328
0.092116 1.441450 0.125000
0.169298 1.990860 0.541534
-0.019837 3.169690 0.125000
1.215910 4.624190 0.411866
1.463190 3.053850 0.125000
-0.231600 2.516870 0.211546
1.068730 1.090320 0.625000
1.303920 4.262630 0.569042
0.187500 1.317970 0.601403
1.359740 0.146317 0.240930
-0.071817 0.936231 0.125000
-0.223886 2.237280 0.357798
1.062500 1.739730 0.414991
1.483630 2.587170 0.547055
0.109354 0.145806 0.408390
-0.150123 0.808285 0.125000
-0.230580 2.456380 0.315654
0.155934 3.879210 0.625000
0.150952 2.479710 0.177450
0.943120 4.153470 0.460051
0.924921 4.271080 0.514333
0.165189 2.053180 0.565153
1.342330 2.168230 0.125000
1.114250 0.364366 0.125000
0.089353 0.510205 0.625000
1.165560 1.924820 0.625000
1.437500 1.570010 0.303805
0.183175 3.380460 0.239078
1.421170 1.462200 0.625000
-0.114466 3.947690 0.376204
-0.151054 0.201405 0.548794
0.196563 3.525430 0.125723
1.062500 0.401124 0.623388
0.905067 4.384770 0.517457
0.065830 4.090590 0.625000
-0.073946 4.160230 0.325009
0.999204 3.747910 0.451814
1.226560 0.246367 0.625000
1.062500 1.456410 0.578216
-0.192537 1.806020 0.367952
-0.101185 1.108980 0.125000
1.319120 4.179490 0.125000
0.150088 2.539450 0.304574
1.437500 0.528185 0.510961
0.013049 3.499210 0.125000
1.358060 3.992360 0.302350
0.047594 2.683470 0.625000
1.137890 0.516227 0.625000
0.952380 4.507450 0.125000
-0.187500 0.375160 0.457939
1.062500 0.416989 0.269113
-0.187500 0.547799 0.577207
1.062500 1.576420 0.264052
1.039610 3.339970 0.426358
-0.187500 1.489270 0.183704
1.416020 2.334250 0.125000
0.152102 2.400170 0.352797
0.350761 4.851840 0.625000
-0.187500 0.914233 0.513756
1.437500 0.357062 0.583403
0.067240 4.414570 0.625000
1.045990 3.728910 0.125000
1.077450 2.191870 0.268361
1.067240 1.861260 0.563077
-0.187500 0.871343 0.624263
-0.007272 1.942290 0.625000
0.175136 3.276240 0.263162
1.179890 0.478442 0.125000
1.365760 3.946290 0.211545
1.365280 3.617850 0.125000
1.240110 2.573920 0.625000
1.388150 1.012080 0.625000
1.062500 0.573177 0.350630
0.203389 3.588700 0.504280
0.206622 5.034650 0.125000
1.022300 5.128750 0.525169
1.439710 2.551000 0.125000
0.115522 0.472451 0.125000
0.051206 3.245710 0.625000
0.167238 2.018110 0.387407
1.107820 4.062280 0.125000
0.939769 4.550360 0.625000
1.064280 2.971810 0.185312
0.078249 4.778910 0.172872
0.267693 4.443240 0.125000
1.095380 3.177960 0.125000
-0.077084 0.577254 0.125000
1.062500 1.217380 0.198024
1.079270 2.387330 0.276337
0.889593 4.470770 0.422820
1.048750 3.225830 0.144616
0.173918 0.463447 0.125000
-0.145928 2.756330 0.125000
1.277590 3.153250 0.125000
-0.216785 3.082060 0.155793
1.234940 4.284990 0.125000
0.153565 2.875300 0.413481
0.160461 3.030620 0.304289
0.262931 4.044540 0.412631
0.714766 5.222710 0.291791
1.329970 4.135500 0.332323
1.078750 1.157210 0.625000
-0.216815 2.104650 0.258871
0.762824 5.141230 0.625000
1.481880 2.487750 0.285885
0.108390 0.144520 0.565854
1.062500 1.602210 0.129043
1.232790 1.095100 0.125000
0.891525 4.788830 0.125000
1.077800 2.211270 0.572796
1.226760 2.117920 0.125000
0.376115 4.636330 0.422982
1.062500 1.204990 0.144130
0.390908 4.699680 0.500610
0.853890 5.036820 0.125000
1.052160 4.655170 0.125000
0.086297 0.115063 0.368127
1.269340 0.025782 0.592149
0.107573 0.609283 0.625000
1.472030 2.192890 0.460345
-0.187500 1.044270 0.583587
0.187500 1.730510 0.424425
0.136787 1.218570 0.625000
-0.187500 0.519553 0.263398
1.320850 4.180010 0.292367
1.062500 0.663844 0.596447
-0.141421 3.778660 0.125000
1.437500 1.724230 0.441877
1.415070 1.186340 0.625000
1.062500 1.271930 0.526190
0.171417 1.962810 0.379176
-0.026106 2.877720 0.125000
-0.190086 1.778760 0.461783
-0.130057 0.420067 0.125000
0.779965 4.999060 0.396768
0.154535 3.697480 0.625000
1.069250 2.880390 0.542392
-0.069851 0.421809 0.125000
1.431980 1.410250 0.625000
0.252585 4.019800 0.625000
-0.154075 0.205433 0.172996
1.062500 1.112190 0.307688
1.483510 2.628070 0.346874
-0.187500 1.103220 0.247141
0.153266 2.856630 0.151304
0.187500 1.430610 0.281134
0.206200 3.731630 0.125000
-0.202972 1.985910 0.625000
1.148650 2.251360 0.625000
1.482360 2.688340 0.451162
0.536184 5.225240 0.458936
0.152620 2.364410 0.390271
-0.062772 4.214920 0.322885
0.207668 5.262120 0.376960
1.099540 0.879978 0.125000
1.062500 1.467380 0.524851
0.006955 4.247090 0.125000
0.187500 1.671180 0.420533
1.430800 3.502940 0.622065
1.446130 1.844660 0.569283
0.156047 2.256430 0.234804
-0.198968 1.877560 0.544359
0.666295 5.351960 0.318878
0.068445 0.285345 0.125000
0.008653 2.567970 0.625000
1.070690 1.942120 0.563340
1.428780 1.345050 0.125000
1.437500 0.685692 0.551002
1.062500 1.653170 0.232086
1.164420 0.114105 0.162691
1.134780 4.426030 0.125000
0.032011 0.878993 0.625000
-0.178298 0.237730 0.582595
0.950474 4.105940 0.341369
1.449060 3.322680 0.613373
1.382620 0.176833 0.344945
0.187500 1.548720 0.453821
1.347100 2.702320 0.625000
0.054501 1.170070 0.625000
-0.218788 2.141660 0.533295
-0.125020 2.359210 0.625000
1.062500 0.658986 0.294418
1.450150 1.888810 0.258116
0.050149 4.649200 0.125000
1.388670 1.634550 0.625000
-0.180619 2.338610 0.625000
0.173927 1.929600 0.166551
-0.181456 0.871076 0.125000
-0.202388 3.121680 0.125000
0.836053 5.128750 0.170821
0.184986 1.783260 0.420108
1.115600 4.368400 0.125000
1.483300 2.568560 0.144702
0.161046 2.145290 0.142773
0.525932 5.197910 0.323859
1.196710 2.358280 0.625000
1.437500 0.540459 0.257187
0.047788 4.670680 0.450233
0.051205 4.276310 0.125000
1.221380 1.043420 0.125000
1.062500 1.002400 0.613486
1.423460 2.528800 0.625000
0.355602 4.543960 0.292228
1.437500 1.313900 0.168026
1.474420 2.964320 0.486512
1.053550 3.165100 0.209763
0.181649 1.827420 0.359000
1.062500 0.940106 0.189353
0.200125 5.204230 0.608939
1.345780 4.058330 0.563985
-0.049935 4.277750 0.300673
0.242161 3.900890 0.256482
1.480470 2.408020 0.514481
1.437500 1.065970 0.283435
0.485141 5.072870 0.293956
1.363480 1.341630 0.625000
1.442140 1.800920 0.159030
1.443030 2.265270 0.625000
-0.225487 2.926650 0.351719
1.437500 0.805716 0.472593
1.214230 3.171390 0.625000
1.062500 0.629067 0.546722
0.439826 4.977550 0.125000
0.143681 3.880410 0.125000
0.131498 0.175330 0.195633
0.825220 4.797050 0.571308
1.422570 2.180270 0.625000
0.834274 4.752960 0.532539
0.079087 4.781890 0.234052
1.277760 0.216287 0.125000
0.187500 0.599177 0.515895
1.062500 0.462365 0.173687
1.483520 2.627690 0.183744
0.187500 1.089010 0.185835
1.479600 2.358900 0.162498
0.121103 3.469710 0.125000
0.123392 1.661210 0.625000
1.404740 3.704050 0.251991
-0.153717 2.351630 0.125000
1.062820 2.998130 0.490059
1.254920 2.767970 0.625000
0.477554 5.044340 0.559660
0.119830 0.677697 0.625000
1.298640 0.742734 0.125000
1.193080 4.705000 0.279805
-0.232481 2.636090 0.453520
-0.216355 2.096010 0.317534
1.441330 3.406260 0.179597
1.062500 1.027210 0.474985
1.148680 4.861500 0.149933
1.042650 3.302010 0.304535
1.174460 0.555495 0.625000
1.175660 1.464300 0.625000
1.260600 3.027340 0.125000
0.187500 0.946504 0.174935
-0.071567 3.252730 0.625000
-0.011565 4.440180 0.302694
1.259460 0.278355 0.125000
1.199660 2.097060 0.625000
1.482660 2.672710 0.518518
0.773477 5.027140 0.203213
0.982050 4.224090 0.625000
-0.229699 2.778460 0.460771
0.155845 2.931430 0.390996
0.115960 4.449390 0.125000
1.120960 3.778130 0.125000
-0.231638 2.679190 0.491022
1.280610 1.831490 0.125000
1.062500 0.344733 0.571716
0.135935 0.876524 0.125000
0.743264 5.146710 0.386502
1.062500 1.706470 0.180125
0.236389 4.445240 0.625000
-0.070438 3.040770 0.125000
1.453040 3.279620 0.434312
-0.228541 2.837720 0.130802
-0.026036 0.753921 0.125000
1.340440 4.084400 0.206054
0.925457 4.267610 0.152727
1.303500 2.247290 0.625000
1.056160 3.118020 0.420953
1.416820 0.537997 0.625000
0.908066 4.368100 0.458770
0.183679 1.800560 0.551501
1.078390 2.524020 0.401190
1.177100 4.761540 0.308118
1.353280 0.354025 0.625000
1.358670 3.988730 0.360018
-0.187500 1.094160 0.562873
1.082320 4.789140 0.125000
-0.192494 1.805550 0.525134
0.138041 2.571810 0.625000
1.432790 0.589020 0.625000
0.162221 2.119170 0.356009
0.140848 1.107420 0.625000
1.416090 3.616470 0.130054
-0.187500 0.862193 0.537569
1.062600 0.379901 0.125000
1.400800 2.226450 0.625000
1.337880 3.805660 0.625000
1.432630 3.488790 0.313388
-0.035793 4.340280 0.531016
-0.067895 0.340736 0.625000
1.327180 0.102904 0.443371
1.131240 1.247020 0.125000
0.151180 2.726410 0.127827
0.123372 3.542640 0.625000
1.361860 3.314360 0.125000
1.363660 3.198000 0.125000
1.062500 0.889836 0.374718
1.167840 1.237890 0.625000
1.401990 3.725330 0.195852
1.028820 5.438430 0.365590
-0.091399 2.924950 0.625000
-0.170834 3.571050 0.448328
1.045940 5.233260 0.176403
-0.140227 3.351590 0.625000
-0.021954 0.603214 0.125000
0.184291 5.118760 0.398333
0.112057 2.017780 0.125000
1.078170 2.231740 0.321372
-0.228099 2.860370 0.578659
0.906539 5.031540 0.125000
-0.121988 2.874110 0.125000
0.196531 3.833640 0.125000
-0.049709 0.651704 0.625000
0.455042 4.959670 0.271963
1.133770 0.422057 0.125000
-0.079203 0.105605 0.237483
0.053366 1.941450 0.125000
-0.136587 1.737690 0.625000
0.324685 4.390590 0.129917
0.114256 0.152342 0.244721
-0.210917 3.182410 0.126240
0.980384 3.956320 0.125000
0.271168 4.208010 0.625000
-0.189636 3.412220 0.360523
-0.000644 1.886370 0.625000
-0.060510 1.935440 0.625000
0.915487 4.326860 0.219793
0.187500 0.463562 0.490581
1.062500 0.894425 0.222475
1.011910 3.630240 0.221332
1.084280 2.156180 0.625000
1.065420 1.818590 0.147710
0.156038 2.935570 0.624332
0.184478 1.195930 0.125000
-0.227160 2.896750 0.229763
0.154580 2.289050 0.438329
0.937795 5.128750 0.295336
0.187500 1.228650 0.174192
1.438820 1.764440 0.356846
0.469469 5.013930 0.361535
0.973473 3.946270 0.439697
0.120816 4.921100 0.280732
1.323010 2.521480 0.125000
0.091334 1.510520 0.625000
-0.063369 0.287302 0.625000
0.214742 5.128750 0.610321
1.378770 2.016370 0.625000
0.145989 1.717070 0.625000
1.065030 0.527628 0.125000
-0.006629 4.460530 0.621310
1.009920 3.649250 0.502004
1.032990 3.422550 0.430931
0.165597 4.787250 0.125000
-0.205662 3.239160 0.387630
1.181350 1.859940 0.125000
0.187500 0.465772 0.244333
0.878618 4.531760 0.572223
1.072570 2.773170 0.555068
1.459070 2.234730 0.125000
1.406130 1.967270 0.625000
-0.065724 2.050050 0.125000
0.194272 4.544010 0.125000
1.032020 5.369880 0.513761
1.076380 2.649990 0.542168
1.463560 3.159450 0.474555
0.173936 0.231915 0.315247
0.187500 1.720440 0.287011
0.797721 4.922210 0.174084
1.357180 2.509090 0.625000
0.144409 4.808250 0.625000
1.009880 3.649610 0.569433
1.300370 3.293510 0.125000
0.222048 3.756020 0.300320
1.316950 0.199555 0.625000
-0.047709 3.575500 0.625000
1.062500 1.383750 0.353863
1.406810 1.909870 0.625000
1.068720 1.895870 0.523461
1.134850 2.283840 0.125000
-0.187500 1.320850 0.529226
1.437500 1.036190 0.237849
0.816684 4.838610 0.162308
-0.229145 2.806800 0.368768
-0.180714 0.447744 0.125000
1.397260 0.196340 0.397240
1.480850 2.429560 0.188232
-0.037125 4.334790 0.322872
-0.187500 0.894891 0.437761
0.092747 4.830430 0.551881
1.017150 5.128750 0.577585
0.426322 4.851340 0.346354
-0.009531 4.448560 0.410836
0.258674 4.700450 0.125000
0.187500 0.625839 0.265692
-0.109061 1.727720 0.125000
1.268950 4.214600 0.625000
-0.203349 1.926280 0.288797
-0.123854 0.544453 0.125000
0.523129 5.190430 0.386935
0.070018 3.557970 0.625000
0.833319 4.800470 0.625000
0.049893 3.223800 0.125000
0.275150 4.477390 0.625000
0.187076 3.431020 0.258145
-0.094891 1.696010 0.625000
0.979680 3.898420 0.549380
0.187500 0.804348 0.439304
0.008341 4.522250 0.398654
0.110010 1.865470 0.125000
1.447260 1.857140 0.178110
1.195780 2.302930 0.625000
1.437500 0.530985 0.453348
0.383296 4.667080 0.127409
0.152729 2.356820 0.617171
0.150444 2.680510 0.495121
0.393533 4.710920 0.345593
1.481450 2.463750 0.477673
1.325300 0.254693 0.125000
1.435730 3.464890 0.586448
-0.232726 2.583630 0.290849
-0.178003 3.430060 0.625000
1.065410 1.818310 0.623663
0.717980 5.214140 0.539034
0.187500 1.675110 0.264512
1.062500 1.391740 0.619991
0.284376 4.170650 0.172444
1.027890 5.547690 0.244334
1.006990 3.677140 0.402813
1.437500 1.427220 0.224893
1.071000 1.949410 0.502627
-0.196395 1.848940 0.217896
1.034010 3.409800 0.482514
1.059600 4.922880 0.125000
0.051229 4.454670 0.125000
-0.077905 0.711548 0.125000
-0.185094 0.944206 0.125000
1.194970 0.073377 0.623428
-0.142179 3.723040 0.125000
1.294850 0.112159 0.625000
0.870112 5.128750 0.434206
-0.191049 1.789470 0.220106
1.187690 1.647280 0.625000
0.178061 3.314150 0.388917
0.081070 4.788940 0.376081
0.849381 4.679390 0.445692
1.398290 3.751460 0.315604
1.141200 3.824330 0.125000
-0.096471 2.694640 0.625000
-0.148863 3.740770 0.177324
1.424080 0.478904 0.625000
-0.004913 4.037120 0.125000
1.482170 2.698740 0.189618
0.187500 0.536776 0.407965
0.237218 3.865290 0.303025
0.162117 2.121480 0.427213
0.138882 2.218540 0.625000
0.123116 0.164154 0.519093
-0.067887 2.527220 0.125000
0.015387 0.031661 0.625000
0.023787 3.526790 0.625000
-0.187500 0.843701 0.309850
1.255210 2.797540 0.125000
0.087381 1.698760 0.625000
0.994501 5.128750 0.215045
0.853440 4.659630 0.147838
1.062320 3.007150 0.144973
0.066645 2.622360 0.125000
1.029050 4.757000 0.125000
1.078930 2.440250 0.295945
0.160499 3.031440 0.589310
1.051430 5.194910 0.496185
0.075532 3.295280 0.125000
0.934391 4.209880 0.194440
0.897118 4.579000 0.625000
0.076257 1.049140 0.125000
1.062500 0.595125 0.167932
1.193820 1.133660 0.125000
1.272540 3.240560 0.125000
1.437500 1.287230 0.504619
1.138510 4.493000 0.625000
-0.108776 3.327300 0.125000
0.241291 3.894630 0.515182
1.275180 3.398940 0.625000
0.705338 5.247850 0.423507
1.441820 1.797440 0.397543
0.183780 0.245039 0.385716
1.115380 1.252580 0.625000
-0.052152 1.758290 0.125000
-0.150965 3.212730 0.625000
0.136787 3.810190 0.125000
0.187500 1.062660 0.517064
-0.116987 2.068120 0.125000
1.105800 3.079500 0.625000
1.437500 1.746140 0.303392
0.061805 3.804650 0.125000
0.122368 1.572780 0.625000
1.068150 5.111220 0.312783
0.152946 2.341850 0.250727
1.013060 3.827510 0.625000
0.515689 5.170590 0.443701
1.226130 1.220370 0.625000
1.433520 1.554840 0.125000
-0.038274 2.743590 0.125000
1.437500 1.499890 0.547093
1.111080 2.812490 0.125000
1.362910 3.608640 0.625000
-0.046385 0.061847 0.540136
1.079200 2.397470 0.165024
0.897951 4.693370 0.125000
0.997535 3.760770 0.129004
0.228163 3.800070 0.198000
1.360550 1.393900 0.625000
-0.187500 0.969346 0.259925
0.841008 4.720170 0.491431
0.152390 2.801930 0.406773
1.410120 3.662550 0.205472
-0.187500 0.333060 0.425442
0.168250 3.186970 0.323087
1.377540 0.828557 0.125000
1.229750 2.180430 0.125000
0.165795 3.145250 0.243549
-0.224848 2.938050 0.559705
-0.166446 3.223240 0.125000
-0.175000 0.233334 0.223900
-0.223152 2.968340 0.221925
0.187500 0.934930 0.573114
0.155215 2.274930 0.505770
1.286830 1.393530 0.125000
-0.142326 2.157950 0.625000
1.094610 4.806410 0.625000
1.063370 1.770360 0.175795
0.256564 4.004640 0.267672
0.152825 2.350220 0.180304
-0.187500 1.349960 0.599102
0.770157 5.041510 0.366257
-0.011800 4.439210 0.359690
1.044810 3.275070 0.491932
1.029610 5.419350 0.127718
1.033100 4.446680 0.125000
0.091136 0.121515 0.517752
-0.187500 0.361806 0.370964
1.137440 0.390327 0.625000
1.248540 4.496850 0.427217
1.482830 2.541620 0.497038
1.071020 0.341839 0.625000
0.122651 4.080110 0.125000
1.385000 1.690070 0.625000
1.062500 1.103530 0.176435
0.925991 4.264170 0.228130
1.454140 1.932620 0.482505
1.036290 5.689610 0.417718
1.113810 0.642345 0.125000
1.437500 1.249760 0.386306
0.180918 1.837090 0.302609
-0.022551 1.332070 0.125000
1.062500 1.248970 0.573382
1.065450 3.270630 0.125000
1.062500 0.880907 0.621732
1.471420 2.181790 0.246066
1.260560 3.114870 0.625000
1.478630 2.852330 0.125000
1.181920 0.632451 0.125000
-0.112202 0.358359 0.125000
1.016160 3.589680 0.303468
0.246936 4.237810 0.125000
-0.133893 3.280540 0.125000
1.297460 3.434410 0.125000
0.799619 5.128750 0.234843
0.401783 4.746250 0.441008
-0.178291 0.384596 0.625000
-0.126832 2.588770 0.625000
0.055172 3.574720 0.125000
1.440800 3.412040 0.250522
1.282230 3.686520 0.625000
0.187500 1.725180 0.176077
1.339030 4.091260 0.431454
1.475100 2.952130 0.361508
1.437500 1.086090 0.497011
0.417669 4.814290 0.623164
-0.180515 3.496260 0.603701
1.070610 2.836420 0.421951
1.154700 2.477470 0.625000
1.437500 1.598670 0.195755
1.156760 2.731430 0.125000
1.392400 2.754820 0.125000
0.147658 0.749920 0.125000
0.129466 0.172621 0.451599
-0.007244 3.909800 0.625000
0.174152 1.926620 0.454769
-0.232209 2.649970 0.303045
-0.187500 1.524360 0.360938
1.437500 0.845443 0.606984
0.150352 2.674730 0.560927
1.480820 2.428220 0.565853
-0.187500 1.682360 0.335722
1.374740 0.494875 0.125000
0.201423 4.198440 0.625000
1.062500 1.642020 0.423307
0.688659 5.292330 0.364435
1.449340 3.319650 0.180795
1.098750 4.085440 0.625000
1.384240 1.115990 0.625000
0.187500 1.394410 0.227050
0.804461 5.138340 0.125000
0.241383 3.895290 0.442032
-0.053694 3.310300 0.625000
0.846820 4.691870 0.302270
1.083510 0.221991 0.181102
-0.117887 3.927170 0.179055
1.340230 1.069560 0.625000
1.403180 2.111540 0.125000
1.139060 1.685390 0.625000
1.062500 0.403387 0.566284
0.171360 4.186340 0.125000
1.043870 3.286840 0.251107
1.129730 4.920270 0.331485
0.194381 4.932580 0.625000
1.104450 3.498430 0.125000
1.013230 4.202650 0.125000
-0.187500 1.437220 0.191417
-0.187500 1.535510 0.445290
-0.183008 3.477010 0.389279
1.097370 0.480477 0.125000
0.006999 0.693920 0.125000
0.152012 2.406400 0.589425
0.058801 0.700159 0.625000
0.115969 3.656510 0.625000
0.187500 0.520106 0.262481
0.253868 3.985220 0.515993
0.062484 3.411120 0.125000
0.211200 4.249890 0.625000
1.437500 0.883456 0.539899
-0.116873 0.619238 0.125000
0.100441 4.857660 0.380378
0.019207 0.635739 0.125000
1.153880 0.128158 0.210463
1.143500 0.444382 0.625000
0.179266 1.858950 0.436014
-0.104486 3.231680 0.125000
-0.198445 1.871740 0.268043
0.161833 3.060100 0.376474
1.168280 4.524090 0.125000
1.078750 2.468940 0.389578
-0.155937 3.686130 0.184783
0.050413 1.874790 0.125000
-0.221132 2.185620 0.362149
0.187500 0.287976 0.541366
1.067860 1.875640 0.147824
0.024653 0.751597 0.125000
1.473610 2.978880 0.579513
0.773617 5.026530 0.261044
-0.078636 0.994677 0.125000
-0.042536 2.795960 0.125000
0.222258 4.381050 0.125000
1.310410 3.982590 0.125000
0.204973 3.603380 0.247461
0.957424 4.061020 0.286652
0.377965 4.900080 0.125000
1.163040 4.221870 0.125000
1.044660 3.276920 0.432665
1.479360 2.846700 0.182900
1.062500 0.328254 0.334743
1.477250 2.913430 0.131178
0.031248 4.391970 0.125000
-0.110507 2.153340 0.125000
-0.109439 3.977860 0.591779
1.453830 2.622750 0.125000
-0.187500 1.450420 0.132605
0.867916 4.589140 0.272948
0.187500 1.697710 0.344534
1.228240 0.126891 0.625000
1.096830 3.711750 0.625000
1.071230 2.816470 0.622637
1.074070 2.724710 0.169359
1.062500 1.418520 0.426803
1.437500 1.245180 0.171168
1.368640 3.929030 0.550443
0.187500 0.438006 0.187346
-0.170420 3.574250 0.247416
0.788427 5.210250 0.625000
1.128370 0.527632 0.125000
0.084978 2.718880 0.625000
1.234350 4.555180 0.183178
-0.041371 1.410660 0.625000
1.060740 3.035540 0.327408
1.077970 2.589950 0.336322
-0.187500 1.298590 0.592412
0.187500 0.383592 0.393418
0.998671 4.271740 0.625000
-0.230176 2.754060 0.413774
-0.041229 4.317860 0.480279
-0.051491 2.882000 0.625000
0.381188 5.078440 0.125000
1.077880 2.883620 0.125000
1.122180 4.288350 0.625000
0.187500 1.663180 0.523576
1.062500 0.391674 0.378759
1.437500 1.510750 0.482733
0.506940 5.147260 0.283360
1.130910 1.425010 0.125000
-0.006465 0.008620 0.556627
-0.072582 1.634820 0.625000
0.937929 5.209830 0.125000
1.034080 5.663120 0.369324
1.217300 4.388790 0.625000
1.293330 2.528360 0.625000
0.164825 3.124410 0.175175
0.083683 2.329890 0.125000
0.143803 4.545180 0.125000
-0.174274 2.243620 0.125000
1.283160 2.148260 0.125000
1.468080 2.861680 0.625000
1.062500 1.522850 0.503753
0.852775 4.662870 0.344533
1.241200 3.418750 0.125000
1.376670 3.880940 0.532587
1.141700 4.883160 0.370452
-0.103126 1.213330 0.125000
-0.228617 2.340000 0.181482
-0.015803 3.967190 0.625000
1.424820 0.233091 0.238863
0.153578 2.876100 0.198518
-0.147094 2.096340 0.625000
0.180486 3.345600 0.561497
0.187500 1.403860 0.428672
1.073610 0.686867 0.125000
-0.047715 2.399170 0.625000
-0.105511 0.140681 0.448247
1.032170 3.432800 0.223585
0.191140 5.150510 0.352395
0.120985 3.965890 0.625000
-0.182633 0.790018 0.625000
0.187500 1.232840 0.304292
1.142990 0.905816 0.125000
1.482660 2.532230 0.550741
1.309580 3.064460 0.125000
0.967128 3.995180 0.287863
-0.187500 0.701501 0.410513
0.153008 2.840500 0.353807
1.304430 2.669210 0.625000
0.165805 1.700290 0.125000
0.110466 3.346200 0.125000
0.187500 0.628604 0.463273
1.414440 2.997820 0.625000
1.079660 2.326700 0.469140
1.062500 1.058640 0.515422
0.163225 4.333730 0.625000
-0.107832 3.499900 0.125000
1.071460 0.238050 0.451991
1.191570 0.151659 0.125000
1.079700 2.319730 0.614136
1.062500 0.903485 0.527145
0.909256 4.468520 0.125000
0.947283 4.126560 0.527102
-0.229558 2.785670 0.160521
1.078320 2.534760 0.175974
1.012270 4.599050 0.125000
1.312410 1.934980 0.125000
-0.006889 2.648320 0.125000
-0.230671 2.461790 0.185994
1.145140 0.139815 0.262268
1.079560 2.341590 0.418999
1.050390 5.201160 0.384757
1.238730 3.476900 0.625000
1.189030 1.197240 0.125000
0.123719 1.280500 0.625000
-0.187500 1.048450 0.126988
-0.215314 2.076510 0.131174
1.436740 3.455910 0.529221
-0.130068 2.207330 0.125000
-0.131464 0.893681 0.625000
1.062500 1.288420 0.363578
0.040484 4.644720 0.583352
-0.216536 3.086490 0.258098
1.158310 3.499500 0.125000
0.151711 2.759560 0.255906
-0.233030 2.607950 0.508481
0.201504 5.212750 0.352148
-0.187500 0.259719 0.299900
1.349550 3.750590 0.125000
1.187650 4.373260 0.125000
0.310487 4.518200 0.625000
1.437500 0.632038 0.127074
-0.209465 1.994300 0.382923
0.187500 0.548366 0.355591
1.422560 3.566520 0.492300
-0.173918 0.231891 0.127748
0.009056 3.150440 0.625000
0.137460 3.060060 0.625000
0.187500 0.576943 0.220265
1.065250 1.258980 0.125000
1.182510 2.927760 0.625000
1.238540 1.861810 0.125000
1.217090 4.619990 0.196415
0.780275 4.997710 0.507234
1.062500 1.430550 0.489486
-0.187500 1.527150 0.501142
0.027357 3.920520 0.125000
0.095217 1.871270 0.625000
1.476090 2.426600 0.125000
0.165354 5.059790 0.519702
1.340190 0.120249 0.500945
1.437500 0.517061 0.328492
-0.187500 1.209270 0.141813
1.437500 0.340198 0.341114
1.037040 5.052790 0.625000
-0.226900 2.293800 0.359755
0.080514 0.107353 0.247644
0.785558 4.974850 0.453152
0.187500 0.251279 0.267205
-0.181480 2.870090 0.125000
0.187500 0.882807 0.324533
0.043939 4.468070 0.625000
1.062500 1.697480 0.462793
-0.032185 2.984010 0.625000
0.699343 5.263840 0.499999
0.285298 4.993840 0.625000
1.147050 3.298490 0.625000
0.152179 2.119030 0.625000
1.297250 2.404130 0.125000
0.187500 0.661916 0.512652
1.077290 2.182870 0.218008
1.409720 3.665630 0.154984
0.162663 2.109340 0.550529
-0.137129 3.677530 0.625000
0.154936 2.911890 0.145822
0.176094 3.288660 0.574559
-0.020609 4.402880 0.433895
1.369800 3.895000 0.125000
1.027500 4.929690 0.625000
1.437500 0.500926 0.139762
0.206253 5.250790 0.305455
-0.158494 3.666380 0.329820
1.439210 3.422050 0.625000
1.315320 4.206990 0.569805
0.046680 3.861750 0.125000
1.085190 4.190320 0.625000
1.437360 1.109360 0.625000
1.062500 0.951290 0.616011
1.355680 1.925900 0.625000
1.235380 1.343430 0.625000
1.184520 4.583620 0.125000
-0.172980 2.531720 0.625000
1.442540 3.393200 0.506899
0.220462 3.744600 0.237107
-0.081885 1.545620 0.125000
1.032930 5.358900 0.136893
1.328010 1.120330 0.625000
1.130560 4.227030 0.625000
0.997897 4.666300 0.125000
1.302140 1.948200 0.625000
1.138360 1.891250 0.125000
1.132900 2.203060 0.625000
1.428680 3.519270 0.568178
0.484487 5.070410 0.229586
1.127690 3.560560 0.125000
1.349300 4.041170 0.253906
1.073260 2.002450 0.569123
1.034570 5.669030 0.222981
1.062500 0.798722 0.564209
0.426457 4.851920 0.286559
1.437500 0.507762 0.194602
-0.007879 1.335240 0.625000
-0.187500 1.479180 0.609195
1.056030 4.001770 0.125000
0.895170 5.074090 0.625000
1.437500 0.425038 0.415854
1.078180 2.557020 0.127709
1.412060 3.647560 0.458079
1.437500 0.415495 0.359383
0.184885 1.502680 0.625000
-0.158955 3.662820 0.234659
-0.192353 2.270080 0.625000
1.437500 1.088200 0.234335
0.047112 3.859010 0.625000
1.364280 1.187600 0.625000
0.283657 4.166420 0.222669
1.378160 0.170886 0.288751
1.440600 2.736160 0.625000
1.066970 3.638580 0.625000
0.867620 4.590580 0.155214
1.328700 0.469363 0.125000
1.070260 4.881370 0.625000
0.797628 5.128750 0.319663
0.947030 4.128200 0.615175
1.062500 1.700140 0.374565
0.153460 2.868760 0.311652
0.162860 2.104960 0.177741
-0.187500 0.651426 0.452000
1.225820 3.422810 0.625000
-0.176249 0.234998 0.369081
0.375818 4.635060 0.362486
0.127972 2.436780 0.625000
0.291121 4.210320 0.278159
1.062500 1.474620 0.152250
0.987122 5.128750 0.484641
-0.132680 3.838400 0.257111
1.392790 3.784400 0.127530
-0.229497 2.392200 0.261842
0.187500 1.454240 0.184021
1.329660 1.750870 0.625000
0.235837 4.945920 0.125000
1.079700 5.057580 0.125000
0.195558 3.516110 0.198134
1.275350 1.341820 0.125000
0.835637 5.311110 0.125000
1.265240 4.428250 0.332456
0.169292 3.413950 0.125000
1.076350 2.131210 0.495474
1.451960 3.291340 0.360012
1.137690 1.093880 0.625000
1.204090 4.666040 0.180624
1.466490 2.091000 0.502961
1.403470 3.713850 0.136743
-0.174453 2.925360 0.625000
-0.171513 3.565800 0.194171
-0.202853 3.269490 0.622497
-0.175440 3.535470 0.399717
0.552493 5.268730 0.362837
1.437500 0.949652 0.215779
1.077970 2.589450 0.522310
1.062500 1.176570 0.336511
1.062500 1.001380 0.263323
1.074020 2.020150 0.623796
-0.094240 3.919710 0.125000
-0.187500 1.094650 0.380668
1.154500 4.071730 0.625000
1.339080 3.035790 0.625000
-0.187500 1.553330 0.310295
1.292090 4.317910 0.160303
1.097380 1.304300 0.125000
1.062500 0.391822 0.508384
1.053400 4.052130 0.125000
0.192064 3.626630 0.625000
-0.060349 4.226780 0.244788
1.184080 4.736860 0.407800
0.244640 3.918750 0.313483
1.033740 4.061900 0.625000
-0.107336 1.140830 0.625000
1.285960 1.083910 0.625000
0.974258 4.341600 0.625000
1.044530 5.003110 0.125000
0.182537 0.849245 0.625000
-0.213785 2.047810 0.498872
0.847278 4.689640 0.248166
1.482650 2.531580 0.357182
-0.187500 0.738723 0.279192
1.326250 2.753950 0.625000
0.187500 1.379920 0.504098
0.977183 3.917670 0.373483
0.025819 1.043290 0.125000
-0.110255 2.415600 0.625000
0.264079 4.051290 0.580609
1.075250 2.686570 0.587685
-0.127298 1.512350 0.625000
1.437500 1.170730 0.548778
0.187500 0.715680 0.206655
1.141590 1.943760 0.125000
1.202940 2.040040 0.125000
1.036950 5.310370 0.397956
0.185896 1.763160 0.125000
1.303320 4.265600 0.395834
0.004166 0.005555 0.250217
0.027303 0.466227 0.625000
0.149871 2.554450 0.374150
-0.187500 1.109830 0.460583
1.130460 0.279839 0.625000
1.187390 3.257340 0.125000
0.008101 4.521260 0.618821
1.392320 1.240970 0.625000
1.481320 2.743350 0.452951
1.071350 3.891590 0.625000
0.051529 1.474420 0.125000
-0.187500 0.326583 0.495211
0.976315 4.165640 0.125000
0.316055 5.002280 0.125000
0.038320 2.333920 0.625000
0.469205 5.181080 0.125000
-0.176869 1.013190 0.625000
0.187500 0.265230 0.129142
-0.115846 3.939410 0.307070
1.125020 1.955650 0.625000
