ply
format ascii 1.0
element vertex 535
property float x
property float y
property float z
end_header
1.299250 0.691314 0.302257
2.033350 0.428605 0.405268
1.599380 0.544887 0.550292
2.801600 -0.344228 0.609270
2.775540 0.551208 0.332752
2.805060 -0.565714 0.464927
1.279960 -0.726862 0.316240
3.792060 -0.266484 0.255906
3.216110 -0.117695 0.452813
3.148710 -0.476197 0.426427
2.472940 -0.338815 0.267468
1.492010 0.752196 0.366751
0.959321 -0.733019 0.325990
2.158230 0.395142 0.258984
1.986430 0.441177 0.600004
0.290592 0.912305 0.433505
3.026460 -0.185829 0.272744
1.520520 0.626241 0.275598
1.837830 -0.714154 0.404986
3.031050 -0.506331 0.315792
2.677330 0.310888 0.348245
1.827310 0.713269 0.477545
3.191620 0.306317 0.610236
2.352250 -0.501790 0.610236
1.193290 0.812015 0.465590
2.696110 0.305165 0.580914
3.202150 -0.461876 0.583215
1.021800 0.704080 0.327089
3.382620 -0.413520 0.572833
1.569950 -0.552772 0.537176
1.761330 0.664817 0.300376
0.547487 -0.831875 0.498769
0.791081 -0.763748 0.497995
1.310470 0.783392 0.377356
3.982500 0.535247 0.649606
0.959468 -0.806712 0.512129
2.233890 0.643507 0.503377
0.486553 -0.845092 0.416296
3.653130 -0.087110 0.610236
1.198690 0.652848 0.304861
3.979280 0.189154 0.255906
3.942930 0.425318 0.649606
1.666160 0.654331 0.289106
1.969780 0.620754 0.584345
3.852050 0.027089 0.255906
2.511030 -0.365103 0.610236
3.943450 0.290781 0.255906
3.518330 0.002831 0.610236
3.760120 0.357595 0.610236
3.606750 -0.343892 0.610236
3.088330 -0.295704 0.610236
1.033830 -0.698165 0.490367
1.872970 -0.471578 0.263005
2.823770 0.244454 0.321975
3.427240 -0.379544 0.343524
1.775920 -0.498744 0.610236
3.420770 -0.239104 0.610236
3.084310 0.493452 0.316223
2.624450 0.299104 0.266594
2.098520 -0.480153 0.255906
2.987910 -0.304014 0.421987
3.049470 -0.430941 0.255906
3.503080 0.193649 0.255906
2.148950 0.494723 0.255906
2.099500 -0.460225 0.610236
3.794020 0.440910 0.415135
2.175870 0.390415 0.609624
2.782540 -0.298125 0.363145
3.332430 -0.426968 0.486464
1.229070 -0.768905 0.521821
2.407360 -0.341057 0.570890
1.545530 -0.705261 0.316196
2.343900 0.622118 0.515006
1.387940 -0.766964 0.499833
0.835990 -0.829621 0.361729
1.689750 0.520673 0.466537
2.486920 0.616058 0.412445
3.348610 -0.289208 0.610236
3.189610 -0.185169 0.610236
3.444270 -0.255292 0.255906
3.107760 0.487168 0.489845
2.085970 0.414504 0.557098
3.058110 0.189270 0.261227
2.589130 -0.426149 0.255906
2.572680 -0.287941 0.501468
1.965480 0.564200 0.255906
3.531000 0.319141 0.596723
2.634310 -0.528678 0.267593
2.355650 0.635841 0.410568
1.246490 0.767592 0.520878
2.038700 -0.610465 0.587168
1.312090 -0.795435 0.410954
3.075070 -0.495928 0.497630
1.652280 -0.657801 0.575431
2.745370 0.473735 0.610236
3.004620 0.297616 0.255906
2.482250 0.322691 0.421374
3.491220 -0.335555 0.610236
3.883610 0.511022 0.577134
3.599150 -0.301145 0.255906
2.370220 0.363925 0.561251
1.855300 0.596965 0.605454
3.634940 -0.346991 0.325310
0.760737 -0.771945 0.388548
3.909880 -0.132364 0.255906
2.218360 0.570234 0.261755
0.376642 0.887357 0.480140
1.759500 -0.684180 0.544019
1.712550 -0.514564 0.401704
1.085380 0.689353 0.513349
0.365936 -0.933818 0.457097
1.136330 -0.671777 0.448307
3.434540 0.399609 0.421175
2.759640 0.286698 0.255906
3.521180 0.228176 0.610236
1.882260 0.697319 0.369463
1.431660 0.715850 0.549139
1.381210 0.603959 0.450928
2.582630 0.603981 0.436902
3.913030 0.536272 0.388913
3.202650 0.440004 0.610236
1.858040 0.475580 0.289297
1.331890 0.706819 0.559165
1.005080 0.744912 0.541076
0.591568 0.908383 0.428059
2.796670 0.567127 0.464073
3.284520 -0.439807 0.335932
3.420800 0.403290 0.304695
1.437480 -0.666211 0.574697
2.845320 0.418178 0.610236
1.503300 0.570631 0.598041
2.082340 0.507270 0.610236
2.847760 -0.556515 0.383661
1.871500 0.483670 0.610236
1.055180 -0.714535 0.317062
3.881700 0.509383 0.239919
1.890670 0.659911 0.553277
1.605800 0.543167 0.359556
2.625750 -0.587298 0.503236
2.915300 0.193209 0.294384
3.001940 -0.506189 0.559420
3.335860 0.046665 0.610236
3.396010 0.266453 0.255906
1.559010 0.709645 0.543081
1.143230 -0.815875 0.471382
1.179680 -0.670569 0.302743
2.906230 -0.519484 0.305716
3.819890 0.216627 0.610236
3.323490 0.358023 0.255906
2.341360 0.610511 0.326067
3.280040 0.441005 0.389092
0.720855 0.877915 0.468570
1.334950 0.617277 0.562714
2.657410 -0.351220 0.610236
2.845670 0.330816 0.255906
2.468510 -0.346494 0.494843
2.337550 0.350607 0.283677
3.181370 0.443464 0.255906
2.868980 -0.240685 0.330037
1.504040 -0.570432 0.308283
0.684554 0.874709 0.388101
3.068770 0.211894 0.353937
1.048150 -0.693579 0.402005
3.100070 0.417279 0.610236
1.544590 0.559569 0.430369
2.627690 0.564017 0.315015
3.217800 0.123980 0.269040
0.573900 -0.821899 0.412012
3.577280 0.248697 0.255906
3.131590 -0.193457 0.352387
2.004940 -0.436217 0.380689
2.729600 -0.325887 0.554558
1.874270 -0.471229 0.390819
3.987350 0.041250 0.610236
1.094970 -0.716207 0.551402
2.855040 0.298957 0.382715
2.892770 0.527767 0.547140
3.473870 0.311981 0.255906
2.684480 -0.309244 0.478971
3.345510 -0.009266 0.255906
0.627401 -0.896371 0.458598
2.555600 0.588692 0.521190
2.547580 -0.320894 0.377548
2.582990 0.500569 0.610236
1.739200 -0.696929 0.333775
3.062990 -0.499165 0.402445
2.549720 0.590903 0.347809
1.716030 -0.563827 0.255906
1.199050 0.750541 0.329211
2.558290 0.302345 0.517339
3.585380 -0.333711 0.430872
1.792590 -0.493117 0.506803
2.804800 0.359544 0.481124
1.387480 -0.708139 0.309393
2.378950 0.489960 0.255906
2.926810 0.399614 0.255906
2.499290 0.553353 0.589365
2.707670 -0.583902 0.443247
1.502290 -0.590446 0.595651
2.326250 -0.370183 0.498838
2.630840 -0.288034 0.270839
3.413850 0.046479 0.255906
3.017820 0.304549 0.430246
0.880395 -0.738164 0.371249
1.540090 -0.676890 0.568519
1.307110 -0.624495 0.486397
3.612310 -0.194137 0.592184
1.375300 0.612434 0.333004
0.817190 0.872587 0.420769
1.391310 -0.608749 0.396142
3.417850 -0.404081 0.260319
3.409820 0.406230 0.604094
0.666519 -0.795104 0.388451
3.022610 0.322739 0.603634
2.748550 -0.436401 0.255906
3.196400 0.156426 0.597334
0.667403 -0.795208 0.482974
1.836400 -0.573694 0.255906
1.717200 -0.736610 0.435642
3.145970 0.181733 0.255906
0.652794 0.799631 0.425926
1.429050 0.618648 0.587147
1.989140 0.535416 0.610236
1.046960 -0.785323 0.521535
1.664450 0.735090 0.382729
1.263660 -0.637986 0.305617
3.309210 0.089946 0.255906
2.260420 -0.577765 0.271155
1.478480 0.577281 0.353611
2.118030 -0.405915 0.512294
1.633590 -0.535722 0.340561
3.078390 -0.403035 0.610236
3.839600 -0.288656 0.610236
2.538940 0.511578 0.255906
2.304530 -0.610897 0.550365
1.821120 0.590575 0.259197
4.022720 0.321118 0.649606
3.166690 -0.176145 0.255906
3.205250 -0.040974 0.350225
1.863550 -0.474104 0.584230
2.022010 -0.671765 0.358075
2.999530 0.516167 0.368869
1.825310 -0.707851 0.491791
2.521740 -0.574412 0.561296
2.190220 -0.388585 0.377465
2.206340 0.636901 0.340633
0.676439 0.802333 0.511697
2.914190 -0.363704 0.255906
1.767630 0.499803 0.295486
1.606780 -0.542903 0.439760
1.655560 0.529834 0.272207
1.395340 0.699083 0.304894
2.229530 0.571604 0.603536
3.425520 -0.067259 0.610236
0.590246 0.821475 0.503211
2.460260 0.351619 0.537046
2.875780 0.547712 0.355359
3.467850 -0.386504 0.433071
2.445830 0.462842 0.610236
2.287240 0.432963 0.610236
2.095630 -0.411917 0.410013
1.447200 -0.589656 0.476611
3.336110 -0.060420 0.610236
2.833400 0.497297 0.259738
1.776120 0.497528 0.509051
1.189950 0.659719 0.448107
2.422170 -0.629208 0.433213
2.944750 -0.530848 0.424853
2.586760 -0.296070 0.608786
3.094620 -0.295501 0.504301
1.984350 0.692885 0.412413
2.737300 -0.441772 0.610236
2.535760 -0.573074 0.306270
3.793200 0.456196 0.590630
2.435710 -0.521244 0.255906
3.003230 -0.239795 0.363922
2.200590 -0.636804 0.527449
3.284500 0.439811 0.297567
2.247610 0.395035 0.260864
2.912740 -0.491894 0.601463
2.918580 0.332957 0.432002
1.158800 0.726517 0.550105
3.450930 0.140398 0.610236
3.586050 -0.097197 0.255906
0.862139 0.745803 0.429683
2.393900 0.364366 0.452641
0.449586 -0.928182 0.418474
2.409730 -0.601506 0.538324
1.599890 0.706742 0.325471
3.906520 -0.008681 0.610236
2.743480 0.402222 0.255906
3.565650 -0.121769 0.610236
2.948340 -0.447268 0.255906
2.109740 0.581275 0.263411
3.674860 0.065529 0.610236
2.262800 0.368731 0.415966
3.379270 0.242493 0.610236
3.311230 0.432649 0.560683
3.152210 -0.291562 0.255906
3.710560 0.076746 0.255906
2.518560 -0.612861 0.442922
3.535240 0.049875 0.255906
2.692120 -0.553008 0.554762
2.551950 -0.471131 0.610236
3.212320 -0.347383 0.610236
2.719930 0.328748 0.471619
3.191060 -0.382223 0.255906
0.769103 -0.867087 0.476555
0.774080 0.785474 0.345815
1.360400 0.772109 0.497360
3.674280 0.194893 0.610236
2.830260 -0.473700 0.255906
0.487504 0.911459 0.401223
2.208120 -0.661904 0.432620
2.052990 0.660656 0.344154
1.699780 0.734976 0.463017
3.825090 0.462505 0.297866
3.884720 -0.139723 0.610236
3.238220 -0.110375 0.610236
2.334910 0.530318 0.610236
3.163660 0.472190 0.381598
1.103570 0.826849 0.458237
1.928890 -0.676394 0.339704
1.284160 0.636964 0.391853
2.336010 -0.636729 0.469471
0.891346 0.750619 0.533207
3.629040 0.282993 0.610236
2.243610 -0.401966 0.309967
2.929520 -0.214553 0.270090
2.028880 -0.429802 0.546580
1.266350 0.639539 0.507360
1.757090 0.502627 0.382730
3.579940 0.113502 0.610236
1.631090 -0.729485 0.505029
2.918460 0.350806 0.604178
1.889770 0.467078 0.388889
3.889970 0.516481 0.473269
1.007990 0.708964 0.442553
2.038740 0.487708 0.255906
2.737440 0.550146 0.547094
2.457500 0.395233 0.255906
2.155050 0.395995 0.414557
2.449450 -0.519609 0.610236
2.921390 -0.537105 0.510815
2.357650 -0.356669 0.350233
1.763140 0.681659 0.546375
0.945091 -0.724083 0.536164
3.698260 -0.100420 0.255906
1.023210 -0.832953 0.394551
1.614100 -0.748227 0.404127
1.288780 -0.706650 0.558018
3.123030 0.263315 0.554603
3.174250 0.212641 0.488571
2.341440 -0.608501 0.321883
2.578640 0.291384 0.607377
2.962320 0.240915 0.354418
3.734190 -0.371595 0.255906
3.791600 -0.172505 0.255906
2.010830 -0.434638 0.288337
2.122570 0.619226 0.567123
3.064360 0.396239 0.255906
3.188700 -0.188637 0.512242
1.450040 -0.639885 0.281106
3.286140 0.159608 0.610236
2.168360 -0.620092 0.306398
3.330280 0.427543 0.465448
2.618790 -0.588577 0.364316
1.961290 -0.473562 0.610236
3.821880 0.427329 0.198460
3.953570 0.258379 0.660381
2.999060 0.342964 0.514433
2.235160 -0.476741 0.255906
3.213020 -0.075750 0.255906
1.109420 0.744593 0.324100
2.791260 -0.511104 0.596599
3.146690 0.314823 0.255906
3.004160 0.514927 0.471435
3.669810 -0.225020 0.255906
1.956130 0.449296 0.288667
2.627860 0.392753 0.610236
3.745570 0.145189 0.610236
2.498970 0.309679 0.313920
1.462380 -0.774165 0.422161
3.862540 0.184922 0.255906
3.264670 -0.307249 0.255906
3.866480 0.354370 0.227570
3.858380 0.391448 0.668841
0.491067 0.870564 0.489024
1.362550 -0.622223 0.283925
1.785640 -0.494980 0.290230
3.557720 -0.185647 0.255906
2.713170 0.582972 0.443823
2.641960 0.565235 0.544278
2.203000 -0.564041 0.609402
0.366601 0.902993 0.390510
3.379520 -0.114147 0.255906
2.130990 0.671908 0.421890
0.942806 -0.817457 0.359515
3.613480 0.001573 0.255906
1.553360 -0.756603 0.467993
3.033620 0.503455 0.555593
2.679820 -0.367105 0.255906
2.437280 -0.426640 0.255906
3.688110 0.361237 0.546758
3.725570 0.371273 0.463776
0.537879 -0.914807 0.448528
2.687100 -0.309107 0.349053
2.725960 0.496961 0.255906
2.658650 -0.492141 0.610236
1.911000 -0.461389 0.490626
1.475440 0.578096 0.480062
2.325860 -0.372503 0.610236
1.930590 0.640856 0.296787
3.179480 -0.467951 0.301240
2.195310 -0.391522 0.594452
1.433180 0.779334 0.439364
3.817240 -0.079264 0.610236
1.724630 -0.601616 0.601833
0.994405 0.838738 0.397869
0.532757 0.833193 0.400286
2.426940 0.593473 0.316188
2.418850 0.581670 0.568421
3.329650 -0.398372 0.255906
3.248930 -0.449341 0.475742
2.662370 0.436493 0.255906
1.926860 -0.591747 0.259846
0.899216 0.828298 0.365748
2.113840 -0.673523 0.450873
2.894720 -0.348156 0.440507
1.210810 -0.654117 0.495014
1.634830 -0.622138 0.272260
3.969780 0.026109 0.255906
0.774667 0.767128 0.504499
3.016020 -0.340119 0.505116
3.589570 0.334834 0.528549
3.202490 0.020013 0.560872
3.053490 -0.320806 0.255906
0.700083 -0.881812 0.399468
2.388110 0.374252 0.353529
1.251230 -0.643671 0.412062
3.749410 0.019879 0.610236
0.294225 -0.925866 0.405169
1.318870 -0.625868 0.578535
3.201040 -0.009032 0.457647
0.898624 0.735830 0.347082
2.514510 0.352175 0.610236
2.711350 -0.570502 0.353802
2.906570 0.541075 0.446326
1.756090 0.716698 0.372016
1.802020 -0.647868 0.291059
3.268170 -0.226767 0.610236
1.602770 0.624534 0.592675
3.694790 0.329874 0.284136
2.940490 0.511056 0.298397
2.075720 -0.602628 0.275268
0.861991 -0.848544 0.483806
0.944547 0.825964 0.496716
3.265920 0.351404 0.610236
2.443530 -0.603916 0.343050
3.204460 0.035026 0.298516
2.422080 -0.427221 0.610236
1.468180 -0.739295 0.522074
2.918110 -0.360499 0.538403
1.873840 -0.562483 0.610236
3.526670 0.374922 0.390213
1.081630 0.687188 0.398660
2.188650 0.490174 0.610236
3.897700 0.101528 0.610236
1.918140 -0.676292 0.529893
2.053300 0.663837 0.515236
2.970710 -0.380778 0.610236
3.369860 -0.416939 0.397834
2.963310 0.452117 0.610236
2.829220 -0.300828 0.255906
1.671290 -0.525619 0.552061
3.436390 0.383333 0.512367
3.240100 0.451708 0.508519
3.396690 0.173711 0.255906
1.157180 -0.794543 0.363416
1.547150 0.760827 0.446467
3.745170 -0.174817 0.610236
3.536150 -0.372382 0.514187
3.513340 -0.237826 0.610236
3.809760 -0.083072 0.277996
1.753360 0.516054 0.610236
3.721060 0.268702 0.610236
3.300960 -0.400776 0.610236
3.687140 -0.241356 0.610236
2.334020 -0.388794 0.255906
3.236490 0.307177 0.255906
1.883010 0.468888 0.503871
3.266350 0.202359 0.255906
1.818010 -0.626197 0.587947
2.149670 -0.401035 0.255906
2.267950 -0.461828 0.610236
2.596330 0.301598 0.410806
3.447220 0.296691 0.591256
3.913540 -0.041471 0.255906
2.009680 0.434947 0.508445
2.567220 0.407052 0.255906
2.762800 -0.534323 0.293559
3.341370 -0.173494 0.610236
1.526300 -0.564468 0.404937
0.836331 0.836280 0.499888
0.377905 -0.872372 0.395268
3.610200 0.352538 0.367107
2.646590 0.273929 0.484256
2.454760 -0.348445 0.390253
3.746920 -0.315907 0.605749
3.742540 -0.004486 0.255906
1.939560 0.693896 0.487442
2.340860 -0.488901 0.255906
3.458000 -0.037352 0.255906
2.259810 -0.373901 0.427899
2.741740 -0.257697 0.277014
2.037940 -0.666112 0.515102
3.560530 0.343776 0.255906
0.428993 -0.863293 0.478844
0.955205 -0.718236 0.431230
3.211980 0.092098 0.501559
3.629950 0.118429 0.255906
3.296940 -0.141809 0.255906
2.070360 0.418688 0.298442
1.739070 0.607754 0.600286
2.259750 0.651113 0.414584
1.976010 -0.518693 0.255906
3.352890 -0.233717 0.255906
3.774000 0.236309 0.255906
1.652030 0.689973 0.552445
3.608650 0.001067 0.610236
2.739310 0.376590 0.610236
2.260800 -0.631267 0.345247
0.879304 -0.738345 0.472660
2.213750 0.402172 0.346008
3.851050 0.479792 0.665572
