ply
format ascii 1.0
element vertex 1463
property float x
property float y
property float z
end_header
4.242470 -0.697686 0.959948
6.845460 2.021170 0.656564
7.348750 -2.066860 0.667460
5.426160 1.049210 0.346871
5.104550 -1.034040 0.649606
6.944300 1.861310 0.154859
5.965640 -1.863040 0.604889
7.232650 1.610580 0.386067
4.122750 0.724735 0.900267
5.407820 -1.704400 0.328322
4.092090 1.029880 0.770026
6.425630 -1.784790 0.155853
5.759450 1.200020 0.453426
3.981580 0.512523 0.216535
5.336810 1.048530 0.649606
4.003840 1.140460 0.432426
6.274560 1.979360 0.308290
7.225680 -2.135650 0.272971
7.215790 -2.180410 0.466265
6.407120 -2.017540 0.546887
5.636590 1.147230 0.220345
4.484980 1.273100 0.456112
4.534120 0.859061 0.753072
5.469090 -1.192230 0.649606
4.354160 0.381100 0.347828
3.890120 -0.516609 0.454760
3.890640 -0.901109 0.361186
4.092660 0.627088 0.108856
7.206600 1.606560 0.473422
6.669940 -1.791780 0.157413
4.668580 -0.609724 0.353185
4.831390 0.723692 0.216535
5.320740 -1.004000 0.216535
5.994360 1.832140 0.222071
4.231060 -0.556147 0.861096
5.750410 -1.412240 0.668596
6.019620 -1.916740 0.542215
4.745780 -1.205020 0.168320
4.569260 -0.541036 0.556923
6.729050 -1.735490 0.694375
4.527680 -1.203720 0.235581
5.141180 -0.900539 0.648080
5.629150 1.424310 0.697919
5.162690 1.427730 0.692949
7.158170 2.169900 0.489806
4.399140 0.751985 0.864289
4.714050 0.640358 0.234181
5.667280 1.815510 0.357425
7.653600 1.906480 0.184220
4.605720 -0.566250 0.403557
4.593190 -1.222150 0.644231
4.116620 0.187221 0.584771
3.945310 -0.826952 0.466414
6.552340 1.839260 0.705864
5.551020 1.196340 0.216535
4.811310 0.703932 0.499749
5.339860 -1.324720 0.162841
6.964520 -2.118410 0.306681
4.148250 -0.551683 0.798961
6.618530 -2.003510 0.631197
3.983860 -0.552587 0.649606
4.489120 -1.277680 0.427189
5.930400 -1.673020 0.705375
5.471030 1.070810 0.228186
4.634270 -0.729568 0.216535
6.561950 1.947500 0.666664
6.703600 1.528630 0.216535
3.978540 -0.824700 0.062918
5.912310 1.898530 0.504176
4.801750 0.768489 0.649606
7.569020 -1.650970 0.450471
5.395000 -1.518810 0.697852
5.674290 -1.683300 0.194797
6.269130 -1.998830 0.350541
7.049190 1.584060 0.216535
7.591400 -1.811520 0.197147
3.973190 -0.789131 0.758954
6.859840 2.085850 0.591931
6.413380 -1.827040 0.702294
3.851050 0.479792 0.665572
6.187130 1.977570 0.513650
6.211150 1.684670 0.157037
5.220090 -1.219210 0.683079
4.131760 0.962340 0.845982
5.015860 -1.332320 0.166118
5.323350 0.997618 0.405052
3.997940 -0.325631 0.216535
4.219010 -1.186340 0.456043
6.045860 1.665250 0.712705
4.145860 0.212313 0.479912
7.033870 -2.064310 0.642571
7.685720 -1.660760 0.531455
4.500700 1.206260 0.619616
4.357320 0.644242 0.782693
5.201600 0.933603 0.254331
4.702960 -1.271470 0.656037
5.879450 -1.474610 0.189015
4.988310 -1.412350 0.660296
5.897240 1.255630 0.540163
5.989600 1.325050 0.649606
6.043190 1.921970 0.545360
7.296280 2.184570 0.374364
5.823600 -1.637690 0.705335
4.109030 -0.710607 -0.023472
7.728910 -2.104210 0.326455
3.890200 -0.381355 0.660604
5.633900 -1.146020 0.472270
3.892560 1.016390 0.343731
6.305590 1.427960 0.216535
6.926710 2.037950 0.213524
5.546770 1.687600 0.231914
7.716840 -1.791150 0.279670
6.566830 -1.498640 0.649606
6.568420 -2.052220 0.316713
7.552150 2.110470 0.217028
5.870340 1.604320 0.153972
7.776670 -1.797640 0.417998
4.640690 1.360600 0.415890
7.354950 1.627290 0.249597
5.466110 -1.365200 0.701166
6.027220 1.556050 0.694044
7.461120 -2.173880 0.306083
6.240620 -1.909870 0.636205
7.260950 1.856100 0.705104
3.919210 0.862352 0.619614
4.388240 -1.209620 0.316652
4.964480 0.799044 0.648034
5.632630 -1.447960 0.162578
5.912040 -1.450080 0.658783
4.865470 -0.737949 0.250335
5.538370 -1.325680 0.666577
4.909290 -1.494590 0.491613
7.650930 -1.697590 0.617003
7.603780 -2.106260 0.642703
3.948950 0.950768 0.724278
4.250560 0.703215 -0.096491
4.218960 0.273231 0.483465
7.715860 1.951680 0.644385
4.935150 1.048820 0.669847
3.945740 -1.115780 0.448279
5.582780 1.123030 0.623528
6.517640 -1.933450 0.196966
4.640990 0.590642 0.646734
6.302500 -1.397840 0.366121
5.711070 -1.840520 0.449674
7.230190 -1.610250 0.440997
4.935170 0.787889 0.216535
4.199320 -0.257248 0.503251
6.146690 1.347040 0.373351
6.800620 1.603580 0.649606
6.648950 1.501410 0.649606
4.112290 -1.011020 0.794071
5.576750 1.489310 0.154976
5.364830 -1.018930 0.560174
6.431460 1.730280 0.707653
4.534680 -0.826756 0.117709
4.049970 -0.770201 0.863573
6.328480 -1.916070 0.653004
4.296420 0.446962 0.649606
4.361420 -1.109420 0.182490
5.507440 -1.589310 0.686475
4.054610 0.412863 0.216535
4.273930 -0.317983 0.337895
6.135930 -1.795320 0.175889
6.947780 1.701950 0.655816
4.392550 0.410724 0.248899
7.040200 -2.097170 0.256208
7.768350 1.988450 0.571175
7.464890 1.665440 0.649606
6.725850 -1.858300 0.708840
6.842520 -1.539380 0.479004
3.887810 -0.919049 0.658598
4.484320 -0.770930 0.749311
7.535930 1.709060 0.216535
5.022150 -0.848490 0.649606
5.617560 -1.352350 0.202399
6.952380 1.977750 0.688481
6.616470 -1.700410 0.177942
4.371450 1.071290 0.720783
4.261660 0.307987 0.225329
4.100040 0.803938 -0.033024
4.057310 0.899052 0.010212
7.185400 2.006200 0.690417
4.125080 0.309550 0.649606
7.384510 2.187260 0.344255
4.469430 1.113240 0.691661
4.050560 -0.885831 0.014051
7.473670 -1.641130 0.273241
5.917620 -1.897350 0.346808
6.765040 -2.015970 0.647111
4.086790 -0.807495 -0.022303
4.819840 -1.447570 0.503355
7.119000 -1.592250 0.442819
4.923060 -0.952985 0.649606
6.011960 1.299200 0.249467
5.977430 -1.496570 0.194553
6.022270 1.723290 0.164388
7.116820 1.591900 0.558467
5.383660 -1.717740 0.423034
7.029500 -1.576680 0.348022
5.458380 1.646470 0.640485
6.739920 1.931950 0.172642
7.299380 -2.184930 0.374628
7.503790 1.923010 0.155203
4.340210 1.032550 0.110124
4.612920 1.085910 0.704713
5.318020 1.011990 0.216535
4.644750 -1.326880 0.559704
7.177630 -1.766150 0.672652
4.013770 -1.114830 0.267264
4.027730 -1.099670 0.637334
4.834250 1.262830 0.693629
3.955210 1.109470 0.339346
4.206230 -0.262871 0.217146
6.021600 -1.302660 0.525860
5.948130 -1.302590 0.216535
4.142590 0.239527 0.216535
7.656150 1.658460 0.250619
7.182240 1.935410 0.158383
6.559460 1.994770 0.238513
5.041350 1.422910 0.667766
5.910080 -1.898160 0.502034
5.588050 -1.209020 0.216535
4.201890 0.259337 0.285722
6.769450 -2.074420 0.582790
6.017520 1.301190 0.380858
4.002840 -1.057090 0.146612
4.460950 0.500813 0.216535
5.523740 1.567750 0.698461
6.700970 -1.938980 0.180020
7.178330 -2.019590 0.183270
5.114630 -1.498310 0.639764
6.780180 -2.118690 0.457938
4.722590 0.828937 0.649606
4.504500 0.494070 0.394851
7.022780 -1.797520 0.700753
4.693980 -0.627235 0.553319
6.619780 -1.490710 0.216535
5.989910 1.552230 0.167921
5.101920 -0.878989 0.431571
7.095400 1.865500 0.157195
7.438990 1.637310 0.217524
4.907220 0.763708 0.327591
6.273590 -1.819930 0.169151
5.060350 1.116440 0.671016
4.929890 0.891482 0.649606
5.861860 -1.791310 0.642579
6.250400 -1.983390 0.537763
5.058540 0.853752 0.629149
5.798430 1.781040 0.234162
6.101410 1.959720 0.477109
5.534020 1.701720 0.616048
4.438630 -0.708889 0.049818
7.683390 2.033080 0.648775
4.306700 0.601013 0.903076
5.644860 -1.150950 0.324063
5.721100 -1.360340 0.216535
5.107160 1.316220 0.709979
3.975870 -1.117600 0.542080
5.166180 -0.914219 0.537629
6.658530 2.012270 0.235384
7.106520 1.590210 0.415956
6.578620 -1.633250 0.656874
3.923760 -1.012850 0.622250
4.608310 0.568040 0.217673
6.080070 -1.430110 0.216535
5.795630 -1.789290 0.243103
5.456830 -1.454080 0.712785
5.424670 1.048500 0.626251
4.742390 -0.734606 0.649606
4.212840 -0.268248 0.395453
5.259140 -1.659530 0.386616
6.327770 1.405440 0.555980
7.160900 -1.605970 0.216535
4.201350 -1.135250 0.626530
5.006000 -1.207510 0.158003
4.097220 1.142370 0.570240
4.360800 -0.990532 0.082401
7.326150 2.004330 0.698114
5.858880 1.787340 0.645528
4.806290 -0.700650 0.324435
4.351280 -1.180870 0.577251
3.797460 -0.462427 0.407058
7.497490 -2.089180 0.662030
6.296520 -2.018980 0.430902
5.945520 -1.810790 0.216459
6.057840 -1.315650 0.610722
4.999680 -1.503210 0.575178
4.323290 0.357283 0.262094
4.375110 1.209620 0.326148
5.187380 -1.004530 0.649606
7.386320 1.631510 0.572668
5.211170 1.389260 0.160132
7.500990 -2.057070 0.186922
6.012510 -1.938510 0.448226
4.725960 0.648140 0.579268
7.461790 -1.639820 0.381517
4.714430 -1.392400 0.369526
7.383100 2.140160 0.260393
4.188590 -0.911234 -0.009554
6.929300 -2.042880 0.648022
4.401800 -0.794943 0.852126
5.000660 1.409930 0.201741
4.859760 -1.379840 0.232235
5.848190 -1.236580 0.331752
4.169430 1.163800 0.327718
3.993730 -0.761278 0.310797
7.745500 -1.861830 0.603793
5.148750 0.904680 0.481587
4.041010 0.771540 0.856439
6.085940 -1.864590 0.227642
7.379240 -1.701630 0.649606
6.795590 -1.685800 0.204736
4.678120 -1.312510 0.259332
5.422880 -1.294300 0.674993
6.604390 -2.086650 0.417206
7.142880 -1.868060 0.157647
4.250040 -1.032580 0.772702
5.984960 -1.880540 0.273753
6.227190 1.373570 0.267570
4.144490 0.211138 0.343858
6.333940 1.660320 0.164204
7.536850 2.210030 0.408804
6.431550 1.436660 0.646308
3.904930 0.968049 0.229654
4.864360 -0.737261 0.609085
6.080410 -1.326790 0.216535
4.620220 1.315510 0.310979
4.347790 -1.033750 0.753698
5.805820 1.635880 0.704581
4.519390 -0.943020 0.116801
4.657410 0.601997 0.448731
3.955110 -0.813660 0.380782
4.932980 -0.803721 0.649606
5.488370 -1.079160 0.220380
5.453160 1.613520 0.202523
7.094420 2.121620 0.277099
4.930980 -0.778370 0.544725
5.650340 1.153410 0.379226
4.706370 -0.635335 0.220337
7.192740 1.847350 0.161139
3.912890 0.870927 0.243175
4.618770 -0.796287 0.649606
7.485280 1.915150 0.710099
6.472970 -1.960020 0.643428
7.133950 1.594690 0.333568
7.055300 -1.907160 0.156209
5.243260 -1.597300 0.601515
6.256780 1.383320 0.391639
5.004360 1.520270 0.548274
7.225670 -1.609630 0.587339
4.270770 -0.670083 -0.094110
4.020510 -0.954831 0.064275
7.786450 -1.934360 0.313520
4.102000 -0.622567 0.865223
4.616110 0.573434 0.565204
4.648540 -0.943169 0.707448
6.220990 1.648790 0.704266
4.637580 -1.136540 0.167239
6.332860 -1.922810 0.218683
6.726460 2.086710 0.322886
6.271640 1.408470 0.649606
7.673140 1.659700 0.547701
4.402580 -0.679041 0.864328
4.797110 -1.426710 0.337032
5.299450 1.626560 0.597195
5.867700 1.864410 0.314457
6.609150 2.064380 0.323938
4.791300 1.410230 0.552692
4.598960 1.041550 0.147706
7.349860 -1.846150 0.163491
7.571770 -2.118630 0.228449
6.447810 2.019450 0.561831
6.163740 -1.974380 0.495212
5.103220 1.499550 0.633626
4.996450 -0.955656 0.216535
5.789310 -1.616380 0.159199
5.090940 -1.367880 0.700217
5.136950 -1.361870 0.161371
5.167870 -0.915141 0.342155
7.390240 -1.631940 0.540622
4.310360 0.874422 0.003689
4.194240 0.253109 0.597588
5.528490 1.098470 0.308300
5.365610 1.700870 0.499650
4.350570 -0.632747 -0.023668
5.118690 1.496180 0.222627
7.189840 -1.603820 0.349765
7.217690 -1.919860 0.711384
5.428730 1.340060 0.169746
5.304490 -1.639690 0.287132
5.861990 -1.241940 0.580394
7.221440 1.645140 0.216535
4.192170 -0.796623 0.943693
4.401870 0.426757 0.649606
6.426750 1.992400 0.265943
4.480430 0.999218 0.742724
4.233440 0.996855 0.802814
4.423680 -1.237140 0.520114
6.080830 1.543530 0.187392
4.799810 -1.318990 0.207527
5.726960 -1.499860 0.160605
6.475310 1.923450 0.669193
5.855690 -1.718120 0.180514
5.498820 1.096180 0.649606
4.269410 -1.118700 0.195556
7.058390 -2.164920 0.425791
7.726200 1.780590 0.377114
6.786800 1.527260 0.266867
3.842250 -0.493551 0.256078
4.616040 0.683410 0.216535
6.838670 1.580110 0.216535
5.212270 0.939441 0.645883
5.550980 1.356110 0.679248
6.375310 -1.672400 0.702088
6.809550 2.124440 0.410949
7.158800 -1.679790 0.649606
3.913690 -1.010140 0.259460
5.082510 -1.561180 0.540778
4.244010 -1.012720 0.077244
6.496010 -1.713090 0.703553
6.759120 1.938890 0.691685
4.486510 -0.480922 0.454651
6.346600 1.684700 0.704586
7.223800 2.154530 0.310964
4.520750 -0.881669 0.756085
7.542540 -1.745680 0.649606
3.984000 -0.323588 0.666422
6.153380 1.943610 0.300804
5.914740 1.262430 0.394315
4.421460 -0.955522 0.781752
6.693760 -2.099240 0.384192
6.297780 1.916420 0.221509
4.191860 -0.826345 -0.064278
4.093820 -0.219262 0.216535
4.389110 0.949571 0.069023
5.546750 1.106830 0.504946
3.945880 0.420949 0.216535
6.923940 1.754480 0.180260
7.628190 1.655930 0.459420
7.603250 1.989800 0.170915
6.664490 1.498350 0.482375
4.260910 0.917011 0.858285
5.927490 1.457140 0.659639
4.108120 0.606109 0.852336
4.992790 0.815513 0.291453
6.310090 -1.400120 0.644666
6.935180 1.558740 0.253373
3.795090 -0.438683 0.589170
6.157950 1.755650 0.163093
6.812230 -1.593270 0.649606
5.946260 -1.274670 0.423530
6.385500 1.925060 0.208744
7.184090 1.619380 0.649606
4.618670 -1.339810 0.369869
7.071460 -1.584490 0.567860
5.124560 1.595110 0.357755
7.511660 2.127710 0.628361
5.774570 1.206350 0.570392
4.714070 0.703923 0.649606
5.014550 1.061180 0.210695
4.534680 0.844839 0.109931
5.582360 1.576310 0.165313
5.397770 1.717140 0.385170
5.187260 -1.616200 0.527728
3.972530 -0.790027 0.174313
4.724720 0.876167 0.216535
4.050150 0.203212 0.655398
6.422920 -1.434060 0.576331
7.285880 1.824930 0.168653
7.289530 -1.618350 0.513838
4.106280 -0.178346 0.410393
5.590660 -1.633860 0.680211
4.728920 1.044680 0.159537
4.819780 -0.822564 0.216535
7.316330 1.622020 0.489391
5.313460 0.992536 0.308082
7.695990 -1.777530 0.558788
3.950890 0.819375 0.518809
4.194320 0.536431 0.855468
6.269530 1.875740 0.667701
5.781040 -1.212640 0.649606
6.406650 -2.021060 0.326320
5.919250 1.710080 0.167807
4.203890 1.121860 0.209624
4.958730 -0.795495 0.455903
4.964420 0.799005 0.455838
7.644740 1.657320 0.352759
5.149220 1.309090 0.154359
6.972020 -1.565750 0.609963
5.687920 1.806690 0.545526
6.497410 1.932180 0.198775
7.722500 2.097530 0.557660
5.016200 1.492310 0.263828
4.143260 1.039460 0.104627
4.200990 1.057850 0.742204
5.475840 1.740580 0.344334
6.213110 1.368930 0.510508
4.273320 -1.187080 0.338950
3.956980 0.811119 0.766484
4.057000 0.687968 0.010847
6.325720 -1.404820 0.476610
6.479290 1.474770 0.216535
6.568060 1.474050 0.629052
3.972530 -0.889484 0.778850
7.390470 2.199580 0.453965
4.532710 -0.514685 0.349972
5.332310 1.002220 0.496224
3.965890 0.799037 0.317681
3.879640 1.009260 0.476268
7.200260 -2.072740 0.655614
6.950160 1.561590 0.625936
5.441830 -1.666720 0.251317
4.219880 -0.424609 0.649606
7.102220 -1.601410 0.649606
5.990950 -1.761650 0.685484
4.344980 -0.433093 0.216535
4.149880 -1.103810 0.190376
5.685370 1.783260 0.278016
4.335860 -0.366983 0.471613
4.304980 0.601144 -0.008227
4.107160 -0.607409 0.035813
4.213770 0.269006 0.380319
4.606510 0.732931 0.649606
6.353100 2.029080 0.458554
5.733760 -1.189270 0.384610
5.945850 1.918030 0.415701
6.079510 -1.433750 0.649606
5.071870 1.243330 0.157689
4.718450 -0.997822 0.701984
3.960160 1.118980 0.507521
5.315000 1.496030 0.692937
6.897250 -1.761750 0.692051
5.913340 1.577340 0.707063
7.434020 2.034530 0.177621
6.860670 1.543320 0.592384
7.130570 -2.117750 0.265416
5.416590 1.544810 0.690127
6.103400 1.627010 0.160318
5.965110 -1.281990 0.608021
4.025970 -0.717541 0.120647
4.213290 -0.437963 0.216535
4.239850 -0.867296 0.892908
5.614270 1.806990 0.445296
6.992690 -1.712220 0.657606
6.031440 1.306190 0.553649
7.469890 1.640720 0.426857
6.704190 -2.015660 0.229845
4.710240 1.294560 0.638794
6.429350 -1.917560 0.199507
4.577280 1.249950 0.611358
6.243090 -1.943120 0.262291
6.724620 1.684230 0.667701
7.465250 -1.640200 0.493793
6.376200 1.825750 0.700973
4.508650 -0.501280 0.216535
6.607580 1.758320 0.706121
6.936870 -2.109140 0.569366
4.687050 -1.065130 0.154530
4.945030 -1.116400 0.166580
3.898440 -0.505153 0.649606
4.188320 0.957122 0.025432
4.736740 0.785459 0.216535
4.061890 -0.668813 0.753695
4.845900 -1.091240 0.704446
7.650160 -2.049860 0.209612
4.588980 0.836524 0.684664
7.287840 -1.745470 0.211544
4.534850 0.516245 0.524798
7.804250 -1.978490 0.475550
4.109150 1.097170 0.191534
5.035360 0.875742 0.216535
6.331680 1.479270 0.649606
5.698670 -1.184900 0.649606
5.825630 -1.855150 0.543711
7.626030 1.801630 0.655261
6.604620 -1.737830 0.703589
4.429070 0.700619 0.795041
6.896560 -1.649730 0.649606
4.005890 -0.517571 0.216535
6.932640 -1.921500 0.162180
6.363200 -1.714480 0.158359
7.016010 -1.574120 0.487759
7.293790 1.618940 0.646998
4.769110 -1.216360 0.698009
5.259280 -1.059910 0.649606
4.699420 1.001510 0.703626
6.611360 -1.930790 0.680740
7.731920 1.804880 0.290411
4.291400 0.792018 -0.040928
7.263670 -1.683500 0.649606
6.374850 -1.419600 0.297922
4.898050 1.397870 0.635026
4.305960 -0.598513 0.915892
5.800870 1.843200 0.550962
6.984730 -1.725090 0.200997
5.327050 -0.999519 0.351533
5.659720 -1.357070 0.658029
5.710030 1.371060 0.655478
5.170890 -1.107080 0.649606
4.760630 1.285160 0.201505
7.569540 1.651010 0.633072
6.236380 1.751640 0.707594
4.142720 -1.013340 0.073355
7.452120 -1.782680 0.666269
5.526930 -1.106300 0.649606
5.007060 1.343010 0.697567
7.734540 2.122710 0.459943
5.407310 -1.596050 0.203139
4.332450 -0.695749 0.917999
4.317820 -1.208130 0.417930
5.579430 1.235790 0.649606
4.062690 -0.205001 0.667295
6.995190 2.155300 0.419705
6.468200 -1.986580 0.250375
4.446180 -0.869357 0.806084
7.206940 2.100810 0.627837
5.763120 -1.848840 0.356888
4.598610 -1.101460 0.701997
4.443210 1.167770 0.225701
6.793720 1.736660 0.688672
6.270960 2.001690 0.500881
7.078470 1.968960 0.166828
7.557210 -1.649980 0.333720
7.758830 -2.051490 0.546803
7.023180 2.147960 0.518695
4.914540 1.460230 0.576095
7.289790 1.926100 0.154532
7.774860 -1.842740 0.328966
4.893480 -1.486020 0.370990
6.967940 -1.564970 0.256715
4.418630 -0.430842 0.302565
6.927990 -1.557380 0.514158
5.699380 1.731510 0.646512
5.842690 -1.886350 0.423667
4.329740 1.133750 0.653940
5.839960 1.318770 0.649606
5.811120 1.692280 0.175275
5.234480 1.528080 0.660077
7.083190 1.752510 0.671803
3.890000 -0.901967 0.243923
7.733350 2.070140 0.298309
4.262550 0.356016 0.649606
4.857780 -1.391350 0.622436
3.879790 -0.381131 0.198953
4.724630 -0.647271 0.647992
6.080150 -1.954250 0.393536
5.978130 -1.566340 0.703133
6.139340 -1.344620 0.414939
6.316020 -1.408510 0.216535
4.695360 -1.088680 0.711675
6.157930 1.437000 0.216535
4.466380 0.466213 0.578459
5.231760 1.505260 0.195521
7.425090 1.821100 0.178046
5.642210 1.305420 0.649606
6.591200 1.856240 0.161861
6.966580 1.564710 0.442340
7.255760 -1.839270 0.163148
5.368520 1.250940 0.665332
6.547100 -1.627170 0.208561
7.532760 2.202130 0.505954
6.487960 2.051780 0.350970
7.059100 -2.000770 0.181373
4.504100 -1.265730 0.338610
7.637740 1.967670 0.689544
5.299790 1.099610 0.216535
4.483240 0.794305 0.801566
4.561180 1.303310 0.517109
6.197370 -1.393310 0.649606
5.242270 -1.586980 0.255338
7.521040 1.746500 0.649606
4.903490 0.903022 0.216535
4.499800 -1.232270 0.587821
5.388120 -1.030900 0.275257
6.799430 -1.941470 0.171986
3.957880 1.067660 0.240411
6.270620 -1.479080 0.649606
6.527590 -1.463010 0.237303
6.053740 1.760040 0.696053
4.947970 1.510780 0.355851
4.256670 0.693858 0.962574
6.041940 -1.309950 0.388136
6.528300 -2.040770 0.555504
5.071440 -1.425900 0.192996
5.755040 1.594130 0.157430
5.172870 1.575970 0.276264
5.238500 1.654920 0.453328
5.758970 -1.745460 0.653128
7.370680 2.108170 0.637256
4.980490 -1.539020 0.440400
4.935640 1.095040 0.174373
5.158630 -1.184570 0.185864
7.639040 -2.192850 0.436597
7.741590 -1.876310 0.252231
3.959290 -0.915408 0.114076
7.444870 2.046240 0.682732
5.517100 -1.532570 0.162210
6.338180 1.408570 0.362048
5.562600 1.318940 0.207894
3.959420 -0.574468 0.562248
4.381890 -0.768561 -0.004544
4.272760 -1.115150 0.674987
7.410110 -1.958760 0.158312
4.569660 -0.716125 0.649606
7.625070 -2.013180 0.685344
4.908920 1.183990 0.711208
5.894710 1.853450 0.589056
7.518830 -1.891190 0.706664
7.121470 -2.165530 0.487760
6.340930 -1.983270 0.282854
7.238950 -1.611440 0.272539
4.852080 1.343410 0.205843
3.987790 0.769333 0.165170
7.115550 1.686880 0.216535
4.656930 0.601663 0.334583
5.760460 1.517040 0.706156
5.409370 -1.597750 0.662578
7.675780 -1.947630 0.191934
4.436750 -1.170350 0.635784
4.390500 0.409142 0.546133
5.601050 -1.495260 0.710771
5.834380 -1.291860 0.649606
4.184370 -0.277006 0.649606
4.965640 -0.799720 0.331588
4.319020 1.205060 0.395619
6.014550 1.928270 0.351085
4.720650 1.167210 0.164603
5.568180 1.116470 0.409678
4.620660 -0.576587 0.221989
5.412750 -1.048340 0.649606
5.529890 -1.420670 0.160972
4.202520 0.380197 0.216535
5.219680 1.161980 0.210993
6.681810 -1.503480 0.649606
5.114770 -0.907996 0.216535
7.698310 -1.736510 0.443644
3.968750 -0.795157 0.654999
7.649960 -1.657760 0.364945
7.774430 1.890170 0.297739
7.774860 1.810300 0.496840
6.090100 -1.327220 0.314125
6.181730 1.860150 0.202309
5.150680 1.617490 0.446696
4.071380 -0.874378 0.869443
4.718520 1.139210 0.705773
5.488160 -1.079060 0.533178
5.050110 -1.073020 0.213631
6.698130 -1.506580 0.538262
5.179560 1.228340 0.169249
4.835040 0.863544 0.649606
4.537210 0.517973 0.285229
6.127040 1.612750 0.703182
5.131920 1.001090 0.649606
6.869190 -2.134660 0.412068
5.577120 1.756420 0.563880
5.324900 -1.230680 0.201358
6.263760 -1.782820 0.703376
6.859500 -2.074990 0.604526
7.302460 -2.154530 0.571053
6.657420 -2.073230 0.544546
4.804660 0.968710 0.665862
6.758460 -1.818640 0.156209
5.453690 1.448690 0.153851
5.485170 -1.757400 0.449931
5.256990 1.419780 0.704376
6.914120 -1.554740 0.409154
6.969970 2.105570 0.279623
4.199670 1.116430 0.666836
3.848470 -0.492588 0.530735
7.011660 -2.144340 0.522547
7.401600 1.906220 0.156387
7.102470 -1.998310 0.688995
4.058410 0.915982 0.855086
4.179420 -0.956585 0.842576
3.979400 1.029820 0.157343
5.477990 1.755310 0.446169
6.125220 -1.673300 0.155332
7.477300 2.189440 0.334717
4.912750 1.505290 0.440188
5.665850 1.499030 0.157893
6.653880 1.862950 0.705409
3.962740 1.042300 0.663537
4.440770 0.842067 0.049873
6.196090 -1.363320 0.544295
6.174120 -1.877000 0.214673
7.724460 1.797680 0.580601
4.979550 1.231190 0.153705
7.044550 1.579540 0.308581
4.270140 0.985481 0.061367
6.168790 1.811920 0.686658
7.538500 1.648280 0.527708
4.943620 0.989208 0.216535
5.025230 1.209980 0.707302
4.581430 0.930895 0.134418
6.709080 -1.573390 0.216535
5.159160 -1.049080 0.216535
5.782200 -1.209540 0.524281
4.884000 -1.297370 0.689934
7.518230 -1.886330 0.160102
4.053140 0.097608 0.262028
7.032510 1.577250 0.526713
4.428690 1.217240 0.564493
4.525800 1.209350 0.241829
7.352890 -1.627010 0.327094
3.886460 0.969016 0.601170
4.047940 0.687735 0.748455
5.360690 -1.133810 0.649606
4.367430 1.105160 0.177292
6.882430 1.859840 0.712334
6.067630 -1.858370 0.639376
4.930720 1.319540 0.175470
7.068780 2.026510 0.671829
7.471400 -2.202690 0.393263
4.868130 -1.057850 0.174854
4.341680 -0.371474 0.354889
6.736360 -1.515940 0.383591
5.974230 1.285530 0.478793
5.902640 -1.617470 0.153683
7.158970 -2.169080 0.370476
5.766210 1.202850 0.327984
7.021170 1.689810 0.216535
4.598290 -0.629672 0.649606
6.429990 -1.467500 0.216535
6.814120 -2.078600 0.275665
6.106480 -1.557640 0.184026
5.679230 -1.214010 0.216535
4.333330 0.704369 0.915347
6.635670 1.673230 0.194457
4.192550 0.584053 -0.019372
6.658390 2.093930 0.392336
5.516960 -1.092920 0.391811
7.121710 -2.104920 0.612645
5.251320 -0.960602 0.393615
7.392150 -1.955530 0.708160
5.927120 1.267240 0.625606
4.566110 1.312820 0.386453
7.342810 2.009450 0.168648
4.118600 -1.108580 0.653759
5.616080 -1.772500 0.561352
6.029960 1.835970 0.650640
6.323420 -1.503730 0.216535
5.537970 -1.102890 0.290724
5.323160 -1.267460 0.683389
5.790920 1.731480 0.667615
6.075070 1.321830 0.315357
7.785920 2.038740 0.372134
3.938500 -0.836186 0.285819
5.459160 1.719400 0.548864
5.399970 -1.036610 0.417540
4.175530 -0.534077 0.011677
4.059490 0.049430 0.367621
6.109680 1.343970 0.649606
4.719350 1.398040 0.386577
4.716250 -0.811378 0.216535
5.073110 1.546060 0.305998
5.225120 -0.946476 0.481106
4.318690 -0.353733 0.269266
5.498140 -1.622570 0.197930
6.543500 1.585540 0.649606
6.766880 -1.522930 0.600855
4.796200 -1.323500 0.654289
6.653650 2.020010 0.621957
5.595440 -1.202040 0.649606
3.989040 -0.598582 0.302630
5.069380 0.969029 0.216535
5.155930 -1.428250 0.691167
4.582430 -1.322460 0.477800
7.791920 2.030160 0.483065
7.328420 2.173430 0.538646
6.529160 2.007510 0.608482
5.538670 -1.726910 0.274246
5.717620 -1.522040 0.708665
7.704500 -2.010390 0.638406
4.142050 -0.209050 0.579610
7.038360 2.069340 0.228106
7.672910 -1.662500 0.268439
5.379690 -1.413150 0.711749
5.851100 -1.334180 0.216535
4.125660 -0.194975 0.304245
5.760200 -1.810540 0.585893
4.670740 1.288730 0.241872
7.053820 1.944620 0.703138
3.919030 1.050280 0.545448
4.057820 1.074940 0.702338
3.938530 0.836143 0.126497
5.428520 -1.667840 0.608592
4.633630 1.210780 0.666293
4.206550 -1.151300 0.273077
7.322980 -1.622930 0.416905
5.260630 1.593990 0.254349
6.873140 -1.546030 0.232521
7.558690 -1.650100 0.238821
6.111000 1.336470 0.216535
5.386530 1.667530 0.590037
6.647930 -1.494290 0.307885
4.491760 -0.744179 0.144744
4.857390 0.732962 0.399201
4.516870 1.130040 0.180220
3.887050 -1.029420 0.441602
4.525070 -1.053650 0.143165
5.995260 -1.409210 0.649606
6.346800 1.845300 0.172297
6.970670 1.953450 0.166871
5.146600 1.097790 0.649606
5.188140 -1.613780 0.333278
6.049460 1.421450 0.216535
6.400190 -2.041010 0.412875
6.330020 1.601500 0.672220
5.701370 1.837960 0.444639
4.464940 0.465156 0.305200
6.286520 -1.393030 0.558381
4.331950 -0.859982 0.861214
5.347360 1.255600 0.193897
5.994670 -1.621270 0.156857
6.924020 -1.854950 0.710867
5.214600 1.636840 0.368198
6.345080 -1.582780 0.660346
7.457860 -1.639390 0.628201
7.021500 1.608170 0.649606
4.821700 1.406600 0.278292
4.102790 -0.957732 0.011901
5.168330 1.197030 0.684143
7.655180 -2.168360 0.344986
4.310370 -1.059950 0.125420
3.996770 -0.231144 0.265982
6.227750 -1.614290 0.693200
4.926960 1.440870 0.257221
6.812060 -1.827200 0.709786
4.250960 -0.299284 0.570094
6.625910 1.488900 0.395997
5.701980 1.305410 0.216535
4.020790 1.121890 0.280973
6.497960 2.063110 0.457672
4.200640 1.166120 0.559035
7.366560 1.756020 0.655984
5.311240 1.676670 0.354640
7.371490 1.708580 0.216535
3.934250 -1.082900 0.357969
4.099490 0.172515 0.264609
6.651210 1.602900 0.649606
6.621800 -1.487900 0.580362
7.061090 2.153870 0.353176
6.098820 -1.932000 0.308927
6.561220 1.682500 0.684977
4.629940 0.777344 0.216535
6.117770 1.903690 0.609104
5.812810 1.873220 0.401736
7.622210 2.150810 0.282062
6.936840 2.136320 0.509732
6.629060 1.936810 0.186621
4.787240 1.350950 0.625111
4.668420 -0.609614 0.446414
3.967840 0.581321 0.549921
4.059910 -0.046222 0.603580
6.806610 1.814370 0.157871
4.144430 0.448180 0.216535
6.100950 -1.725650 0.705391
7.220920 -1.925380 0.155680
4.737540 -0.893073 0.649606
7.437660 -2.153940 0.595832
4.288340 0.329710 0.467997
6.329440 -1.627290 0.180344
6.287530 1.781240 0.161388
7.496630 1.643660 0.314323
7.590700 1.873460 0.699185
5.276380 -1.409330 0.707537
5.275730 1.306590 0.161647
5.308480 1.445000 0.162200
6.737120 1.516130 0.371903
4.758020 -1.387400 0.561513
6.601760 1.557600 0.216535
5.703420 -1.674150 0.681101
3.989310 0.854024 0.057611
5.107350 -1.596930 0.450766
6.639640 2.088280 0.484812
7.687190 2.002150 0.210253
4.290690 -0.906157 0.010936
5.273620 -1.648900 0.537281
5.956500 1.714190 0.699686
4.978860 -1.064070 0.665946
7.447830 -1.708340 0.216535
5.344070 -1.642870 0.599555
6.572500 2.056730 0.542254
7.387090 -2.190540 0.355892
7.725280 -2.125580 0.491363
6.184680 1.501050 0.649606
7.812070 1.931670 0.451006
7.109560 1.850450 0.706773
6.154610 -1.887650 0.635489
5.782400 1.488620 0.164560
6.937070 -2.027040 0.204839
4.598530 -0.975307 0.140550
7.163230 2.172720 0.390214
4.045780 -0.388928 0.649606
7.063900 -1.663590 0.216535
6.401540 1.427630 0.420031
6.241400 -1.538330 0.214477
5.178700 -1.316110 0.710977
5.103550 -1.498720 0.231609
3.928780 0.849372 0.426258
6.698020 -1.597890 0.649606
6.678790 1.831690 0.154241
6.571320 -1.474940 0.366519
6.755800 -1.520520 0.468710
4.053640 0.093846 0.572291
5.427990 -1.289180 0.194797
5.623180 -1.539570 0.156433
5.825320 -1.227600 0.222005
4.509490 -0.600405 0.649606
5.236650 -0.976879 0.216535
7.136260 -1.744610 0.202213
6.502150 -2.065010 0.451230
4.544600 0.542028 0.649606
4.377040 1.227190 0.464113
5.070190 -0.860534 0.515998
6.805080 1.715360 0.189908
5.915860 1.499780 0.182640
3.890130 -0.901791 0.476012
7.473620 -1.994490 0.702212
7.233820 1.753860 0.662206
4.239320 -1.177640 0.543163
5.434010 1.440140 0.712228
5.453740 1.351770 0.696966
4.949540 -1.388080 0.203574
5.527150 -1.723870 0.589423
7.622840 2.099780 0.640557
4.612400 1.144430 0.174755
4.588170 -1.281250 0.283163
7.389540 1.836340 0.697982
4.402340 -0.418273 0.448078
5.394210 -1.700710 0.534360
6.228850 1.952740 0.586101
6.421110 1.546940 0.649606
6.974630 -1.929630 0.703665
6.833510 1.981760 0.189859
6.444690 -1.515050 0.649606
7.782430 -1.959940 0.559978
5.774670 1.242490 0.649606
5.288350 0.979629 0.587465
6.992460 1.790440 0.699465
4.816840 -0.707548 0.448301
4.895190 0.756284 0.584452
4.288960 -0.811232 -0.033022
3.961930 -0.804401 0.568551
4.306250 -0.970832 0.809218
7.575640 -2.171180 0.573138
5.838470 1.465640 0.679847
7.301840 -1.636720 0.216535
7.144800 2.028220 0.190091
5.373900 -1.458850 0.159722
6.380730 2.020490 0.337112
6.137630 -1.587990 0.693171
7.649170 2.160870 0.550034
7.621810 -1.736910 0.231972
4.784380 0.978358 0.190308
6.079190 1.323310 0.471125
4.504980 1.267180 0.340704
6.853750 -2.001750 0.667726
5.212540 1.327230 0.710411
4.370060 -0.870249 0.024152
3.891950 -0.518173 0.361469
4.767570 1.058470 0.705674
4.297660 1.173820 0.574306
7.026570 1.786680 0.171502
6.933760 2.054470 0.636960
3.970780 0.945700 0.115502
6.484510 1.849390 0.164839
3.944680 -0.991490 0.180197
6.866150 -1.745030 0.179994
6.068920 1.877060 0.244817
5.605360 1.773120 0.313540
4.725750 -0.918140 0.202913
6.788710 -1.681600 0.659834
4.446330 0.906129 0.794724
6.564650 -1.847500 0.161289
5.662670 1.158960 0.633590
5.033440 -0.972136 0.649606
7.417070 2.183050 0.535153
4.464710 -1.053080 0.725878
5.396030 1.034710 0.440483
6.035010 -1.651560 0.711438
5.538270 1.461580 0.709684
6.697170 1.506350 0.568068
7.218130 2.152520 0.558038
4.052530 0.681509 0.842238
5.914830 1.262460 0.304841
7.365920 1.628790 0.395104
5.067890 -1.221680 0.706169
7.505560 -1.788980 0.199193
7.308040 2.101520 0.228577
4.869840 -0.943986 0.216535
6.488430 1.452340 0.474268
5.155270 1.017540 0.216535
3.966350 0.798409 0.680004
6.884060 1.761970 0.693443
3.951480 0.568004 0.294569
4.354650 0.903928 0.832018
4.090200 -1.159490 0.444988
4.871810 1.468950 0.344065
5.458710 1.691750 0.268554
3.876760 0.919934 0.512974
5.569710 -1.117160 0.530319
6.407240 1.609460 0.200392
3.942370 -0.256959 0.610236
4.052750 1.008440 0.072632
4.994910 -0.816745 0.225709
5.160260 0.910977 0.571156
4.192510 -0.651239 -0.051339
6.507410 1.603600 0.216055
5.848970 -1.236880 0.455939
4.088850 0.415963 0.649606
6.961750 -2.147430 0.402536
5.720860 1.202460 0.216535
4.360110 -0.385695 0.633570
5.026300 1.334260 0.165580
4.971030 -1.517170 0.341083
5.076180 0.864016 0.297696
6.550430 -1.867660 0.700734
3.874770 -0.992579 0.354405
5.073850 -0.862663 0.303042
4.305750 0.811051 0.893141
4.138090 0.903673 -0.023589
4.779210 0.682948 0.334439
5.219220 0.943245 0.344491
5.871030 1.245450 0.223208
6.137380 1.969320 0.383657
7.652160 1.712390 0.615119
4.269720 -0.583059 0.784585
4.776460 -0.681154 0.556520
6.243300 1.534620 0.216535
4.568380 -1.005340 0.731729
3.985700 1.111590 0.594838
4.216900 -0.747198 -0.090020
4.975690 -1.311410 0.700139
6.359930 1.501400 0.216535
5.582690 -1.649820 0.195380
5.234560 -1.286230 0.161776
5.204780 -1.513280 0.205208
7.786830 1.898870 0.544133
3.878310 -0.993274 0.528843
6.212330 -1.368670 0.457278
5.412030 1.166410 0.649606
5.312660 -1.132490 0.216535
7.425180 -1.874900 0.705463
6.482290 -2.051600 0.358174
4.018180 0.728104 0.675781
5.034980 0.950969 0.649606
6.529370 -1.463500 0.442316
5.667490 1.720140 0.219393
4.277650 0.321007 0.329991
6.791810 2.113890 0.501537
6.225900 -1.668710 0.159566
4.732160 -1.406200 0.472260
4.296150 0.336065 0.570055
6.520100 -1.712410 0.163394
4.435520 -0.913961 0.070694
5.771880 1.369430 0.216535
4.008110 -1.012050 0.761093
7.284100 -2.043530 0.189792
7.116980 -1.863320 0.708310
5.401170 1.541990 0.177727
7.310180 -1.769560 0.666353
4.401890 -0.417931 0.542326
4.754820 -0.732780 0.216535
4.599040 0.857479 0.182945
6.564790 -1.999870 0.242524
7.666810 -2.129220 0.577576
7.329730 -1.881850 0.707534
6.797200 -1.933660 0.697660
3.911170 -0.873257 0.586546
4.292170 -0.788567 0.908371
6.729880 1.665470 0.208959
5.950470 -1.276300 0.300595
5.278520 -1.520060 0.673414
7.484660 2.146570 0.259157
6.572110 1.475150 0.521634
5.861600 -1.525050 0.702808
5.333130 -1.002640 0.477610
6.254360 2.005180 0.414078
4.223970 0.781522 0.937882
4.824070 1.156210 0.712379
4.852340 1.123110 0.158439
6.223710 -1.372420 0.278069
5.080190 -0.988454 0.216535
7.558920 1.805660 0.192826
4.411420 -0.457676 0.649606
4.915400 1.310300 0.691402
6.496750 1.682740 0.173039
6.040650 -1.697550 0.158910
6.752950 1.519910 0.636156
7.369770 -2.119790 0.240848
5.253190 0.961563 0.508351
5.110510 1.420020 0.181304
6.213080 -1.757170 0.160599
4.302390 -0.605783 0.060000
4.243160 0.562842 0.050320
6.905410 1.553040 0.514048
5.571390 1.641850 0.672603
5.610270 -1.801550 0.468917
4.066460 -1.136660 0.559451
7.099550 2.115340 0.599156
5.899420 1.795160 0.215593
5.426590 1.186520 0.216535
5.291400 1.138720 0.649606
5.090070 1.569630 0.531909
4.011520 0.956209 0.791150
6.624770 1.488620 0.279305
7.626910 -1.803290 0.655789
6.476460 -1.449070 0.322541
5.434420 -1.195070 0.216535
4.591100 0.556139 0.391361
6.412980 -1.431070 0.383443
5.218830 1.594300 0.593262
7.800980 -1.990460 0.385040
4.462780 -1.131010 0.185257
4.124730 -0.364421 0.216535
4.045600 -0.951815 0.831383
4.409170 0.684686 0.006536
7.546850 -2.198720 0.342824
5.676130 -1.806440 0.327911
7.484480 1.826180 0.688435
5.317730 -1.530610 0.189476
7.018630 2.084480 0.619802
5.144920 0.902582 0.375146
7.777070 -2.067330 0.427065
4.354360 0.645829 0.064520
5.552730 1.778430 0.389069
6.434990 1.632630 0.674367
6.590600 1.742320 0.161609
7.701810 1.860250 0.645758
5.850090 1.417430 0.213006
4.846160 -1.149660 0.155015
4.377170 0.765588 -0.008114
4.968410 -1.163220 0.705188
4.893720 -0.755380 0.396791
6.424410 1.751610 0.155578
6.831560 -2.019430 0.210367
4.315850 1.164960 0.266498
6.916570 1.646800 0.216535
7.242800 1.611970 0.575622
6.840840 -1.539010 0.351559
6.793340 -2.112930 0.356772
6.314650 1.970950 0.594564
7.248500 2.015620 0.176916
5.748770 -1.277970 0.216535
7.642940 1.772700 0.235867
4.491140 -0.484309 0.611185
3.892180 -0.248471 0.255906
4.441790 0.448238 0.470122
4.116170 -1.150480 0.320004
5.687060 -1.169710 0.538569
5.586790 -1.789670 0.379195
7.454120 1.741880 0.216535
4.269930 -0.588052 -0.055473
4.141140 0.561328 0.054005
4.014790 0.762029 0.029054
4.836160 -0.898108 0.649606
6.365620 1.919060 0.658082
6.817950 2.080950 0.278931
6.924780 -1.631320 0.216535
7.769120 -1.809150 0.510079
4.909410 -1.212420 0.155444
6.226500 -1.450280 0.216535
4.450530 1.021880 0.126652
6.124110 -1.935920 0.563830
6.967040 -1.834490 0.158757
5.608600 1.529900 0.710416
4.022640 -0.742332 0.021013
7.649610 2.186230 0.449853
4.442900 -1.012920 0.119837
5.768170 1.841700 0.333885
6.820610 1.534610 0.404012
4.109480 1.163080 0.414256
7.572220 -1.979020 0.161318
5.363980 1.362540 0.706543
7.137580 1.596460 0.216535
6.516150 1.459900 0.310113
3.922800 -0.857487 0.710733
4.012690 -1.133270 0.370314
4.649520 -1.229210 0.204188
3.897340 0.892019 0.354938
6.761300 -1.521720 0.270786
6.779810 1.837400 0.711840
6.201740 -1.713350 0.712667
5.027180 1.038980 0.649606
6.493020 -1.616970 0.658916
4.705180 1.378340 0.527548
4.077530 -1.060840 0.731712
5.227270 1.044590 0.649606
5.674630 -1.445630 0.700005
4.151190 0.858014 0.922442
4.196430 0.635581 0.911702
6.369800 -1.467350 0.649606
5.862960 -1.845200 0.280712
4.860700 1.265320 0.168115
6.869040 -1.545140 0.588295
5.347870 1.623440 0.246657
7.547080 -2.205270 0.492715
4.895940 -1.316620 0.182398
4.773360 -1.077920 0.158643
6.927270 1.557240 0.358218
5.696200 1.617290 0.701182
5.149760 -1.563620 0.272480
4.062610 0.025736 0.467775
5.224130 -1.109220 0.216535
5.074870 1.122150 0.195896
6.990160 1.884220 0.712261
6.184660 1.359560 0.599466
5.637480 -1.755160 0.263838
7.175440 1.751410 0.201250
5.096460 -1.247470 0.158645
5.486030 1.219920 0.649606
4.058510 -0.056857 0.277527
4.992830 1.541120 0.461958
5.931420 -1.408510 0.216535
5.629420 1.381420 0.189983
7.652080 -2.121670 0.265175
6.421190 -1.634220 0.189229
4.859870 1.467650 0.503612
4.482020 0.767653 0.076385
5.833570 1.230900 0.387138
4.190570 1.179780 0.459963
5.444120 -1.382350 0.161370
4.175850 0.417968 0.649606
5.461940 -1.066440 0.319543
4.158100 0.670995 -0.042316
4.804720 -0.985481 0.673731
4.675280 0.960491 0.169336
6.857770 1.887160 0.158193
4.489890 0.945302 0.107313
7.183610 1.903520 0.712400
6.779150 2.056600 0.608649
7.400030 -1.634540 0.216535
4.854370 1.070800 0.700981
4.882950 -1.183360 0.712730
7.524320 2.006070 0.700799
6.048850 -1.513670 0.668627
7.274040 1.616240 0.292452
7.416450 -2.194410 0.499558
4.255110 1.076120 0.144321
4.413770 0.835388 0.834596
4.075230 0.302409 0.216535
5.670890 -1.269640 0.649606
7.065800 -1.583560 0.255435
5.727830 -1.186780 0.291402
7.053100 -1.791270 0.171234
7.274700 1.734760 0.216535
4.288830 1.196760 0.483755
4.140820 -0.381286 0.649606
7.250130 2.183780 0.466987
6.505150 -1.547870 0.216535
6.910830 2.131920 0.353952
4.776330 1.434750 0.444640
4.312120 -0.465717 0.649606
6.389270 1.423940 0.249234
5.000850 -1.455070 0.236177
5.266300 1.251920 0.688452
5.633680 1.145920 0.480383
4.183510 -1.086130 0.707493
6.154270 -1.497610 0.649606
4.340590 0.689815 -0.048540
4.056450 -0.072531 0.433576
4.565000 -1.282190 0.558381
3.992150 -0.422351 0.216535
7.736050 2.114890 0.373258
6.875100 -2.127100 0.507814
7.551030 -1.649460 0.649486
7.202650 2.103850 0.241890
4.367200 -1.109220 0.683975
4.400510 -1.241910 0.433968
4.572560 0.986202 0.732806
4.266440 -0.335556 0.649606
5.051260 -1.532350 0.299781
5.464970 1.067900 0.535512
7.793930 1.841760 0.401494
5.286850 -1.437640 0.162556
6.077550 1.488990 0.651176
4.442150 0.535209 0.649606
4.669770 -1.178960 0.690540
5.516970 -1.337640 0.189191
6.866260 -1.851660 0.154480
5.944030 1.381680 0.216535
4.736060 -0.654743 0.385232
5.092590 -1.580980 0.363030
7.644230 -1.899610 0.686128
7.314660 -2.187800 0.483053
5.924420 -1.266190 0.508773
5.287310 -0.979096 0.579494
6.783990 1.526650 0.506383
6.501100 -1.455790 0.531136
7.751920 1.969410 0.264291
7.656650 2.082240 0.232574
4.514970 -1.136820 0.681870
5.068600 0.859609 0.420532
4.742390 -0.658880 0.472438
4.433240 -0.457821 0.216535
4.335740 0.993037 0.786864
6.025140 -1.782900 0.186037
7.201730 -2.135210 0.589202
4.742000 1.370500 0.289961
6.106700 -1.333180 0.524026
4.621930 -0.876749 0.160456
7.381560 -2.039630 0.182499
6.160470 -1.388870 0.216535
4.637340 1.326520 0.552982
7.590150 -1.652740 0.555092
5.880990 -1.367890 0.649606
4.211950 0.859143 -0.041513
4.721060 0.923008 0.666774
7.809500 -1.885440 0.444541
4.189100 0.766682 -0.078961
5.036130 0.840723 0.520582
4.160770 -1.171470 0.391914
4.906860 -0.814010 0.216535
4.425510 0.436150 0.383612
4.059140 0.218001 0.197299
5.073170 -1.132660 0.675743
5.663820 1.634640 0.172539
3.856000 0.948185 0.299346
5.695540 1.173260 0.545010
7.688600 1.725010 0.304304
4.764520 -0.992190 0.178484
6.734950 1.759550 0.163226
6.084850 1.799430 0.185598
5.786710 -1.427790 0.196414
4.763570 0.672730 0.419699
4.186070 -0.627135 0.903260
6.627770 -1.489360 0.466278
5.484670 1.077380 0.441302
7.221000 -1.683900 0.216535
7.609230 2.191700 0.357781
4.529290 -0.604712 0.216535
5.548720 1.401880 0.164160
6.426620 -1.435180 0.483511
6.711370 2.084630 0.541967
7.727490 -2.018530 0.250166
5.544410 -1.412530 0.703475
7.087230 2.168860 0.438680
6.011000 1.431010 0.649606
4.040850 0.697349 0.124888
6.709220 -1.713460 0.181254
4.077950 -0.304967 0.649606
4.914550 -1.451420 0.591864
7.058230 -2.144920 0.332533
7.415360 -1.795300 0.191574
6.658260 -2.061310 0.297892
7.704270 1.665460 0.417766
6.146990 1.702320 0.711808
7.320160 -1.931430 0.154940
4.805070 -0.815210 0.649606
7.348070 -1.626360 0.617738
6.164480 -1.803260 0.690443
7.260010 -1.996560 0.698309
4.462580 -0.803142 0.053553
5.026640 -0.835199 0.415500
5.624310 1.250210 0.216535
4.157110 -0.716411 0.917293
5.632670 -1.716400 0.637771
5.951550 -1.698000 0.163923
7.404750 1.957300 0.708022
6.694180 -1.963670 0.672539
4.804710 0.840345 0.216535
