ply
format ascii 1.0
element vertex 436
property float x
property float y
property float z
end_header
9.263160 23.869801 2.471130
7.460600 18.485201 2.879340
20.082001 15.244500 2.013290
18.214001 17.703800 -0.046025
18.890900 15.782600 0.098821
13.774200 26.245501 1.459420
14.344800 16.765800 1.330200
6.713690 17.607599 1.093600
19.007099 20.736099 2.879340
14.899900 18.837099 0.000000
10.473900 17.228100 0.000000
6.048470 24.946100 2.879340
7.988460 24.540701 2.879340
11.725400 23.327200 0.262943
12.582900 17.527901 0.000000
9.020790 16.856501 2.817490
17.525999 21.053200 0.000000
11.587100 17.077400 0.000000
13.704300 18.113701 0.000000
6.904560 26.092300 1.862290
9.261230 26.348600 0.855150
19.557301 15.963500 0.000000
11.548900 23.494900 2.879340
13.500400 16.025801 1.275130
12.408900 23.482300 0.301260
13.083600 24.760700 0.000000
13.783600 26.244499 0.699187
17.809799 21.246099 2.879340
16.151100 20.865299 2.853620
8.411790 17.231501 2.879340
14.128400 15.969400 0.269172
13.919500 23.196699 1.998090
11.206300 17.790001 2.879340
19.881300 23.982300 2.879340
15.933000 15.753200 0.133944
15.935500 20.634100 0.343454
12.429700 18.178301 2.879340
8.837170 25.046301 2.879340
17.913099 16.166300 0.000000
4.032630 18.795500 0.389264
12.591100 26.346500 2.375850
5.324480 19.457300 0.000000
7.580410 17.297400 1.469030
9.383060 26.357700 1.539960
13.349800 26.288601 2.574710
7.734180 17.243500 2.735930
19.120701 25.097500 1.549140
7.400760 24.368900 0.146667
19.809601 17.784401 3.187190
3.480350 19.452101 0.557805
13.206200 26.303200 0.084537
10.496400 23.823099 2.879340
18.889400 16.619301 0.000000
9.822010 18.758101 0.000000
5.410050 18.141199 0.188438
10.173500 25.494499 2.879340
13.443400 23.678400 0.000000
4.946200 25.407900 2.879340
9.484270 19.674000 0.311201
6.830520 19.056801 0.000000
5.054460 25.728100 0.000000
12.285400 26.366699 0.216175
12.632000 19.443800 0.670380
5.047260 25.738400 1.229950
17.558100 22.862301 2.879340
14.139100 25.897699 0.000000
19.338301 22.809299 2.879340
12.612200 23.764200 2.879340
16.408701 19.086300 1.330200
19.698601 20.687300 2.677650
14.589800 18.725000 1.330200
12.998900 18.867300 2.768570
20.615900 15.163600 2.761330
9.091430 16.837200 1.710390
16.027100 17.646799 1.330200
17.495600 18.279400 0.000000
20.348600 18.226200 3.406410
17.862400 17.027500 0.000000
5.439060 24.894501 0.907255
17.848499 20.069300 2.879340
8.824960 26.024599 0.000000
19.382299 21.505899 2.842760
18.571600 21.612101 2.879340
15.267700 24.110100 1.549140
9.225540 23.879900 0.095924
17.289900 20.403400 0.000000
10.856100 19.488300 0.340258
5.465160 18.784401 2.879340
16.217600 16.843901 1.330200
15.039000 26.080099 2.676950
11.877800 16.235300 1.172180
17.097700 16.109501 1.330200
9.058090 26.333300 2.448800
18.578300 22.415300 2.879340
20.646500 15.946600 2.879340
17.319901 24.338499 2.879340
5.138680 18.258900 2.076750
15.388900 16.854601 1.330200
17.516001 25.710600 1.786140
13.617500 23.011801 1.105970
12.792000 25.023300 2.879340
18.217300 23.080500 2.879340
16.280500 16.139601 1.330200
9.963300 16.614901 0.230139
8.493670 26.290800 1.039460
13.040500 19.143200 1.770500
19.600901 15.458800 2.879340
14.007700 23.203300 2.879340
9.628880 24.888700 2.879340
9.630760 17.976700 2.879340
13.982400 23.255899 0.032170
13.273900 23.212799 1.665900
16.128700 25.901300 1.715820
8.779040 23.999500 1.154010
10.535200 16.483200 0.577811
4.970450 18.338699 0.923432
13.413700 25.603600 2.879340
16.142000 24.921700 1.549140
8.311030 25.230600 0.000000
15.611700 16.407499 0.000000
17.636900 24.955700 2.879340
6.600940 26.046900 1.042350
10.827300 19.081301 2.879340
16.120501 23.815500 2.879340
15.291500 20.760201 0.630976
6.596220 24.584400 2.510920
5.673040 24.831800 1.669150
14.259200 19.364401 1.271470
16.063101 22.855200 1.549140
9.420280 17.865299 0.000000
8.320330 26.272301 2.854040
6.402820 19.676300 1.595680
15.522900 17.353201 0.000000
7.400330 17.360500 0.255717
11.553100 18.469999 0.000000
17.286400 18.332300 2.565040
12.260900 19.226000 2.813960
8.012230 26.238100 0.493274
15.625000 21.138599 2.370340
17.675400 15.713400 1.074410
14.614900 25.318300 0.624373
4.892170 25.041000 1.697170
6.802930 17.572701 1.818690
17.854401 25.638901 2.439390
9.320540 25.607901 2.879340
5.894350 24.772499 0.357720
6.834970 25.039000 0.000000
4.415330 19.676300 0.105804
15.020700 17.516399 1.330200
19.147100 24.657600 2.879340
18.481600 25.506001 1.565710
14.727700 18.096001 0.000000
14.359600 24.084299 2.879340
15.835700 18.928801 0.000000
18.491100 25.504000 2.727810
21.190500 20.034300 2.782000
11.625500 26.389900 2.762960
12.631300 16.125299 1.541470
11.463300 16.302401 0.402144
17.943701 21.912500 2.879340
14.466600 24.208099 0.953800
18.200399 23.872000 2.879340
15.298600 22.157900 1.661060
12.054200 17.270700 2.879340
19.321800 23.582500 2.879340
16.652000 15.850800 0.000000
4.505560 18.559099 2.745380
6.088170 18.220600 0.000000
12.273100 19.237600 1.841760
17.426901 17.284300 2.879340
20.688299 18.882401 3.291800
13.133800 25.619200 0.000000
14.150600 25.074499 0.000000
20.005600 25.074100 2.726970
12.586000 16.131001 0.675042
6.111520 25.957399 1.669160
19.118999 19.263500 3.187190
13.330800 23.119801 2.705920
8.590230 18.224800 2.879340
15.157800 20.029301 0.000000
7.973370 26.233801 2.161890
17.028601 25.787001 2.664940
3.480350 19.427099 1.872130
13.705000 24.901699 2.879340
8.303480 19.174700 2.879340
18.426701 24.672600 2.879340
21.861700 16.900999 2.879340
18.204300 18.292200 3.187190
9.790550 26.374800 0.235309
9.946320 16.618900 2.283470
16.423000 24.051500 1.549140
11.344500 26.398500 2.142390
7.307120 19.676300 1.841280
10.333700 18.594601 2.879340
15.922900 25.927401 2.469230
7.631920 19.584400 2.879340
7.149430 19.676300 1.011830
14.819600 20.232800 0.979381
11.827300 23.389601 1.726760
13.219400 19.313101 0.304981
13.075100 26.314501 1.076950
3.932720 18.847300 1.118820
11.789500 19.418200 0.243477
3.944040 19.676300 1.324280
7.298800 24.396200 2.561290
14.201500 19.047501 0.000000
10.764900 25.025600 2.879340
13.407600 16.034401 0.309136
8.070260 17.138000 0.948260
9.708570 25.601101 0.000000
15.469800 25.483601 2.879340
16.103600 25.226999 2.879340
16.250401 19.931700 0.000000
15.722400 15.764400 0.892107
8.537220 16.992701 2.136910
9.007250 19.156700 2.879340
11.442800 19.272301 1.601250
8.895530 16.890699 1.064550
4.072050 18.775101 2.041600
7.026770 19.135900 2.879340
17.156900 23.464500 2.879340
20.710501 16.682600 2.879340
8.212370 17.093800 0.040691
13.789600 17.177099 0.000000
8.097890 24.182100 1.499700
14.510200 15.918300 1.296610
18.132799 19.394800 2.879340
12.762100 18.183201 0.000000
15.072100 23.130699 2.879340
14.516500 19.758600 0.167837
16.647900 20.500500 0.315803
7.042000 17.486000 2.483910
11.037500 24.463600 0.000000
20.823400 15.151000 1.549140
19.841801 18.861200 3.187190
6.054370 18.984699 0.000000
10.230900 18.033800 0.000000
8.987380 16.865601 0.294749
19.171101 25.324301 2.698620
16.899099 21.718901 2.879340
11.827400 16.243401 2.139980
18.394800 17.021299 3.180430
16.162500 21.694000 2.879340
10.428200 25.872299 0.000000
12.348800 26.362499 0.894490
14.478800 26.159100 1.086280
11.540900 16.482000 2.879340
9.502750 19.659401 2.875350
20.401600 24.932699 2.153410
18.338600 15.732900 0.786706
5.947260 25.700001 2.879340
14.777100 16.480101 0.000000
6.367950 18.519600 2.879340
10.255600 23.858400 2.131870
14.103400 17.687700 1.330200
14.555900 17.336700 0.000000
11.458800 19.287500 0.856835
21.383600 16.184099 2.879340
8.185180 18.676399 0.000000
11.669000 25.874599 0.000000
7.269360 25.569401 2.879340
4.933610 25.713499 2.229140
19.715500 15.875300 1.017570
8.459860 19.503599 0.772523
4.660040 25.181801 0.385302
7.766360 19.676300 1.313800
21.427099 18.600000 2.879340
13.120100 17.973499 2.220300
12.291700 25.280399 0.000000
9.803980 24.175900 2.824850
6.691130 19.676300 2.481150
17.730499 16.576700 2.605760
6.254570 24.676001 1.336990
15.307100 16.175200 1.330200
18.780701 16.101000 2.879340
11.566500 19.389700 2.306380
14.899300 26.101400 1.865380
20.649799 24.738701 2.879340
15.448700 23.904699 2.879340
5.586130 18.065201 2.764120
20.996300 24.955400 1.330200
14.694700 26.118799 0.333052
14.211600 25.413900 2.879340
14.962000 19.539000 1.330200
18.075500 19.359200 0.000000
11.505600 25.042601 0.000000
8.772080 19.174700 0.015753
8.159280 24.180500 0.000000
5.138750 19.676300 1.939680
7.010460 24.473400 1.720850
6.672240 17.623800 0.365182
12.178800 25.700600 2.879340
10.438400 23.559900 0.681609
9.762720 16.662100 1.022870
5.948440 17.908800 0.668025
20.077400 17.078699 3.187190
10.807600 19.539301 1.504330
17.608000 24.912500 1.549140
10.409000 17.096300 2.879340
4.998110 19.438801 2.879340
5.832760 19.676300 0.728538
17.449301 21.709200 0.202268
7.386170 19.493500 0.000000
7.469560 18.000200 0.000000
19.661800 25.177200 2.090300
18.612900 17.672001 3.287820
17.510900 19.170300 2.355900
21.259800 23.281799 2.843510
18.833099 18.561899 3.313850
19.308800 17.072599 3.187190
12.132700 16.194000 0.040079
12.551000 19.146601 0.000000
13.360900 19.447399 1.071520
9.522250 19.638901 1.110340
6.904890 26.092300 0.153490
7.926340 24.228001 2.251770
21.975100 21.069700 2.665780
21.170099 24.083300 2.879340
17.012501 19.631599 0.000000
14.174700 26.200800 2.680490
18.867701 15.599600 2.351560
5.728130 25.887199 0.240901
5.041730 19.676300 1.002310
17.461100 15.707100 0.213134
7.500860 25.354700 0.000000
15.959500 23.135500 2.879340
15.169200 18.320700 1.330200
8.609160 26.299500 1.716000
11.771100 24.336201 0.000000
16.981600 16.773199 0.000000
6.516710 17.781700 2.879340
3.993900 19.151100 2.879340
6.244670 19.319201 2.879340
6.594750 19.676300 0.459941
20.308201 23.335800 2.879340
10.554300 23.864401 0.000000
12.876700 16.200500 2.736260
16.949600 15.699300 0.667788
19.867599 19.721300 3.208290
6.629060 26.051901 2.576880
12.965400 17.472099 2.654680
11.424100 25.485800 2.879340
15.935600 18.542700 1.330200
10.647500 26.398001 2.824900
7.660190 24.299299 0.834569
6.017060 17.879499 2.253630
16.087000 21.793501 1.549140
13.018100 16.766701 2.371860
9.940800 26.380699 2.871350
16.961201 18.750799 0.000000
17.749300 18.769501 2.879340
15.143400 15.832000 0.310747
13.149300 16.917500 0.000000
8.727450 24.013399 2.004730
14.231300 23.720900 0.524854
15.469100 21.806101 2.533430
11.014000 26.289499 0.000000
16.764099 25.041300 2.879340
16.591101 22.716600 2.879340
8.721520 24.617399 0.000000
7.355280 26.158400 0.892529
11.503700 24.705601 2.879340
10.907700 26.399099 1.430830
4.739130 18.448400 0.075741
5.244840 24.946501 0.063827
17.454100 17.581900 0.000000
11.207200 17.760900 0.000000
15.265800 23.290300 1.549140
9.649350 18.727200 2.879340
9.115870 18.468901 0.000000
6.351890 25.616501 0.000000
8.101050 25.323000 2.879340
11.685600 26.388000 0.550299
14.534000 22.841400 1.764510
15.772600 22.331499 2.879340
6.075170 19.663799 0.000000
11.882700 17.840599 0.000000
14.608900 22.857000 2.463710
15.537700 25.228100 1.543770
12.046600 24.261400 2.879340
15.907300 18.022400 0.000000
9.372070 23.911301 1.748610
5.958610 19.676300 2.136620
10.183800 26.390400 1.417480
5.610190 19.676300 1.437530
6.162340 17.822800 1.500450
13.684400 24.360399 0.000000
7.636680 26.196501 2.786920
8.129150 19.510300 0.000000
11.777800 18.392300 2.879340
6.788200 24.533001 0.850586
20.052500 16.800200 -0.339226
12.407600 26.358601 1.633830
8.339010 17.868000 0.000000
15.260400 24.585400 2.879340
10.789600 19.558300 2.308910
11.050700 16.380899 1.016800
13.448800 22.927200 0.373067
19.435200 15.367600 1.812540
10.680000 26.398100 0.766895
7.859790 26.221201 1.492230
6.771130 18.243000 0.000000
10.468600 23.570200 1.497790
16.484200 17.533199 0.000000
10.347300 26.396601 2.092340
10.842700 25.325800 0.000000
13.181900 24.443399 2.879340
18.299200 15.972500 2.256310
8.143880 19.676300 2.295940
15.669400 19.264799 1.330200
18.840599 17.427200 -0.355383
12.728300 23.998899 0.000000
10.348500 24.628799 0.000000
10.832800 16.424101 1.824190
10.812000 16.483500 2.879340
11.596600 26.390800 1.486130
10.656000 18.679701 0.000000
9.594510 24.494301 0.000000
21.124001 18.022301 3.276170
19.967100 16.332899 3.187190
9.060730 25.286699 0.000000
12.627900 23.142799 1.874250
3.910780 19.676300 2.421310
5.378700 24.910700 2.412230
8.960800 24.341900 2.879340
12.127400 23.573500 2.444450
5.808620 25.901899 0.964072
16.823999 25.813000 1.671890
16.172600 16.819799 0.000000
13.562300 23.850401 2.879340
9.665120 17.288401 2.879340
18.818899 19.941401 2.879340
20.586500 17.594900 3.354130
16.866800 24.916901 1.549140
4.354830 19.676300 0.785136
18.348400 24.542000 0.715311
