ply
format ascii 1.0
element vertex 1650
property float x
property float y
property float z
end_header
31.429701 45.213402 3.068220
2.614600 49.587799 1.694550
44.240501 30.299400 4.425180
0.506010 46.331600 3.093560
47.027500 20.585600 4.493010
56.457199 19.650400 4.480200
40.456699 31.380199 3.872450
48.400200 22.356400 2.719310
0.378640 5.248670 3.197730
20.172701 5.101850 5.298330
48.933899 38.278801 1.307400
13.533600 5.076940 5.304270
44.177898 11.270300 0.761806
4.985390 8.901670 0.039267
37.870602 40.574100 0.618142
17.028500 49.211800 4.631030
18.295200 37.369202 0.391793
7.396420 43.505501 5.294440
16.351801 40.497601 5.134340
36.202900 14.300300 0.560789
27.993200 40.536301 5.096890
13.460000 40.137600 5.160640
54.046299 35.801601 1.234020
37.049801 33.595200 0.559981
8.002670 2.723320 0.037076
29.256001 37.852200 4.963390
25.676500 46.977901 4.981570
27.952400 36.138100 4.869550
41.199299 40.321201 5.281330
47.749298 33.476501 0.772911
6.712040 49.176399 5.363670
20.864300 14.524200 1.233410
35.032600 8.250260 0.568796
15.798800 49.433201 5.391730
46.319500 31.802099 4.603960
35.950901 9.189820 0.583256
44.347000 39.200600 0.756483
1.708600 2.687940 2.848030
20.492001 44.968700 0.273518
12.167100 50.248699 5.223450
55.048199 32.011002 4.724450
5.447560 3.192110 5.368330
34.802601 40.435001 0.551308
5.392980 47.765499 0.018912
38.646198 19.345900 1.078740
16.277100 44.500401 5.240140
0.851894 45.111401 5.393740
36.759602 41.641201 0.598339
38.795799 19.390100 3.530250
40.870701 9.498310 2.824660
45.375099 34.684898 0.735149
46.377300 29.552799 3.848010
40.405300 41.949799 2.105490
28.124701 44.923500 5.325120
32.009399 10.608600 5.124980
41.749901 30.988899 4.044150
44.380600 21.082399 2.814020
35.237900 7.769380 5.364600
52.285702 23.630699 1.040570
13.830900 49.911499 2.850570
7.674660 0.633255 0.018618
24.730600 41.741100 5.124720
14.453600 12.988300 0.322787
47.483700 22.062901 1.679350
38.466499 39.133900 5.126250
6.247900 5.644830 5.334550
47.129002 14.196700 5.166660
36.468800 15.587800 4.825550
36.900902 43.038101 5.375290
18.189800 6.147930 0.235187
45.955399 39.631199 4.539470
33.915100 33.311199 0.502161
54.390202 15.674300 2.931670
9.551180 6.181190 0.086524
50.701099 21.436199 0.794328
19.312300 2.623630 0.248960
36.096699 16.026199 0.549549
8.803630 47.974400 0.054147
26.241400 11.577500 0.380739
38.614601 42.653900 5.065150
29.686701 8.925970 5.218060
4.237850 44.198799 0.027890
56.445599 31.653299 4.146700
21.187901 11.020100 5.076550
22.260000 6.764660 0.310672
30.865900 42.769199 5.246250
52.471600 23.692499 3.973920
16.473301 37.797798 1.114410
2.791800 9.755260 0.013907
18.254400 47.712700 5.353770
21.642700 44.765202 0.296866
27.909901 5.312710 5.375800
51.660301 27.907200 4.252190
54.062698 34.554901 0.956337
27.702101 16.271799 0.745153
53.994099 15.433900 4.664330
12.134700 5.998970 5.279780
11.690800 46.455002 5.308630
13.611900 1.552810 5.389160
16.485300 39.505402 0.220736
33.344700 42.124100 0.528111
23.369900 47.636002 2.187050
0.953677 3.876940 0.654490
27.614700 46.415001 3.391360
31.519501 40.673500 5.116370
36.915199 18.042000 0.555548
53.329102 20.348301 4.664400
18.535101 38.398300 5.050000
51.740299 21.037100 4.533530
7.863730 48.814800 0.031523
9.241800 11.821200 3.858360
15.511900 49.560600 0.658608
2.288740 49.260399 0.134389
11.582500 8.355040 5.247360
54.748501 29.010000 4.316170
54.066002 16.700701 5.223520
10.409900 46.632000 0.092258
51.232201 37.194199 1.145030
13.695400 1.322340 3.979610
30.349701 8.539760 0.471188
1.242960 3.486400 5.395090
26.844999 5.815160 5.333290
13.522700 38.486301 4.846740
3.417000 40.655102 1.589980
35.444000 39.429798 0.557576
3.370320 48.205502 5.381540
2.587960 1.696320 0.010371
52.406898 36.612900 2.023310
8.918580 0.411131 3.576890
41.256699 38.407398 5.119060
45.663399 39.757401 2.218690
10.663100 9.740660 0.124433
38.299801 8.490230 1.898600
42.955502 10.563900 5.374540
20.720800 37.334301 4.983290
5.845490 7.657080 5.329510
30.511600 42.024300 0.470670
40.084400 42.078499 3.499990
32.625099 44.804298 3.406890
37.613098 19.040400 3.602470
33.929600 10.505400 5.172070
15.453800 41.746399 0.197190
41.857601 30.955700 0.686144
45.873001 14.718400 0.768876
3.973900 6.741070 0.026949
45.792000 15.918700 4.956590
16.233700 9.564670 5.168640
11.313600 1.707870 0.091807
5.309370 43.709900 0.036461
30.920300 17.144699 3.568820
22.114000 41.336700 0.308334
13.136600 50.052200 3.745000
49.132099 16.222200 5.023680
3.791620 5.725810 5.364630
44.145199 34.044998 0.699086
18.477301 13.934900 1.803140
12.680600 38.843498 0.166545
48.676399 35.227402 5.020090
0.689192 7.668690 0.001395
39.232498 37.368301 4.985240
0.060466 6.894580 3.751210
35.492199 42.708698 0.574928
51.018002 36.257999 5.249400
0.956711 46.423599 5.393750
49.831299 14.544200 5.259870
10.824800 0.923309 5.392420
22.128000 4.481240 5.345560
52.528900 35.388901 0.924248
19.409201 37.096699 1.406810
7.411900 2.902920 5.353570
4.162090 8.182660 5.347920
55.272400 16.859301 4.006420
21.667500 14.722700 4.889000
8.814890 2.316850 5.366050
6.834370 46.654900 0.044901
43.888302 16.674999 0.699854
32.929199 40.779598 0.514557
42.259899 16.169600 4.856020
52.097301 28.611500 0.805616
53.770401 15.323200 1.035010
51.257500 37.181599 3.947560
53.479099 15.179000 2.137900
36.926201 43.281200 4.175900
28.513700 43.949299 0.432994
37.976398 42.891201 2.006520
31.134800 6.569260 0.490066
31.035500 12.865300 0.469751
5.436130 40.364601 0.053797
30.002300 44.663101 0.465310
50.053902 37.760201 5.384700
46.574001 15.659000 0.775180
0.000685 7.915680 0.879072
47.011200 35.644600 5.015080
3.391700 44.660000 5.366020
3.844000 41.581501 0.028677
43.473999 20.803301 3.707730
24.761499 42.052200 0.354081
40.824001 34.407799 4.760880
3.789310 2.458770 0.008640
5.099750 0.114404 0.348386
33.892502 43.102001 5.315320
14.462200 7.360150 0.175325
32.777599 10.189400 0.513283
37.607601 8.232960 0.851113
50.055500 28.372801 3.898150
23.894600 3.775070 4.706540
3.314970 50.188499 4.479600
44.724201 32.748100 4.652270
15.448100 4.370940 0.179399
22.913300 40.361698 5.083470
49.563000 37.987400 3.291170
4.914010 1.796090 5.384820
0.003847 43.399601 4.611750
14.434100 3.591240 0.159342
29.832300 34.411800 4.112840
5.508850 42.436600 0.045269
54.483898 17.014500 0.955544
37.936001 8.658130 5.372920
40.523300 9.358810 1.546350
30.301300 14.872500 4.869220
38.469002 9.925440 0.637337
4.649690 42.945000 5.343510
30.748800 15.912400 0.455957
5.154640 0.384056 5.393320
19.479300 38.012299 0.272079
4.349870 0.405253 2.645970
9.954030 39.283501 3.373380
37.170399 8.070820 4.657320
34.827801 34.765800 0.524793
14.686000 9.960710 0.188575
15.894000 9.408680 0.204429
24.828100 47.220001 3.377730
55.157700 34.570801 2.546560
27.110001 16.116699 2.458500
43.096298 30.574301 0.914415
4.553190 5.663110 0.024184
23.764000 37.197102 4.944140
22.634001 3.432450 4.205900
1.807110 48.454399 5.393740
39.392799 42.356201 1.671620
7.939350 7.781720 5.283820
11.774500 46.334499 0.113927
47.963100 15.169300 5.084070
26.457300 46.755299 3.241790
53.893501 18.448799 4.968030
5.397550 50.463299 0.006492
14.915000 1.569620 4.532460
37.278099 10.104600 5.249100
55.063202 34.715801 3.942610
44.017700 40.467999 1.990250
11.330200 38.976101 0.195517
4.639790 48.445099 5.377680
42.589699 37.944199 0.705050
20.237400 47.025501 5.334160
5.936330 0.005877 3.819600
17.620600 4.556740 5.317110
6.710170 7.139790 0.056284
28.964001 10.575000 0.439302
2.709870 41.697601 0.011147
39.159000 38.399200 0.630311
6.378630 41.114899 0.064094
30.033800 39.308300 5.045060
48.635899 28.829300 3.309060
21.204399 11.565200 0.295750
28.918900 46.006199 1.868010
25.839100 15.787300 1.138100
44.670300 13.618700 0.749372
12.734100 38.662498 2.925660
28.901300 7.419080 5.283130
11.661700 40.275700 5.197010
19.115200 11.526700 0.263929
18.651800 37.284000 2.828580
13.421500 44.188999 0.152999
50.134701 20.242500 4.602800
31.283501 5.997790 3.235060
39.024200 15.107400 0.613479
44.600399 11.117400 5.387820
51.528702 23.378700 3.326570
21.936501 10.147000 5.105410
21.104900 47.162899 0.284642
8.470910 39.603199 4.021470
20.223801 36.895401 2.190960
25.524900 15.705800 2.315680
54.714298 33.914902 5.075190
20.430599 36.844200 0.713113
36.466000 37.759701 0.570400
3.490260 7.900420 0.022974
44.895100 20.653999 4.456820
40.046501 10.197400 0.670088
53.864799 35.891399 5.165890
51.067101 14.016300 5.390810
28.980200 10.355000 5.132870
32.716000 6.488120 3.737620
50.074501 28.580299 0.762931
25.993999 5.272190 0.384074
14.880800 43.009701 0.184041
29.055201 5.297990 4.751490
34.137199 16.078100 0.515563
29.113800 34.606602 3.021410
53.165298 17.414600 5.061930
32.472198 15.631300 4.823780
2.610140 49.584000 5.234890
41.279900 10.683800 5.307350
41.474201 20.187500 0.681663
21.973301 37.666801 4.976360
42.800999 40.988098 4.404050
6.303960 3.039480 0.030692
15.459400 1.688610 1.255690
32.059101 37.454201 0.484501
27.286100 37.886902 0.399285
3.035020 7.903200 5.373660
29.263700 6.782160 0.450767
19.730900 3.704960 0.257982
6.038370 51.260399 1.646600
51.029701 17.343800 4.967970
4.751030 0.204720 3.919160
0.615610 6.445140 5.395090
30.952299 9.665490 0.477855
31.319401 34.008400 3.655540
12.146400 44.955399 5.272830
15.464300 38.035198 1.965380
14.244800 49.827599 1.622430
39.482498 41.722099 5.342440
14.731300 1.532320 3.082390
38.178600 8.445310 3.308030
16.028700 2.786660 5.363290
47.740002 12.429900 3.864940
18.943501 39.691799 5.089680
50.992001 13.948300 2.358720
38.862000 36.851200 0.614506
21.636400 13.935900 0.307212
38.114700 18.686800 4.601630
49.875702 29.840900 4.450700
46.216301 39.518700 1.001490
12.400700 49.887001 0.109936
23.595600 9.649050 5.134000
7.468350 6.027570 0.060470
33.574799 17.882999 2.519960
11.529000 11.581200 5.189710
9.451040 0.504799 5.057290
42.130600 10.004000 4.092940
3.674880 50.443802 0.421590
2.804660 6.678360 0.011371
41.840801 9.887560 1.540700
54.195099 25.312000 3.522080
13.593800 49.959499 4.776270
20.643900 9.692240 5.129880
29.011801 15.259500 4.855010
38.104500 42.843498 3.695260
21.568701 40.125702 5.066180
36.104801 39.295700 5.079970
14.971000 7.658490 5.239760
3.248170 1.130050 0.860344
32.244202 34.079102 4.720220
41.113701 18.925100 0.626606
20.716900 7.773230 0.280508
5.834490 10.311300 5.311740
12.877800 11.582000 0.166081
36.863899 13.978500 4.954140
31.565399 45.166901 4.410660
25.870199 35.466000 4.111840
49.787102 13.377600 5.230890
20.824600 48.294498 4.645920
7.066560 47.803799 0.034130
47.010899 19.954599 0.733749
53.956699 27.753599 4.271830
36.120399 34.793800 4.756050
17.548300 46.590801 5.311600
50.908199 13.906800 3.543370
22.275400 11.979800 0.313707
15.398100 5.611640 0.183200
32.437599 37.679199 4.949200
24.378201 3.971480 0.352071
14.162800 46.299000 5.308870
48.291000 36.429401 5.140740
39.996498 19.745100 1.948720
0.365918 5.292390 4.886680
20.155600 41.531399 5.134780
13.643000 39.739700 0.175731
16.055201 12.089400 5.105590
34.584499 33.092098 3.322500
27.268101 16.157600 4.313940
29.373501 34.536098 1.386940
48.459900 20.785900 4.486590
43.627300 34.367802 4.795580
32.969799 44.686501 1.163440
19.929199 8.071530 5.195730
44.525600 15.893400 4.904140
35.472801 43.465302 5.367730
50.030102 22.879999 3.457880
33.165401 39.647598 5.086330
38.844398 31.893299 0.580621
27.272301 12.222500 0.401406
21.487400 43.496201 0.294452
11.956500 0.969746 1.464600
18.599300 40.906300 5.132850
7.431560 51.111599 3.052950
52.198898 14.545500 0.995225
46.192699 21.615801 4.376000
17.758801 10.007500 0.235698
20.396999 2.856590 2.440560
26.948799 6.245850 0.402710
47.778400 29.225700 4.347950
48.810398 12.925400 4.189140
19.829399 42.765301 0.267404
37.552700 40.896099 5.236350
41.865101 41.363899 1.785320
5.547100 41.243401 5.318660
40.770302 16.511200 4.788980
45.876202 35.714100 0.759136
42.091900 18.488701 4.642100
36.016998 9.607440 5.251190
45.849998 36.487301 5.073310
33.069199 44.652100 5.152290
52.514900 33.393398 0.888056
54.777599 35.098801 5.251170
41.499901 32.737701 0.637733
19.674900 2.670680 1.454290
23.203600 5.969660 5.294650
40.890800 12.749000 0.670374
45.968498 11.635600 2.568850
3.934080 48.603298 0.008521
29.230000 40.970299 5.139240
15.610600 1.723420 2.394180
30.344200 16.988400 1.824020
32.859200 6.537250 5.050700
44.381302 35.353802 0.716425
53.178299 21.846001 0.840115
35.946201 12.540400 0.564602
1.809850 5.842910 0.001395
42.175499 30.857800 2.884730
21.278900 6.518710 5.250760
30.761400 34.159599 0.561839
53.403702 34.846500 5.216540
32.782200 33.602901 3.616830
10.477600 12.094700 2.901860
50.734501 32.330101 4.770620
55.180599 17.507200 4.990220
4.930960 40.352200 2.753110
51.829899 18.921400 0.854613
42.655602 37.930199 5.117790
27.547100 9.858570 0.410368
23.618700 12.625900 5.007550
11.696500 1.687310 5.376630
32.485802 35.260201 4.800640
18.513201 37.318001 4.626040
0.207142 6.005260 1.931830
23.367599 36.114601 2.342620
3.086830 43.501202 5.371370
7.596120 0.178592 1.344280
51.460499 36.063499 0.903577
5.598680 7.443530 0.041474
41.046200 36.826000 4.976080
37.061001 32.384102 4.234880
40.596401 35.711201 4.864910
30.226700 6.361360 5.359170
35.142700 33.818802 4.691820
41.429001 32.991798 4.658590
2.955780 1.380830 2.061940
12.286100 39.179298 5.165350
5.832410 4.544390 5.350910
26.224701 35.374001 1.690210
28.570299 12.357700 0.428578
3.609260 50.403702 2.524840
43.189499 18.128799 4.680530
26.071800 36.689800 4.894680
5.534020 51.221901 3.274830
47.317200 22.009501 3.021190
18.180500 48.946899 4.416640
47.725700 34.495602 4.901550
15.126200 39.527302 0.200519
47.358898 21.671900 4.382040
3.809590 10.684600 4.574900
10.161300 43.600101 0.105029
13.573600 41.296600 5.186230
31.234600 5.981070 2.080500
17.468901 12.777600 0.240058
51.415501 15.550100 5.201080
45.476101 11.422900 1.335780
24.898300 35.717800 2.655910
33.309799 7.821150 5.325140
25.137800 6.020320 5.297590
1.022750 47.499401 0.013870
39.121300 34.077400 4.721900
0.358462 9.157880 4.460250
51.660198 35.304901 5.160260
34.523300 44.154499 4.028400
24.453400 47.006901 5.377270
0.322408 45.773499 4.464350
11.236400 48.999100 0.092092
32.482399 17.573400 3.466770
8.210970 5.462740 5.316950
26.075399 4.396890 1.236950
39.278000 10.300100 5.273920
49.034500 13.029000 1.269700
53.189899 21.657301 4.482740
54.486900 18.231100 0.932097
33.951302 14.545400 4.897930
35.489201 7.446150 3.367340
27.278500 36.030399 0.396729
16.941200 13.573500 4.199340
36.748199 16.881100 4.738440
38.659302 17.696199 0.589179
18.897301 2.479000 2.387090
4.868770 51.091499 1.466980
13.292600 9.882430 0.163241
41.410999 41.546001 3.960550
21.717400 8.873560 0.300812
15.755600 13.294600 3.080270
5.353470 40.262798 3.864480
27.968599 43.451302 5.246730
10.798800 5.732290 5.309830
17.653500 43.072498 5.196850
27.047300 4.674280 3.238840
28.462900 5.112050 1.589050
24.697500 13.489100 4.957860
29.261700 45.448101 5.370530
10.544200 50.564301 1.521920
48.600700 28.840599 1.016700
42.172600 40.811798 0.718688
34.080700 10.249000 0.541759
30.620600 37.816399 0.460285
24.088800 45.149300 5.276740
31.320299 9.446890 5.187050
45.706299 33.419701 4.758870
26.283199 41.064098 5.098110
30.918200 45.095600 5.379130
13.349500 1.252150 2.720600
34.190300 33.203800 2.039280
8.545890 48.697899 5.360320
42.238201 11.944100 0.709690
44.466202 31.614300 0.683211
44.558102 30.124100 0.870155
9.719110 10.401400 5.245300
6.717080 11.287000 1.529140
35.296299 13.575000 4.960640
40.114101 39.796101 5.198890
45.640800 31.702200 0.710304
43.368599 40.748402 0.875262
0.379220 42.067001 4.997450
16.134199 49.417500 2.391810
0.973056 9.852240 1.854200
33.692501 37.397900 4.945560
33.098499 17.748100 0.981610
42.774502 13.628900 0.706718
7.551360 45.173100 0.059891
47.324799 17.057199 4.867520
19.952499 6.326490 5.255030
41.409401 20.167601 2.131050
12.976300 46.729401 5.313410
39.618099 14.822500 4.911730
10.077000 41.225300 0.116338
20.026400 11.466100 5.078270
11.091400 5.469650 0.108171
44.039398 38.894901 5.236650
25.879400 8.814020 0.376904
19.740299 46.795300 0.257568
31.410700 6.273940 5.380700
7.437250 51.110600 1.108480
3.554660 1.426500 5.391770
37.034901 43.241100 1.046480
39.360699 35.484901 4.834600
34.362000 35.287300 4.796590
2.081430 4.295550 0.001395
34.328899 44.221001 5.280200
18.719801 42.601200 5.189420
26.669500 42.161701 5.160310
2.882960 10.499400 2.629250
6.244570 46.446400 5.338990
35.088501 37.367001 0.541648
8.665160 1.500060 0.042338
11.090200 3.405010 0.097304
22.581800 8.091860 5.198750
8.774240 7.678820 0.080725
45.263000 16.289801 0.736080
3.220720 1.153600 3.860130
40.368000 19.799999 0.605371
21.270201 12.900400 5.011070
48.646500 38.411701 2.648460
14.529400 3.795630 5.339840
47.919201 37.545502 5.251980
41.269798 37.691200 0.672109
28.888500 36.888302 0.428823
22.458599 14.918300 0.641542
21.927700 38.577099 0.308131
11.384100 7.211480 0.121549
38.424900 33.542500 0.584269
6.466680 11.234000 4.167060
44.566799 17.359301 4.758470
23.283800 12.618400 0.333577
19.720900 48.290100 5.381640
13.974100 47.699100 0.149113
51.012100 33.246899 0.849973
0.610824 5.358170 0.001395
34.290600 7.142250 5.387970
43.270599 13.476000 5.108480
4.638240 10.503300 5.334160
36.664501 38.933399 0.581379
43.483898 36.574501 4.997400
31.664801 14.398100 0.475655
46.913101 17.000200 0.766243
28.459299 13.682400 0.424440
55.051601 16.532801 2.056630
16.668800 45.605801 0.202966
24.597099 9.092030 5.145440
31.557400 43.894600 5.314910
50.247501 29.802799 0.784217
20.488300 6.346010 0.274663
54.316700 31.090200 4.756560
18.153601 48.953201 3.104410
27.855101 34.948101 2.893220
24.858400 10.597000 5.078480
53.664799 24.030100 4.203940
45.738300 21.134100 0.694905
50.694199 22.020399 4.397280
17.108299 11.562800 0.230279
2.159110 47.409000 0.000044
17.783100 2.239040 0.218117
29.000900 5.280630 0.470962
26.498899 45.709900 5.340530
26.202200 10.017500 5.107100
17.391701 41.042000 5.131080
15.638600 41.631901 5.175960
36.249699 18.641100 2.865850
2.704610 4.364180 5.385720
27.547001 38.016800 4.959820
40.081299 31.491100 1.833000
20.222401 36.895802 3.547000
8.042720 41.542599 5.267330
10.017200 44.643799 5.303120
23.735001 36.019402 3.986680
4.231590 6.808950 5.355830
53.735901 24.113300 1.506340
3.185250 42.271198 5.367550
44.665401 37.279099 5.101480
0.626249 8.974010 0.001395
10.576500 12.116800 1.294200
47.314201 12.232800 5.343560
14.887600 10.292300 5.172260
28.877501 12.664400 5.011350
30.107599 45.633400 4.159290
0.003090 7.874600 4.841710
28.694000 41.926498 0.434171
34.382801 43.312401 0.554836
3.899750 3.706790 0.014210
41.411800 36.289700 0.664539
30.564899 35.653099 0.453091
16.375999 13.077200 0.224984
37.453400 12.487600 5.079360
55.853298 33.331600 4.823190
9.383450 11.851200 1.247380
27.231701 8.305610 0.405842
26.261600 39.138100 4.998600
6.994870 39.915501 3.104190
23.085699 46.804298 0.324839
16.702400 7.798300 0.210500
36.239101 11.909100 5.088690
43.404202 30.479500 2.141640
11.827900 48.209000 5.343260
40.279800 19.828800 3.436130
36.716999 7.902280 3.307400
23.440300 43.918701 0.332478
33.903500 38.509800 5.022030
54.588200 22.027300 4.426540
51.674198 30.260099 0.820616
26.918900 12.487500 4.990260
45.892899 29.707899 1.161910
52.421001 27.585501 1.240840
33.247200 11.715200 0.518497
28.331301 7.558030 0.430035
34.095901 9.200540 5.256390
16.510599 49.330898 3.629690
1.611490 42.286201 0.000044
1.698360 6.066550 5.395090
44.673100 32.880299 0.698491
23.919901 15.289900 1.074180
2.006730 47.182800 5.393740
11.575000 40.767601 0.140411
27.482599 39.690102 0.405723
42.113300 39.639500 0.708013
4.502130 50.949001 3.663650
25.278999 10.400000 0.363773
34.382500 7.058520 3.865190
40.929699 16.701700 0.639828
37.457001 32.266899 2.841550
37.860500 15.499700 4.856870
31.642900 45.140499 1.912640
45.309700 38.316601 0.772110
46.443001 18.795900 4.675440
2.585140 2.949400 5.390250
40.198601 9.228660 3.968660
7.610060 50.600300 5.386510
20.349199 48.417000 2.969310
12.814200 49.160500 5.370830
22.182699 44.950100 5.268090
1.995380 2.348270 1.688120
32.584599 6.443010 1.777390
4.915020 46.739399 0.018712
32.244701 8.606900 5.253920
7.562380 41.914001 0.077690
12.092600 4.235520 5.317440
27.750200 4.937790 0.421320
25.071199 38.218498 4.971510
23.342800 5.694040 0.331382
14.448900 12.987100 3.781740
9.946220 50.669399 2.606340
23.076799 46.061100 5.324360
13.436100 12.755600 1.817880
31.840300 35.053001 0.472537
31.577999 17.165001 0.466011
41.743900 20.073200 4.494800
17.782301 44.890400 5.257520
8.811280 50.379799 0.040105
0.873540 9.767900 3.654440
50.217201 19.846399 0.807415
49.366699 32.441299 0.797947
1.700460 48.563702 2.023790
46.843102 38.307098 0.810764
34.501801 12.131300 0.540907
23.577700 7.485860 5.225900
33.034000 14.712300 0.503168
52.070400 14.482000 3.995320
11.002800 50.483700 0.435641
46.069401 11.916600 5.371230
3.900790 10.444200 0.031531
17.481800 37.560600 3.247810
45.097500 20.104500 0.691285
33.922798 38.582901 0.527354
7.855100 10.104000 0.086681
9.963480 8.433910 0.107465
50.176800 17.105000 0.845425
12.494900 8.095080 0.142230
35.951698 17.241199 0.541183
6.202560 51.259602 4.945010
48.947102 32.015301 4.656300
7.192560 0.107636 2.913240
9.242750 39.439899 2.322850
28.939501 16.607401 2.061050
35.878700 18.535900 4.467100
31.877600 33.856899 1.611260
16.176399 48.201599 5.354140
5.703250 10.025000 0.054928
30.459400 14.106700 0.456505
10.417700 11.952100 5.203930
27.088301 43.687000 0.402646
28.680300 16.537001 3.361390
44.791801 11.127500 2.682370
47.692001 31.284100 0.746493
18.665501 2.425780 3.921680
40.739300 19.317400 4.552010
31.849400 17.396700 2.107570
1.249950 42.844501 5.393740
28.302700 46.199200 5.375710
9.947910 2.516300 5.366050
8.510930 9.571690 5.259430
18.656200 11.615600 5.092760
27.674200 10.808800 5.088320
52.118198 14.505600 2.124410
43.462799 32.895302 4.659640
29.818399 16.845699 4.353930
4.476040 40.443501 4.662420
39.450802 8.928290 0.709466
19.195299 40.777699 0.261941
33.749802 40.787601 5.169180
43.296902 10.481900 1.217850
44.217999 10.879900 3.987570
15.560800 5.446970 5.287680
33.531601 6.767200 2.839240
52.383999 36.624100 3.494420
0.083300 42.752899 1.422540
30.373899 40.493801 5.113590
35.714401 32.771900 3.781080
8.996550 8.499880 5.273190
46.494900 12.923900 0.804385
0.855980 47.208302 4.045690
47.191502 30.837900 4.511480
23.492300 37.563599 0.336451
28.422001 34.835400 4.788780
7.938310 0.238766 4.467190
13.032300 5.823030 0.141617
35.982300 7.629100 0.678013
16.094601 45.655998 5.273400
12.852600 46.986900 0.130558
39.076900 9.022580 5.376190
12.457900 3.620950 0.121582
3.426860 5.335570 0.019264
3.911080 49.481499 5.386880
55.407101 30.688499 4.436210
35.787899 41.017101 0.572523
19.236200 8.173780 0.258839
42.300701 33.788601 4.735970
16.460199 46.961899 5.315570
28.896000 46.013302 3.523860
35.479198 10.977200 5.140650
11.368400 47.789700 0.100380
13.216100 7.137090 0.150524
45.260700 14.609800 5.065190
46.143398 11.711200 4.190520
29.562099 13.656800 4.947160
0.008950 8.014650 2.885060
27.557600 39.364601 5.029460
10.444400 0.679432 2.731190
23.459000 47.610500 3.497760
15.921800 38.646999 5.093230
39.722000 32.548698 4.599800
50.820900 37.397701 2.889620
14.053400 38.367100 0.250082
30.748699 43.400398 0.478596
0.000713 43.346001 2.816850
19.314600 2.578170 5.327980
12.474500 9.148260 5.216120
41.683701 41.436501 5.393280
31.605700 41.117401 0.486574
49.481300 21.804300 4.389830
39.505798 19.599899 4.494830
45.143799 13.274700 5.194410
9.292670 11.831900 2.383440
10.110300 48.406200 0.076163
20.497101 41.116100 0.281030
13.485000 12.766500 3.058400
46.853001 12.019200 3.278690
37.191502 34.846401 0.570993
50.049400 37.762299 1.103460
33.645100 17.902901 4.032300
24.201500 6.523820 0.345181
2.134690 41.456402 5.390120
15.240300 43.849602 5.240580
31.256001 45.012600 0.491695
21.107599 7.674040 5.200360
39.465401 16.073200 4.811480
6.843430 49.638599 0.015966
33.011600 16.368000 0.494784
15.862600 13.319800 1.530620
31.611500 38.863400 5.007490
13.486200 48.866299 0.134948
8.505510 39.595798 0.995206
48.512699 16.552401 0.806418
43.163200 39.150200 0.726659
9.978970 39.277901 1.142890
11.743600 12.377500 1.427800
41.334202 13.123000 5.099600
32.955399 17.251200 4.713300
23.225700 41.947498 0.330099
34.634899 7.144710 1.306340
22.957899 7.741630 0.325281
36.124802 32.655499 1.035960
26.655300 42.601601 0.392206
3.196130 40.699299 0.340639
29.607000 16.055901 0.436573
13.591800 6.391760 5.273020
25.388599 40.348598 5.057800
25.410601 14.899700 0.367855
9.863190 39.303799 4.991040
48.041500 38.691700 5.379640
48.562801 35.790100 0.822020
25.457399 11.577300 5.029660
0.914855 46.329800 0.000044
34.707802 13.779300 0.536492
44.912399 12.230200 0.770616
43.902401 19.784500 4.531870
0.334905 42.144699 0.107281
22.875999 3.769780 0.321552
12.209100 4.770590 0.121524
50.861000 22.762899 0.778312
0.427467 5.126360 1.197250
6.407950 1.974270 5.366710
18.767300 13.087500 0.261868
31.910000 13.566100 4.939740
24.878799 47.205700 1.482550
40.773701 40.605499 0.682957
51.590199 33.126999 4.881020
25.860201 15.792700 4.096480
43.888000 19.768801 0.671670
46.807899 11.998300 1.778730
25.852100 14.757800 4.890070
42.283199 17.503799 0.662212
14.340600 9.258510 5.207910
21.199400 42.565102 5.157410
42.631401 39.925201 5.296680
1.049940 47.544701 1.175280
18.721399 5.455970 5.295850
13.272300 7.573950 5.243120
44.500198 21.119301 1.476040
46.280800 29.583700 2.609090
6.701810 41.334702 5.294590
46.788601 37.268902 5.183600
37.729000 34.300900 4.739320
27.696501 14.001700 4.923880
3.511800 45.789700 5.366300
55.284199 21.112700 4.397470
17.250900 38.233398 5.060080
13.583500 1.299570 1.388320
0.936286 47.355301 2.625480
24.111000 13.818500 0.347049
53.579800 36.032398 2.568470
25.506100 45.008900 5.289840
50.293900 33.433201 4.896430
32.246899 12.218400 5.030330
29.732000 36.489101 4.878560
49.387299 38.068802 4.447850
13.822600 5.005790 0.153416
46.860401 39.238701 2.037810
15.238000 46.694901 5.314930
5.786490 4.458260 0.030420
48.156601 22.272699 0.729338
22.523600 11.924400 5.037080
21.287701 46.096802 5.306540
4.315640 40.475498 0.643614
47.201000 39.080898 3.806510
35.363602 42.068298 5.263970
23.223700 4.782620 5.344740
24.570299 37.170799 0.353516
55.164501 19.914200 4.609250
14.468400 45.465000 0.167800
40.061298 38.297199 5.068430
22.767500 41.876202 5.145440
30.627501 16.015400 4.798510
14.513000 39.468800 5.138380
47.806999 38.800499 1.246710
15.019100 11.501800 0.199142
35.611698 17.368299 4.695710
24.170300 43.046398 0.344335
35.205898 33.614899 0.525833
20.515100 12.814100 0.287859
24.085100 39.591599 5.041580
50.031399 31.243601 4.624510
6.703220 39.977200 1.057410
48.293800 19.086500 0.769167
25.830400 35.476200 0.472949
52.691101 29.128099 4.416680
13.443800 2.990410 0.137896
45.223598 39.947201 3.550670
50.329102 16.176500 5.094450
46.487499 38.721802 5.325460
11.355200 12.290700 3.875230
18.729799 43.893101 0.247455
29.196600 5.342170 2.757670
40.474300 9.339380 5.109360
33.682499 36.997398 0.515680
19.556801 48.620800 4.009460
41.439602 31.084400 1.839070
49.313400 18.574200 0.800514
35.090302 36.709099 4.892740
17.851299 42.152699 0.234325
8.354030 3.764820 5.342970
40.136902 37.725800 0.644762
16.295799 47.688499 0.190729
8.703780 39.754902 5.241080
15.491400 8.242950 0.194207
45.943001 17.265900 4.827640
47.528301 30.033300 0.728840
32.589100 43.219898 5.295020
20.249901 39.913300 0.279800
11.603700 0.898256 2.539850
35.251202 36.067902 0.538273
47.327702 29.248301 2.081220
17.562000 5.746460 5.277530
11.551000 10.628100 0.141914
45.336498 18.279100 4.699370
27.681400 7.755680 5.246020
49.163700 37.042099 0.856301
19.301901 6.926770 0.257260
36.039700 34.863499 0.546126
49.993401 34.926300 0.850114
35.019501 43.984901 1.857700
12.364200 39.935398 0.156210
42.027302 15.394800 0.676624
6.569090 42.675201 5.306510
32.564701 33.664501 0.593444
50.071098 15.639700 0.863043
19.993000 14.308800 3.482840
22.575899 36.313900 0.850998
10.408900 40.763599 5.229460
48.744598 20.245001 0.764561
12.662400 43.862202 5.243270
1.727730 9.033860 5.395090
17.282700 2.107750 1.437860
24.887100 4.235660 5.385950
22.023500 47.895699 5.389960
21.535500 43.737000 5.210210
2.506130 46.029598 0.004162
8.212490 50.974300 3.944640
4.640900 51.023800 4.986500
1.118180 41.307400 1.286310
7.161320 6.454560 5.309490
41.850700 34.148800 0.657015
14.047400 44.054401 5.254560
6.493390 9.032440 0.061867
16.795601 1.995830 2.543880
24.874701 36.089802 4.883810
17.565800 12.626400 5.066110
15.544200 38.016499 3.902630
33.277699 8.839450 0.528818
52.428200 27.583200 2.498110
0.062266 44.397400 3.988620
4.981230 5.895280 5.359020
17.521900 46.734402 0.217042
44.985699 31.245600 4.515640
1.574940 41.068401 2.541930
23.385099 47.488998 5.386410
32.805199 43.560600 0.520971
31.423100 38.803699 0.476476
18.570000 3.693650 0.236946
38.856499 19.408001 2.313070
49.501400 35.999699 5.156130
29.364901 35.752201 0.433444
9.205080 45.653099 5.316180
2.167840 2.144010 4.069070
31.159300 35.301701 4.797640
9.010630 0.427300 0.839762
14.939500 2.387300 5.375610
9.480130 42.618599 0.098450
16.033899 1.820770 3.529460
27.625601 15.142300 4.863860
18.146099 7.287920 0.236981
39.738701 39.508900 0.649090
44.961201 18.396601 0.705552
52.714802 27.487801 3.681210
23.314400 10.774700 5.089700
13.338700 3.913830 5.331210
10.194900 43.074902 5.275450
36.736500 33.668301 4.685590
26.492500 13.265700 0.384036
14.812800 49.712399 4.455010
53.041302 18.487801 0.893890
5.265260 10.979800 1.710840
13.490600 42.639999 0.160714
9.810550 48.872299 5.366300
47.701401 32.349499 4.675630
30.904900 11.672500 0.471119
28.686899 46.079102 0.611317
43.915298 14.450100 5.022820
18.495800 39.693401 0.252779
18.277700 13.887900 4.626690
5.187220 49.476501 5.382120
3.361260 43.434101 0.019611
45.623600 21.467100 2.862140
43.062901 20.676701 1.478090
10.915000 10.308100 5.224440
53.115799 31.378799 0.870376
23.272100 38.915501 0.332333
18.299299 13.893000 3.424130
12.639200 10.289400 5.192260
11.542300 45.043900 0.117378
32.667000 12.913200 0.501710
45.935902 17.648800 0.738990
0.795857 43.852100 0.000044
8.270650 1.069620 5.383430
39.517700 12.777200 0.638310
7.694280 8.237170 0.075709
34.569500 17.462400 0.516317
20.682501 38.534801 0.289282
6.914060 4.043640 5.336950
8.735290 0.378887 2.040760
24.297199 9.205120 0.347885
19.914200 48.528999 1.722240
31.687201 7.425780 5.315240
9.944760 1.901750 0.068757
52.618900 17.233299 0.903584
34.294300 17.091600 4.719640
41.034500 17.645300 4.700630
32.437099 6.911820 0.516788
5.163500 45.016899 5.352420
17.903400 8.002310 5.205910
25.568701 7.311900 0.372437
2.638390 40.810699 3.273220
1.770550 10.261900 0.103629
47.553101 34.794998 0.784251
7.723370 11.499900 3.714190
11.915100 9.385090 0.140638
16.248400 37.850700 2.773370
6.429980 51.252399 0.397415
42.558800 10.175800 3.008260
20.307899 40.343102 5.092000
38.426201 31.980400 3.577220
15.000000 49.674500 2.472880
10.308000 4.318160 0.089797
40.193501 36.481701 0.636346
38.366501 13.771600 0.610855
16.193199 42.819099 5.197640
36.539799 18.723301 1.617250
41.179001 11.034300 0.691074
23.893801 3.774700 2.718960
53.002300 31.631701 4.741390
18.055201 3.241420 5.363650
38.772999 40.326099 5.221740
42.176998 11.778000 5.244260
29.571400 11.752500 5.061140
3.288230 40.680901 4.568420
12.162000 50.249802 2.211990
37.385899 37.935699 5.015320
4.787000 10.879900 0.649078
7.119950 4.272620 0.043375
48.594898 22.418800 4.011170
52.187401 18.554701 4.840940
14.685000 12.073600 5.129070
14.912500 48.651699 5.368830
20.040701 43.353500 5.198640
25.357401 43.005901 5.184500
49.106400 14.884200 0.846547
6.871620 43.205601 0.061620
9.889030 50.679501 0.502324
23.527201 45.249500 0.333175
25.433100 40.806801 0.365210
4.354070 10.793400 2.463710
23.771601 40.596901 0.339314
12.711100 38.667599 1.520220
19.411900 46.069099 5.300500
45.164600 29.937401 3.224510
16.281500 8.244770 5.202360
49.383400 22.671400 1.700620
25.227200 13.614700 0.364411
24.207800 15.144400 4.893650
0.238230 8.933200 2.075510
42.037399 35.244801 4.868330
21.858400 3.232680 1.827060
30.118200 45.630199 1.903420
7.576440 50.794498 0.014446
1.960080 40.946301 4.254610
21.567600 5.317760 0.295929
11.217300 43.050201 0.123197
28.117901 42.189800 5.184120
44.195900 15.180100 0.720216
17.637199 8.878270 0.230686
50.563301 23.057501 2.174060
19.775101 9.204700 0.269156
0.712532 43.902599 5.393740
46.445599 21.730400 1.370940
51.787601 31.698299 0.843777
26.139200 39.665199 0.377639
27.990299 34.911400 1.741670
11.602200 0.897976 3.778940
20.358801 10.190500 0.280063
11.125400 39.021801 3.339210
22.095301 42.528301 0.307276
9.272130 10.983600 0.109520
10.390500 0.669929 1.343750
13.316200 45.479301 0.145659
8.488410 50.925800 2.454050
26.430201 13.729100 4.926650
37.380501 39.653801 5.140820
33.452999 44.521000 2.685290
2.111120 8.699250 0.002527
30.894800 34.123501 2.569350
17.337500 43.859100 0.220214
12.481000 1.493990 0.113308
0.036171 7.309550 1.904590
40.214600 13.509900 5.027740
1.783050 2.599770 0.147306
34.666599 18.192400 2.922340
6.529900 11.083100 0.071875
8.580690 47.438801 5.341440
51.918701 30.724600 4.596530
26.460100 46.754601 1.591530
37.721600 16.190399 0.582703
33.650902 13.180900 4.993900
52.496498 16.231701 5.180650
6.291720 40.064301 4.939590
39.603401 8.989710 2.945630
19.005100 45.009602 0.250144
40.255600 13.798100 0.646503
1.632040 44.979500 0.000044
45.186798 38.372101 5.233910
49.595600 13.288900 3.398130
0.069488 44.520802 0.942643
18.916800 44.938499 5.267670
24.948200 15.556300 3.438360
22.501900 36.332298 3.311430
39.025002 11.654200 5.165350
3.661540 46.783798 0.015245
10.448000 8.810050 5.260490
39.647598 11.425300 0.650564
37.466900 18.997299 1.027870
51.224800 34.749298 0.876133
29.676399 41.138000 0.453866
4.201540 3.238300 5.378040
43.609299 31.570400 4.538760
27.166100 35.130100 3.932500
48.436001 33.319199 4.785100
47.112598 14.332300 0.801263
2.919840 10.127600 5.373350
6.299840 0.066115 5.394180
28.993000 8.895780 0.442189
9.640200 50.723202 3.732870
18.896400 10.030400 0.257512
41.747299 20.271601 3.318700
13.585600 11.610400 5.150400
26.859301 4.620550 2.061180
1.905030 44.105099 5.393740
44.655602 30.094101 2.055730
5.442230 48.918400 0.014295
15.763000 44.563400 0.191381
7.635020 46.561699 5.326020
21.475000 36.586102 1.085770
1.843760 7.405780 5.395090
41.244499 35.118198 0.651239
23.335800 13.728500 4.964250
11.101000 39.027302 5.069550
0.071405 6.707730 0.395944
31.382999 36.550098 4.870740
46.709599 33.962799 4.835140
25.566900 43.315701 0.370407
30.805300 10.961700 5.099920
26.523100 6.960260 5.269500
37.054699 18.188601 4.641170
52.242699 36.285400 5.336860
35.970699 35.950001 4.836880
9.802090 7.701640 5.287380
24.023899 42.806599 5.178390
6.505740 0.014279 0.053041
7.959820 45.352299 5.308570
48.950401 12.990200 2.416090
3.834520 41.320999 5.351720
54.029499 35.809898 3.635310
42.990398 40.911499 3.283180
2.000400 45.543301 5.393750
34.790699 15.925800 4.798940
19.246401 12.678800 5.048220
22.080000 39.902401 0.308463
36.666000 36.886501 4.919020
50.941700 14.322600 0.904644
28.599400 38.077900 0.427183
11.007300 50.482800 3.038160
13.921400 38.397202 1.888600
12.709100 41.808800 0.151314
6.501180 8.661140 5.308660
15.429600 13.217800 4.883800
8.973500 50.840401 4.876900
46.976299 15.899800 4.985810
28.314899 9.034380 5.190270
22.976700 3.520510 1.881670
27.574800 45.373100 0.415042
21.838400 10.184600 0.303941
35.418098 18.405399 1.967050
9.237400 9.698680 0.101311
11.758500 41.553398 5.218380
43.789299 18.056700 0.685413
1.305490 3.290690 4.248230
39.904598 34.821899 0.619452
24.331600 11.359600 0.349393
7.624370 40.341801 5.268140
19.400900 14.054900 0.273494
24.716900 12.451700 0.355909
20.073700 45.037701 5.255640
18.838699 48.795799 2.091680
32.469299 41.985100 5.216130
40.294601 32.701900 0.612087
37.476700 37.093700 0.590078
10.850300 6.928610 5.287110
31.698099 16.471500 4.763750
33.699001 6.862400 0.544724
43.435799 11.784200 5.270150
18.608299 47.070599 0.237567
45.098598 40.001400 1.158440
17.024900 3.139800 0.205325
18.727400 48.821400 0.300795
50.176601 31.558701 0.808121
43.824600 36.559200 0.715720
8.650010 40.897598 0.098285
2.869980 44.901600 0.010757
39.780602 17.152399 0.613007
37.854801 35.886002 4.866190
44.744499 40.153999 4.717120
39.501301 31.662600 3.272820
27.129499 46.563400 4.793000
34.653301 41.664600 0.554583
51.830502 21.573700 0.815923
12.422800 48.299999 0.116904
47.241402 18.287399 0.757721
29.097300 42.890499 5.236060
43.449200 12.662300 0.728172
24.717300 7.272360 5.226840
32.879501 36.595798 4.891560
47.785000 37.369999 0.822200
0.356588 45.926998 1.645450
8.315430 11.625200 1.811450
34.302101 18.089199 1.442300
17.877899 45.152302 0.227765
16.591499 10.982300 5.125530
38.247700 42.790501 0.901397
14.351000 8.561210 0.178115
2.915940 10.506000 3.832810
24.162201 35.908600 0.958953
23.260599 44.346298 5.252800
13.733800 38.439098 3.457590
6.133800 48.104401 5.352590
22.296200 36.407398 4.928670
17.652000 49.068600 0.610379
9.901560 50.204899 5.386630
37.447102 32.416599 0.559121
3.242590 10.571300 1.417930
29.802999 16.841600 3.169890
35.892502 10.326600 0.575616
5.073290 40.322102 1.622500
6.613580 44.525501 0.051741
2.087120 43.933899 0.000044
24.671700 43.971199 5.224140
26.813299 40.890598 0.393295
47.379601 35.957001 0.794234
24.844400 4.045760 1.381530
51.833801 15.928700 0.903033
26.098900 4.403820 4.092150
13.849000 1.744180 0.140556
22.460699 47.868599 0.311614
9.853330 7.281190 0.098674
29.845600 38.765099 0.450160
20.999800 3.136690 5.389850
22.560600 39.090099 5.026310
48.629002 34.294899 0.803061
48.675201 30.543501 0.757334
5.778500 1.183500 0.012512
16.561001 49.319500 0.258525
12.562100 1.092620 4.848080
3.133150 46.953098 5.375240
19.725700 14.242700 2.133180
1.461930 48.231300 3.914380
33.259602 11.502200 5.096150
28.731600 16.550900 4.725650
26.707001 8.514400 5.192050
43.593800 30.421101 3.473070
25.740299 7.847950 5.212200
28.178499 15.072000 0.415773
17.496500 48.004799 0.213545
6.117030 6.140220 0.043013
44.249001 37.623100 0.737141
37.559898 19.024700 2.357890
46.575298 30.953400 0.720666
40.689201 41.835602 4.877440
50.782799 34.466099 5.029220
0.233965 45.376400 0.166617
5.061610 10.936700 4.148620
3.685200 40.601501 2.857910
46.395401 36.764999 0.783826
27.674801 46.396301 1.451400
2.675200 49.639801 3.713800
15.155200 47.738998 0.170665
35.922001 7.607010 4.431620
24.760300 45.826099 0.356812
47.875599 12.492600 2.157700
37.282799 13.350700 0.590985
17.647301 39.764099 5.093400
52.130798 14.644400 5.376620
50.163601 36.188301 0.872456
3.982850 1.337180 0.004392
26.573601 46.015701 0.394909
36.403301 7.785660 2.222220
19.189100 9.157460 5.169420
20.654200 48.338600 0.515849
16.534401 40.997799 0.215959
4.870740 2.802580 0.012640
51.318501 17.147699 0.869807
28.141001 6.280250 0.427750
17.705400 10.569000 5.119990
10.433100 47.042900 5.340380
48.393600 13.950900 0.839626
30.545401 12.543900 5.006970
43.087399 35.035198 0.688179
32.588501 38.718399 0.500295
8.059720 39.690201 2.354720
9.346220 39.945000 0.111700
14.850700 45.229301 5.283160
13.403400 12.748300 4.714220
53.388000 30.374901 4.593020
6.453770 11.231300 2.835900
31.763800 42.742001 0.495389
14.659100 38.224701 5.056410
25.504000 47.027302 2.427250
25.041500 38.786999 0.360086
9.729950 3.690710 5.347740
17.099899 13.610900 1.230200
14.622400 13.028000 1.489720
26.565100 43.890202 5.247790
21.453400 38.734699 5.020390
43.554901 10.593400 2.666420
40.554699 12.166500 5.154910
11.208900 2.716110 5.356930
4.787360 46.800301 5.367040
12.173000 43.981499 0.132102
48.233002 38.603100 3.889030
48.335999 18.549601 4.720760
50.978298 28.065701 1.521160
42.325298 32.023602 4.574100
22.444300 3.383550 2.940240
52.827499 14.856600 3.084770
38.563900 39.634399 0.628009
26.082800 36.788300 0.377374
24.932400 4.071020 3.404080
8.531310 43.088501 5.275880
15.245900 46.552299 0.176386
37.918201 32.130600 1.613250
48.116402 13.359200 5.306010
40.161301 15.150800 0.633561
6.253870 0.002185 1.876730
7.102090 1.930740 0.020194
8.525200 5.432940 0.062835
38.947300 31.826401 2.076980
38.939899 16.243401 0.604176
18.106300 9.505050 5.158020
25.146999 44.664398 0.363383
55.102600 18.688299 4.813530
21.951200 48.004700 2.403040
8.210050 46.140701 0.053803
7.065980 10.475000 5.284250
12.768400 12.606500 0.883036
19.801800 2.703490 3.992520
38.891300 17.265699 4.715740
36.799900 43.328201 2.776890
47.485802 29.197701 3.217140
1.942430 40.949902 0.558600
17.463200 13.696300 2.545310
38.915199 12.894400 5.065950
40.269901 31.435301 0.606734
21.311701 36.626499 3.302210
21.332399 4.038970 0.290509
20.128201 4.782170 0.266571
23.063200 10.596000 0.328900
9.877040 4.978970 5.328680
34.180500 14.803300 0.522466
35.562000 11.450400 0.562450
23.449400 15.167900 2.491070
0.293936 42.216499 2.887540
3.697070 9.262740 5.356970
51.245399 29.100100 4.389270
44.138699 40.415699 3.585220
16.502300 42.172600 0.211152
43.234200 33.188202 0.674295
5.634310 43.817902 5.334240
26.549200 15.026500 0.385715
10.541000 0.734976 0.073105
0.943460 3.893960 2.915180
28.685301 39.369900 0.430672
10.725100 45.604000 5.311370
0.066411 44.468201 2.143060
4.665140 4.719050 5.367080
13.345400 42.901501 5.223550
16.492100 4.258140 5.318390
52.188999 22.500601 4.364170
9.161000 4.311100 0.068191
11.995600 12.433800 2.682620
23.727501 15.239900 3.796710
46.373600 32.814201 0.738155
48.825100 30.724001 4.516180
21.653500 41.524399 5.118650
21.398399 3.114370 3.468850
46.557999 34.074001 0.756319
19.027000 10.316600 5.132160
42.894600 30.636400 4.388890
49.301300 19.153601 4.687040
10.920500 4.377720 5.332160
35.764301 40.400501 5.151520
51.185501 27.996700 3.138970
34.095501 33.230701 4.470960
35.438702 43.834099 0.772280
22.851200 13.744600 0.326261
51.370800 19.800600 4.676790
32.675499 9.692580 5.195820
22.818800 3.499930 5.394260
33.175400 35.923901 0.501845
16.057400 10.612900 0.211254
1.874020 7.384110 0.001395
51.059799 18.658199 4.809650
19.615000 3.850490 5.344880
8.319880 42.993500 0.081499
25.237499 46.890099 0.368147
22.002899 36.455601 2.086760
28.231100 5.039560 3.826090
41.065102 14.387200 4.981680
2.946140 6.573480 5.377400
17.489901 6.935040 5.237890
22.295500 37.341202 0.316327
28.493500 40.627701 0.428258
6.323940 45.050201 5.327840
22.656200 14.967100 4.127720
53.443501 22.763500 4.353300
10.529300 0.694386 4.098060
18.986500 5.011980 0.248189
52.096699 20.160000 0.842114
49.722000 28.481400 2.381870
9.372450 6.289210 5.307560
34.742298 12.043700 5.069100
1.314720 3.275310 1.802270
36.577202 41.520100 5.255480
26.566601 44.811901 0.393209
22.106800 47.964500 4.184500
37.280800 11.574200 0.600772
33.703400 39.778099 0.528284
1.347420 10.089000 4.765850
42.944698 40.930599 1.942780
35.723900 18.438900 0.531475
11.585800 43.029999 5.248440
39.535400 18.288099 4.634060
21.443100 48.135502 1.307540
48.948700 29.173401 4.354400
13.872100 48.069302 5.349840
39.638699 18.564899 0.600774
38.890800 8.709960 4.252160
42.611500 19.063900 0.654158
28.052500 6.483020 5.317710
0.202164 45.233700 3.212600
15.343700 38.063599 0.635720
31.495399 36.406101 0.470730
42.673199 36.355598 0.692308
16.194700 6.432590 0.197990
14.598400 42.153198 5.207060
9.644910 49.523800 0.060823
37.821701 35.905201 0.589456
18.341101 38.507900 0.252542
30.412201 38.233200 4.978140
38.432301 11.312000 0.628816
7.579570 11.469400 4.902830
30.759800 40.140900 0.469334
38.076599 14.127400 4.966890
17.867599 40.705898 0.238061
31.697500 10.570600 0.488234
45.078098 36.829601 0.750255
22.513901 43.156200 5.196400
30.294399 7.742580 5.288980
14.097700 41.562000 0.176795
17.475000 2.152090 3.738950
33.390400 34.514000 0.498844
21.873699 14.773700 1.800720
27.908501 11.227800 0.416141
5.313710 45.360401 0.028885
1.660770 10.228200 2.797880
49.605701 17.671200 4.878570
38.881302 41.390701 0.645588
36.664200 36.128101 0.566074
29.399599 14.623800 0.437375
12.985200 50.083000 1.064650
17.306499 49.147999 1.855770
16.728901 4.692870 0.203124
29.261299 44.025101 5.297190
37.936199 38.410198 0.607856
23.854401 38.367901 4.992600
41.595402 14.080000 0.676975
51.824902 31.878799 4.734270
26.590799 4.681900 5.387990
17.628099 2.187370 5.073290
21.504200 14.682400 3.186800
49.849201 33.498402 0.826194
38.056000 12.449800 0.613828
8.862270 11.264200 5.240430
44.884602 35.087898 4.890830
4.037510 45.477699 0.021932
12.440700 2.570340 5.359070
35.426601 32.853401 2.463170
12.480800 12.542200 3.912450
49.250198 21.639099 0.758290
9.067530 45.127800 0.075895
43.277199 31.756701 0.662209
22.881001 8.875150 0.324320
37.389702 15.007800 0.584282
1.340230 4.736640 5.395090
7.306350 47.851002 5.344640
47.867100 15.321000 0.805579
18.594000 43.753101 5.226300
7.570750 11.467600 0.446517
24.123899 7.658480 0.344479
40.291801 41.671700 0.679602
20.159800 14.350000 4.851510
38.719799 34.804699 0.598101
11.501600 38.937801 2.104770
35.292198 37.956100 4.978630
30.096100 5.624090 1.861030
37.088299 9.412550 0.608289
10.381100 45.076000 0.100422
40.902401 38.859600 0.672350
29.837601 13.065200 0.449268
34.910500 39.433300 5.082580
14.563100 44.171600 0.174949
20.998301 3.011260 1.113870
11.079700 50.469200 4.581380
47.956001 12.706800 0.844813
42.701500 14.706200 4.992660
20.059200 38.378700 5.028590
29.506599 43.331902 0.453131
23.755800 47.526001 1.096590
18.764200 7.231580 5.237770
14.646300 38.227699 2.785020
18.215799 37.387901 1.573080
28.355900 34.812199 0.633577
1.655070 48.509899 0.768699
45.824799 19.163000 0.719576
16.159300 6.585320 5.247830
9.860260 3.213110 0.074881
33.142899 33.500599 1.719850
43.569302 40.595001 5.387070
0.846142 41.517399 3.634470
32.019901 8.957260 0.500744
52.365501 23.657200 2.497370
9.040860 43.888302 0.082704
32.142601 39.868999 0.494272
11.232400 49.305401 5.369000
7.086230 0.957933 5.382000
10.671600 40.063400 0.131065
8.910160 44.266499 5.294500
15.974600 1.815820 0.181627
35.924301 43.653500 3.549400
53.520599 33.507198 5.038160
26.330000 35.346802 3.026080
36.780602 40.178699 0.590846
7.742030 40.127499 0.088584
20.903900 42.199902 0.284936
5.108540 0.112353 1.732070
42.164101 17.310900 4.750680
16.202600 43.399300 0.202188
52.371799 34.267101 5.064820
11.435700 41.926800 0.132281
2.419240 1.846250 5.172550
4.152020 0.526089 1.227770
17.126900 38.481998 0.234016
38.216202 10.838700 5.220860
21.944201 46.044201 0.302226
24.648500 5.458530 0.355712
35.490299 14.965700 4.863230
9.131760 41.909000 5.259550
35.118900 15.437200 0.535561
30.385500 16.999701 0.456934
15.580400 3.017490 0.176682
10.350700 41.925400 5.251650
2.755890 3.208710 0.007541
30.172800 10.760900 0.461666
14.683800 48.882301 0.157833
14.686100 40.741600 5.168720
27.535601 41.791901 0.409569
34.698299 18.180000 4.642510
10.943500 11.678100 0.138661
9.214860 50.798100 1.536620
5.306690 9.219360 5.330450
40.705299 33.875999 0.628312
55.165001 34.556900 1.366410
42.928001 20.635201 2.647710
32.021198 11.948100 0.490737
45.619598 19.724501 4.566280
5.324380 10.992300 3.033140
34.100300 41.924999 5.246940
32.037300 33.813599 2.757810
47.503399 19.401199 4.622570
30.236200 5.668160 3.649430
31.468700 15.081900 4.848560
9.149930 46.774502 0.067733
49.651199 34.620499 5.001750
38.276798 33.035801 4.638280
26.467699 10.402300 0.387051
26.205400 38.450901 0.378466
29.912800 41.885799 5.197460
50.714802 18.245899 0.841167
30.784000 34.207298 4.734790
49.859798 13.712100 0.884193
48.385101 17.899200 0.784801
