ply
format ascii 1.0
element vertex 1162
property float x
property float y
property float z
end_header
7272.620117 5714.870117 803.312012
141.580002 3602.659912 98.635300
3105.449951 10234.000000 60.502602
1120.410034 1580.030029 769.052979
5851.049805 1148.939941 0.000000
995.254028 4207.189941 45.028400
13606.500000 14796.900391 1089.089966
14583.599609 14742.700195 1037.579956
17759.599609 5014.009766 378.687988
15001.000000 13075.200195 378.687988
7247.259766 11959.200195 803.312012
344.877014 2610.189941 651.322998
15585.200195 8660.129883 378.687988
19603.099609 3874.260010 528.953003
12271.700195 10925.200195 640.364990
21912.300781 5043.270020 378.687988
17383.800781 6159.759766 1031.930054
22982.199219 6730.979980 1182.000000
15266.299805 13233.400391 1182.000000
7581.319824 9105.030273 0.000000
5285.649902 11346.799805 803.312012
2648.709961 7051.229980 803.312012
17426.300781 5708.799805 1176.739990
5549.950195 1453.359985 91.016602
705.942017 4736.009766 803.312012
2447.560059 8510.059570 803.312012
11588.400391 11863.299805 580.125000
7773.839844 9898.509766 803.312012
8581.980469 6141.759766 205.003998
14883.900391 9660.910156 1182.000000
7904.189941 2918.229980 579.431030
7665.009766 8578.360352 0.000000
13153.799805 13292.599609 378.687988
49.462799 3698.679932 581.854980
650.796021 2270.280029 766.721008
3942.080078 338.716003 3.600020
66.891602 4474.540039 193.520004
6359.259766 892.549988 721.741028
3939.860107 691.499023 803.312012
6992.049805 12876.799805 0.000000
2948.120117 1391.410034 318.281006
17374.500000 10416.000000 1182.000000
20679.400391 11303.500000 378.687988
15571.000000 8390.959961 1182.000000
2757.840088 596.177002 0.362256
13773.400391 14512.099609 378.687988
8371.740234 9477.980469 793.877014
9075.549805 14204.700195 958.812012
17439.900391 11615.200195 378.687988
17466.400391 13322.200195 1182.000000
5468.390137 393.876007 710.916016
7869.770020 7477.459961 803.312012
17130.699219 9920.790039 1182.000000
8247.879883 9653.059570 0.000000
13367.299805 10252.000000 930.231995
18040.400391 13558.900391 389.532013
8522.530273 14298.900391 958.812012
228.966003 5125.120117 217.632004
5457.970215 7896.990234 803.312012
6301.370117 1928.150024 30.747499
17905.500000 13162.700195 378.687988
21711.300781 10803.799805 1182.000000
2735.219971 7309.490234 0.000000
19711.300781 11819.000000 378.687988
1392.459961 1029.829956 235.365997
6329.740234 1086.040039 7.175050
18543.800781 4044.300049 983.403992
13755.099609 12833.200195 378.687988
5746.970215 612.978027 35.357300
10336.000000 13484.900391 201.438004
2093.629883 6869.879883 803.312012
292.673004 4875.669922 738.296997
8214.339844 3909.010010 384.798004
17083.000000 13873.700195 1178.430054
15936.799805 7285.100098 1182.000000
1434.579956 6618.060059 0.000000
15502.599609 7668.220215 1182.000000
2092.219971 6162.979980 296.666992
16850.699219 8477.349609 457.966003
16261.500000 13055.200195 378.687988
18744.400391 12547.200195 1182.000000
7241.109863 5306.029785 803.312012
11680.900391 13455.200195 958.812012
7896.919922 11702.799805 803.312012
18035.400391 11387.700195 1182.000000
7891.899902 6250.120117 803.312988
721.315002 6100.589844 764.450012
7839.169922 10144.299805 0.000000
20496.300781 10659.799805 610.200012
11450.700195 11370.900391 580.125000
4636.770020 486.864990 0.000000
15066.200195 11548.599609 1182.000000
1551.780029 5695.180176 709.656006
21157.800781 11298.099609 378.687988
17292.099609 11761.900391 1182.000000
21852.800781 9883.480469 619.752014
22605.400391 9484.370117 378.687988
876.973022 2752.750000 0.000000
7050.879883 2753.469971 0.000000
8030.779785 5167.910156 803.312012
6723.290039 12198.700195 803.312012
6201.549805 11171.799805 803.312988
7457.020020 13457.599609 759.682983
22798.800781 6195.129883 1182.000000
20669.199219 4127.350098 1151.459961
1868.119995 1913.280029 755.991028
19078.300781 12447.200195 378.687988
22273.099609 9778.099609 390.408997
15714.299805 6586.990234 1113.520020
2049.110107 9106.919922 290.248993
9899.580078 14233.400391 1312.680054
4861.720215 8754.929688 0.000000
8491.330078 13804.099609 958.812012
11639.700195 12398.099609 580.125000
8881.959961 10325.099609 580.125000
14673.099609 8476.990234 1182.000000
6881.740234 1576.489990 793.572998
8351.559570 10294.299805 770.427979
1699.119995 7383.169922 0.000000
4846.490234 6960.819824 72.117897
10049.400391 12208.700195 958.812012
3740.689941 8009.000000 0.000000
15307.700195 10747.299805 1182.000000
23463.199219 7767.259766 1182.000000
17762.900391 9895.049805 655.695007
3800.540039 9176.309570 0.000000
15141.799805 11302.799805 378.687988
15742.799805 6760.580078 388.931000
4967.629883 7354.399902 0.000000
2192.610107 7900.790039 803.312012
21727.300781 10753.700195 378.687988
7279.700195 7089.479980 0.000000
12494.799805 14027.900391 1171.050049
15083.400391 8198.099609 1182.000000
4477.020020 8217.290039 0.000000
5296.169922 6865.169922 37.494900
4736.149902 10456.799805 0.000000
2494.669922 468.317993 727.127991
16468.699219 10449.400391 378.687988
22831.599609 7899.399902 436.178986
14910.700195 13788.900391 1182.000000
13721.700195 9447.200195 825.942017
4034.379883 7056.770020 83.314697
10855.200195 14033.900391 958.812012
7523.629883 7835.160156 0.000000
3818.610107 38.162998 569.768005
9094.889648 13796.900391 958.812012
1217.000000 4562.779785 499.451996
8388.190430 5937.810059 764.767029
6978.549805 8663.660156 0.000000
7644.220215 4483.060059 0.000000
14202.599609 14588.599609 389.958008
4858.029785 10491.000000 803.312012
21988.400391 11303.500000 707.606018
12945.200195 11301.599609 668.302002
20269.500000 3831.679932 822.812012
6425.250000 10818.200195 0.000000
6923.040039 6566.379883 0.000000
15857.400391 13487.599609 1182.000000
1119.920044 7153.740234 55.943001
17674.500000 13993.700195 942.309021
2847.209961 9283.660156 803.312012
1021.250000 3911.639893 740.257996
6089.589844 6554.600098 803.312012
5735.240234 11603.599609 803.312012
6439.950195 2457.639893 457.040009
4134.640137 8046.959961 803.312012
8400.009766 4788.890137 283.278992
12665.400391 14555.299805 1182.000000
14870.200195 11801.000000 378.687988
8291.309570 7317.620117 0.000000
8073.350098 3515.649902 597.494019
5578.459961 9892.410156 0.000000
5482.080078 10369.099609 0.000000
22897.099609 8015.020020 1155.989990
20603.900391 10993.500000 1182.000000
1215.439941 5009.919922 708.741028
576.776978 4105.680176 0.000000
19895.000000 11591.599609 1182.000000
16310.000000 9271.759766 378.687988
15121.500000 7126.330078 862.322998
5629.890137 10866.799805 803.312012
6779.040039 7680.910156 0.000000
5081.609863 7264.910156 803.312012
22193.400391 5423.120117 1182.000000
21364.599609 10443.900391 439.226990
16988.800781 5642.000000 1182.000000
16951.800781 6942.890137 479.020996
3434.750000 453.550995 803.312012
8340.910156 10796.700195 735.440002
9377.040039 10346.400391 201.438004
4473.919922 1183.819946 570.278992
8311.400391 7748.959961 0.000000
3135.610107 136.389008 573.872009
5755.169922 7037.970215 0.000000
7347.310059 10217.299805 803.312012
16369.400391 14005.400391 1182.000000
14763.099609 14300.099609 1182.000000
16372.799805 9931.450195 378.687988
15469.200195 7187.700195 1177.560059
12047.400391 11970.099609 958.812012
7170.180176 12419.799805 803.312988
15135.599609 8621.150391 378.687988
17415.900391 10282.799805 378.687988
15775.200195 10193.200195 378.687988
5381.399902 10088.000000 803.312012
12323.000000 11565.400391 580.125000
20538.699219 12469.200195 871.922974
7934.379883 3961.330078 9.948030
6274.819824 7700.609863 0.000000
5778.580078 9143.860352 0.000000
1227.290039 2999.739990 78.763901
20517.699219 11545.900391 1182.000000
9069.049805 11186.500000 201.438004
9078.900391 15069.799805 201.438004
15066.599609 12174.799805 378.687988
18523.900391 13519.500000 471.795990
1551.839966 6201.270020 0.000000
7484.689941 10426.099609 0.000000
5136.029785 557.629028 0.000000
16187.900391 8043.339844 1182.000000
15666.400391 12476.900391 378.687988
7665.379883 8314.740234 803.312012
19823.599609 12847.299805 1046.849976
790.382019 3536.659912 803.312012
21488.199219 5334.560059 443.553986
20687.199219 12285.599609 531.570007
2401.620117 8538.250000 0.000000
6535.660156 6917.620117 803.312012
5524.879883 9299.620117 803.312012
7831.140137 9080.950195 803.312012
16155.299805 6626.720215 1182.000000
18599.099609 12711.400391 378.687988
6584.220215 8633.879883 803.312012
11669.599609 12211.599609 958.812012
3482.310059 1029.390015 763.770020
12824.299805 11745.599609 570.606995
15572.200195 9783.589844 1182.000000
23693.199219 6930.970215 979.473999
6050.850098 6221.259766 136.781998
6537.569824 6125.859863 803.312012
16518.300781 7771.390137 1182.000000
15769.400391 12953.099609 1182.000000
18690.800781 11856.200195 1182.000000
4161.979980 7622.120117 803.312988
6759.379883 6151.299805 0.000000
23563.500000 6429.549805 625.473999
8316.870117 11203.599609 695.861023
787.260010 4299.080078 803.312012
2327.010010 7423.729980 803.312012
20996.099609 5233.379883 686.820984
21624.300781 11353.000000 412.079987
17729.400391 4375.089844 704.184021
7521.080078 3910.639893 0.000000
19740.000000 12452.200195 1182.000000
4991.859863 8093.830078 803.312012
15585.200195 7625.600098 378.687988
20961.900391 4703.560059 1182.000000
4257.779785 116.980003 698.218018
14028.400391 14087.700195 378.687988
22543.099609 8711.139648 650.666016
7842.089844 5373.990234 0.000000
14226.799805 13676.799805 378.687988
465.565002 3328.560059 0.000000
5922.970215 7156.390137 803.312012
16591.500000 11014.500000 378.687988
20507.599609 4064.580078 420.565002
16687.000000 13134.799805 378.687988
17995.900391 10771.900391 378.687988
7036.430176 4780.200195 765.330017
16494.400391 6177.879883 378.687988
4647.660156 342.825989 793.999023
3911.179932 8422.580078 0.000000
14096.400391 11357.099609 378.687988
4808.970215 11919.400391 73.793900
18074.300781 12314.299805 1182.000000
13675.599609 14226.099609 1182.000000
8705.690430 7213.859863 349.348999
2966.330078 7723.979980 0.000000
19138.599609 5039.870117 912.307007
6731.640137 5613.200195 26.844700
14293.200195 8423.870117 629.517029
22863.900391 7595.720215 1146.079956
3977.250000 809.674011 0.000000
2407.060059 1421.900024 774.729980
17162.500000 10998.500000 378.687988
7947.189941 12005.299805 8.762190
327.294006 4103.390137 798.572998
5806.720215 7643.879883 0.000000
18632.400391 5222.509766 746.838989
15818.900391 9343.910156 378.687988
21050.800781 10998.599609 1182.000000
16010.200195 11386.599609 378.687988
6346.540039 13046.599609 101.028000
446.781006 2846.620117 19.405300
16927.500000 14271.700195 675.070984
7250.609863 10821.599609 0.000000
1028.290039 2672.520020 803.312012
14733.700195 10070.500000 378.687988
1486.260010 7885.939941 61.088100
4872.319824 12027.200195 692.239990
18872.000000 4625.950195 1182.000000
18570.500000 13173.599609 1182.000000
4349.350098 7697.660156 0.000000
8630.650391 10319.599609 201.438004
10338.599609 14796.900391 958.812012
19481.099609 12170.900391 378.687988
13559.099609 12822.799805 1182.000000
4402.220215 10344.000000 803.312012
9664.900391 10780.000000 580.125000
16978.400391 10393.599609 378.687988
15543.200195 11486.200195 1182.000000
7974.470215 7986.439941 803.312988
6184.470215 7266.509766 0.000000
16414.500000 8601.530273 1182.000000
7166.209961 8654.089844 803.312012
18015.099609 4609.350098 380.015015
1352.810059 6766.520020 803.312012
15459.500000 9086.299805 1182.000000
7008.910156 9941.620117 803.312012
1015.869995 2026.469971 803.312012
5384.310059 12456.799805 659.286987
15454.900391 9068.570312 378.687988
22839.000000 8549.599609 1164.770020
6405.509766 13191.799805 542.693970
7421.330078 1960.750000 141.395004
22593.800781 5019.620117 532.838989
14923.900391 8813.099609 1182.000000
7331.750000 3203.219971 803.312012
17452.099609 11026.200195 1182.000000
4582.279785 97.486603 168.354996
6612.569824 11000.900391 803.312012
3829.739990 10567.500000 0.000000
5986.419922 10087.099609 803.312012
16251.200195 6799.709961 378.687988
22860.500000 9508.190430 1182.000000
3415.610107 10526.900391 38.976002
567.129028 5423.680176 792.336975
19340.500000 4205.000000 378.687988
18225.400391 13725.799805 1005.630005
1251.140015 7537.799805 99.606796
19191.300781 11761.599609 378.687988
2732.100098 6612.100098 272.919006
5415.250000 8778.700195 0.000000
372.149994 5679.750000 512.125000
21870.099609 5863.520020 772.741028
17293.599609 12001.099609 378.687988
21767.500000 5381.729980 1172.119995
3243.050049 8621.200195 0.000000
22646.800781 7159.689941 1021.650024
14924.900391 12570.200195 378.687988
7073.580078 4247.029785 63.073799
4388.319824 1131.609985 158.871002
7409.589844 7443.209961 803.312012
23819.699219 7469.770020 786.122009
4164.930176 45.584900 201.184998
16145.400391 8410.549805 378.687988
13687.900391 12094.799805 1182.000000
15780.599609 6316.419922 576.551025
18778.400391 10544.299805 669.909973
6257.669922 9931.379883 0.000000
7657.439941 5513.819824 803.312012
12973.299805 12870.000000 1182.000000
16114.099609 12075.299805 378.687988
1561.479980 905.346985 591.171021
19926.800781 11421.599609 378.687988
2403.070068 6976.089844 0.000000
691.690002 1920.729980 153.419998
8166.870117 14336.000000 201.438004
22296.900391 4696.490234 940.526978
7062.430176 9932.879883 0.000000
18547.000000 11414.900391 1182.000000
21595.199219 4744.850098 1182.000000
12841.299805 12722.000000 381.990997
7058.979980 7928.729980 803.312012
21247.599609 4106.439941 970.755005
20368.199219 11708.099609 378.687988
14552.700195 8943.480469 378.687988
16847.800781 7653.890137 517.843018
1130.739990 3077.159912 764.445007
701.278992 2967.250000 803.312988
14270.700195 8618.419922 1064.569946
15624.200195 14169.900391 378.687988
4401.890137 725.327026 803.312012
1475.989990 8021.100098 680.856995
7766.229980 12094.400391 803.312012
6009.669922 1863.920044 641.117981
9367.959961 12924.599609 958.812012
10667.200195 13268.799805 958.812012
19923.500000 10788.500000 529.132996
12670.299805 10831.599609 655.192017
21049.900391 10430.700195 827.687988
5007.279785 10098.700195 0.000000
17510.900391 4672.040039 463.070007
12679.700195 14389.799805 378.687988
14122.700195 10541.400391 1182.000000
17504.599609 10699.000000 378.687988
13070.599609 12094.400391 378.687988
6819.950195 3138.209961 611.085022
16610.900391 12050.099609 378.687988
16082.500000 10943.000000 378.687988
14859.799805 8126.000000 380.657990
8699.320312 8990.519531 409.395996
13033.500000 14845.900391 490.097992
13097.799805 14382.400391 378.687988
13324.200195 11002.500000 391.433990
16837.900391 8054.609863 1058.270020
5019.660156 677.526978 803.312012
3368.070068 6889.879883 625.862000
2739.340088 9930.280273 145.524994
1679.689941 8392.769531 661.890015
6690.959961 6532.439941 803.312012
17804.900391 12280.500000 378.687988
17248.500000 13553.400391 378.687988
15086.599609 7398.500000 464.312988
6804.879883 2464.989990 796.005005
7294.620117 9060.769531 803.312012
8308.320312 10090.500000 9.674420
14712.200195 9361.870117 378.687988
4987.899902 9583.200195 0.000000
17218.800781 5127.419922 386.640015
19765.599609 4965.569824 908.609009
3418.290039 9244.639648 803.312012
5522.439941 793.960022 803.312012
13849.299805 13444.700195 378.687988
7298.299805 5734.529785 0.000000
12184.900391 12120.000000 580.125000
7176.370117 9476.160156 0.000000
18529.199219 10757.000000 386.272003
6031.169922 12587.700195 3.988450
7446.640137 11554.500000 0.000000
7917.660156 12648.000000 737.398987
8721.769531 7911.129883 470.518005
3190.959961 10204.099609 783.655029
12084.500000 12777.400391 580.125000
5495.000000 8809.769531 803.312012
16221.700195 5785.899902 602.739990
7937.359863 13600.900391 958.812012
5597.290039 11437.400391 0.000000
17980.300781 13873.400391 644.556030
16613.000000 10027.000000 1182.000000
2754.449951 997.966003 803.312012
11575.200195 14843.599609 958.812012
5213.930176 10816.400391 0.000000
7832.540039 13099.799805 701.567993
15057.099609 14734.000000 656.708984
7179.939941 8243.759766 0.000000
21152.699219 4383.040039 383.096008
16.596001 4206.620117 506.533997
10243.900391 13992.799805 1291.260010
1056.520020 7214.839844 674.333008
23836.699219 8024.680176 807.380005
15414.799805 12065.099609 1182.000000
16319.099609 14316.500000 459.059998
5247.410156 12290.299805 89.606400
3634.679932 7611.080078 803.312012
16621.599609 11455.000000 378.687988
4893.870117 7934.959961 0.000000
6878.470215 1658.280029 2.629500
5303.410156 11970.299805 803.312012
14557.099609 12356.000000 378.687988
15371.599609 13700.799805 1182.000000
8600.740234 6808.390137 141.332001
1860.000000 1100.339966 803.312012
734.474976 6556.759766 178.787994
21113.699219 11731.099609 397.046997
13629.799805 13701.400391 1182.000000
19050.000000 13152.400391 1143.930054
7040.419922 1322.099976 369.087006
19952.500000 12052.299805 1182.000000
19084.099609 11165.400391 378.687988
7610.669922 13046.299805 2.871420
17334.599609 9328.480469 767.356995
7092.040039 12967.500000 803.312012
6088.649902 8357.870117 0.000000
6380.339844 5729.580078 357.050995
17882.900391 10303.700195 401.785004
15805.299805 13535.799805 378.687988
1666.410034 5667.799805 285.924988
10977.500000 12767.200195 958.812012
1261.530029 2281.739990 0.000000
6407.009766 7354.839844 803.312012
8278.200195 4688.209961 702.541016
17992.699219 10936.900391 1182.000000
1196.479980 6250.529785 803.312012
13864.000000 9904.750000 383.048004
16543.900391 6346.250000 1182.000000
23365.599609 9688.690430 603.056030
126.882004 3098.330078 292.252991
15459.799805 12680.400391 1182.000000
7302.009766 3317.989990 0.000000
16808.000000 5576.990234 383.921997
18631.900391 4850.490234 381.265991
15470.700195 14655.400391 671.494019
8118.520020 9073.360352 0.000000
5729.259766 12763.599609 542.770020
11154.200195 12318.700195 958.812012
6623.689941 7784.299805 803.312012
9469.879883 11631.299805 580.125000
14024.299805 14821.500000 1023.419983
5218.279785 8245.679688 0.000000
7709.049805 2761.000000 59.781200
8431.259766 8238.440430 794.307983
22447.900391 5601.009766 378.687988
17765.099609 13005.200195 1182.000000
23328.699219 5896.979980 686.854980
16668.699219 6887.750000 1182.000000
21887.599609 10255.099609 383.878998
11082.599609 13497.599609 958.812012
12419.599609 12466.099609 580.125000
14626.700195 14715.500000 494.696014
14934.200195 12774.299805 1182.000000
6023.089844 9623.500000 803.312012
15103.900391 13522.099609 378.687988
7301.640137 11195.200195 803.312012
21474.400391 11323.000000 1178.680054
16783.000000 13803.200195 378.687988
5474.939941 11922.000000 0.000000
13326.900391 13931.200195 378.687012
9250.429688 10543.400391 580.125000
1836.699951 6833.330078 0.000000
14249.400391 10027.500000 1182.000000
20351.699219 4807.169922 1150.020020
4070.620117 10780.400391 803.312012
6101.899902 8816.269531 0.000000
8393.849609 6370.310059 783.987976
11915.799805 11341.599609 958.812012
3204.689941 7629.279785 803.312012
23111.500000 7175.850098 1182.000000
14507.599609 10756.200195 378.687988
7183.169922 2181.320068 803.312988
8119.839844 15049.900391 343.312988
23628.300781 8768.040039 489.950012
4198.629883 11256.700195 781.453979
21874.900391 4382.580078 839.429993
16854.199219 10577.900391 1182.000000
6575.839844 6801.279785 0.000000
3280.020020 7269.470215 0.000000
5627.660156 11014.299805 0.000000
7937.279785 3553.449951 49.203899
10092.200195 10990.000000 546.185974
17522.699219 9681.849609 995.638977
7736.109863 15059.099609 580.125000
2093.370117 742.442993 765.528015
6364.580078 9262.809570 0.000000
7224.419922 4416.700195 798.534973
6524.310059 11445.799805 803.312012
18117.599609 4167.209961 767.010986
5945.049805 11757.799805 0.000000
4489.890137 11741.200195 666.307983
6421.680176 10344.900391 0.000000
5388.470215 1417.829956 667.809998
23009.300781 9652.469727 379.196991
10823.599609 11944.700195 958.812012
6648.140137 2514.379883 74.700699
767.015991 6628.729980 626.802002
5410.390137 6663.750000 661.687988
4270.939941 9444.849609 803.312012
4636.879883 8795.110352 803.312012
23026.300781 5732.359863 424.950012
6932.529785 10697.400391 803.312012
8852.860352 11485.900391 580.125000
2596.820068 9710.500000 696.658997
8305.620117 5813.370117 11.980200
7473.200195 4823.979980 803.312012
21706.500000 11556.700195 873.044006
3114.310059 8090.290039 803.312012
2221.860107 472.384003 230.882996
5053.120117 9157.209961 803.312012
18388.099609 10358.500000 878.599976
11184.500000 14470.599609 201.438004
6854.950195 9456.570312 803.312012
7615.169922 6838.319824 0.000000
14855.500000 9222.549805 1182.000000
23793.599609 8418.839844 697.882019
19083.199219 13031.000000 386.992004
17725.300781 11892.299805 1182.000000
4208.810059 7141.279785 774.244995
4804.790039 9580.200195 803.312012
6366.040039 742.729980 294.385986
15086.599609 9811.269531 378.687988
677.502014 5548.750000 2.579710
3297.489990 1185.209961 124.771004
15542.799805 10347.299805 1182.000000
8141.759766 4543.629883 32.191799
7695.490234 4399.069824 803.312012
813.482971 4633.399902 0.000000
7978.950195 4076.409912 791.195984
3443.270020 10549.400391 766.203979
13909.799805 9685.709961 1170.589966
16467.599609 7188.819824 378.687988
1719.479980 8570.120117 248.761993
19193.699219 4600.169922 378.687988
5027.250000 1060.839966 11.829100
3074.570068 10454.400391 410.036987
3566.649902 7207.500000 798.695984
14399.000000 13799.799805 1182.000000
20201.000000 12712.299805 771.297974
9542.929688 15139.299805 201.438004
429.058014 2247.080078 416.962006
14669.799805 12383.700195 1182.000000
12466.799805 11460.099609 958.812988
6908.830078 11675.900391 803.312012
23271.000000 6947.740234 378.687988
16108.000000 5932.950195 980.885986
10832.700195 12224.000000 201.438004
5417.640137 7278.419922 0.000000
6918.000000 3807.620117 302.596008
8886.509766 9835.780273 566.065002
16319.299805 13585.299805 1182.000000
4385.890137 7266.529785 0.000000
12559.500000 12684.599609 1007.260010
19252.500000 11797.700195 1182.000000
6587.350098 1247.540039 791.153992
14807.799805 7766.680176 1081.020020
4779.959961 6861.009766 591.937988
11747.299805 12627.200195 958.812012
11807.299805 11067.200195 609.810974
7361.089844 14098.000000 580.125000
20917.300781 12009.200195 1117.949951
8398.759766 10684.400391 95.817299
8086.560059 7039.009766 803.312012
6877.259766 4539.299805 396.626007
7822.100098 11120.099609 803.312012
1770.810059 2263.179932 565.395020
1556.319946 1334.839966 0.000000
18468.300781 4234.970215 419.108002
12131.099609 14620.500000 214.162994
8296.299805 9055.110352 803.312012
14203.900391 12497.900391 1182.000000
8187.370117 11507.000000 51.355499
629.908997 6152.720215 113.528999
11473.599609 13029.299805 958.812012
8287.549805 13180.400391 958.812012
6754.939941 11337.299805 0.000000
2535.550049 8119.870117 0.000000
5967.379883 518.581970 571.835999
19516.500000 11222.500000 378.687988
17787.599609 5789.259766 729.247009
6346.560059 10620.599609 803.312012
18838.199219 11063.500000 1182.000000
8708.240234 8381.889648 526.617004
7241.680176 7042.040039 803.312012
14319.099609 13152.799805 1182.000000
4200.569824 9912.160156 803.312012
6903.629883 12254.700195 0.000000
20857.800781 10775.200195 400.779999
1597.579956 1482.709961 803.312012
6792.919922 13326.900391 124.042000
7070.080078 2842.969971 803.312012
18611.599609 13560.500000 993.393005
5016.120117 1337.069946 506.161011
8463.230469 5226.149902 573.567017
11373.799805 14274.599609 958.812012
3023.870117 6902.600098 62.575401
6323.370117 12830.099609 793.726990
23193.300781 9881.429688 1046.079956
14474.799805 8970.629883 1182.000000
10307.000000 12859.700195 958.812012
23299.900391 8191.810059 1182.000000
14686.099609 7775.759766 642.711975
18580.000000 11787.700195 378.687988
18362.599609 4600.919922 1182.000000
16806.800781 11650.799805 1182.000000
5819.350098 8152.270020 803.312012
17026.099609 12587.500000 378.687988
1886.630005 8136.560059 0.000000
6813.609863 7256.830078 803.312988
2857.610107 9077.620117 0.000000
17602.699219 5478.629883 379.214996
15501.500000 9776.059570 378.687988
3261.520020 9541.769531 0.000000
18145.699219 13355.000000 1182.000000
7351.089844 3891.800049 803.312012
23030.000000 5441.830078 909.495972
3885.699951 1183.510010 441.470001
14593.200195 14208.099609 378.687988
1745.150024 1840.359985 5.172570
7608.500000 12267.799805 0.000000
6631.979980 12600.200195 0.000000
18467.400391 11279.700195 378.687988
15975.200195 14433.000000 1084.239990
2953.760010 508.248993 800.663025
16327.799805 12371.099609 1182.000000
18038.199219 10179.400391 1002.500000
7741.660156 2413.629883 283.886993
17777.400391 10539.700195 1182.000000
6250.009766 12398.700195 803.312012
17994.199219 11303.900391 378.687988
22815.000000 10366.099609 530.177979
9748.379883 13175.400391 958.812012
17398.000000 12798.700195 378.687988
22003.699219 4938.069824 1182.000000
16931.800781 11009.799805 1182.000000
6799.580078 2113.080078 0.000000
6750.500000 7183.600098 0.000000
12978.099609 14930.200195 932.278992
21081.500000 12086.099609 748.416992
20096.199219 12120.000000 378.687988
9855.589844 12635.099609 958.812012
3312.050049 8142.580078 0.000000
12536.799805 14927.299805 842.674988
14745.799805 13188.099609 1182.000000
15007.400391 11084.900391 1182.000000
22081.900391 10015.799805 1171.689941
15880.000000 13986.200195 1182.000000
1761.719971 7216.870117 803.312012
21468.300781 10185.000000 864.013977
15385.400391 6765.140137 723.929993
15782.299805 8791.469727 1182.000000
20589.199219 4974.009766 482.238007
14649.099609 8480.150391 379.817993
22540.400391 6920.700195 606.650024
9429.809570 12416.000000 201.438004
17876.900391 5577.919922 1068.300049
11030.299805 11352.000000 926.973999
3529.580078 8587.259766 803.312012
3948.669922 10379.900391 803.312012
8713.059570 12466.500000 201.438004
19864.900391 12849.400391 544.401001
5778.299805 10485.200195 803.312012
2053.209961 1228.109985 0.000000
2778.979980 7527.810059 803.312012
17247.400391 6284.350098 475.562988
18175.400391 11837.500000 1182.000000
18205.400391 5220.750000 1141.400024
6431.359863 12197.099609 0.000000
14138.599609 14296.200195 1182.000000
12257.900391 12330.700195 958.812012
8023.620117 8284.419922 0.000000
17944.099609 12703.200195 378.687988
12629.599609 14791.200195 440.816986
4385.279785 9674.389648 0.000000
4203.399902 8991.650391 0.000000
14095.099609 11416.900391 1182.000000
8292.900391 7537.990234 803.312012
15741.799805 8152.919922 378.687988
13601.000000 14890.500000 606.385010
17323.199219 9722.889648 405.829010
1366.810059 5722.620117 9.100810
16907.900391 7642.839844 936.177979
757.588989 2347.050049 2.882040
2825.370117 8530.940430 0.000000
9491.240234 12251.299805 958.812012
4294.850098 10622.299805 0.000000
14095.500000 10902.000000 378.687988
22288.900391 6296.799805 1024.829956
1126.900024 3396.639893 93.298103
23639.000000 7778.160156 419.313995
6413.370117 9258.940430 803.312012
17558.400391 11164.700195 378.687988
16149.700195 9917.049805 1182.000000
17032.699219 8641.660156 833.648010
9466.700195 13526.000000 958.812012
6412.870117 9792.879883 803.312012
6119.160156 11766.900391 803.312012
16039.000000 7202.439941 378.687988
2935.209961 8615.009766 803.312012
15395.299805 14408.400391 1169.250000
13318.000000 11697.500000 580.125000
16120.400391 9324.740234 1182.000000
19004.500000 13373.400391 603.945984
23118.099609 7406.160156 378.687988
22169.500000 9460.500000 756.064026
2084.399902 1929.699951 253.835007
18882.900391 4256.259766 381.053009
19991.400391 4775.160156 416.394012
5006.720215 119.526001 434.825012
17110.099609 13107.299805 1182.000000
839.585999 5152.129883 0.000000
17361.900391 12784.000000 1182.000000
6497.149902 11735.900391 0.000000
15190.400391 14191.200195 378.687988
6039.390137 1455.040039 803.312012
1080.760010 1316.439941 266.591003
4594.089844 10064.200195 0.000000
7164.839844 11228.599609 0.000000
8172.649902 15449.000000 201.438004
16993.000000 7199.060059 854.638977
23239.800781 6403.589844 1175.150024
6644.240234 10160.200195 803.312988
23562.099609 9198.599609 574.588013
16478.500000 5827.299805 1163.489990
13420.000000 10921.700195 1177.380005
6010.330078 6624.509766 0.000000
18140.599609 5291.109863 434.703003
17634.599609 5231.589844 1182.000000
4665.529785 11014.700195 803.312012
15757.400391 10791.900391 1182.000000
15965.099609 7698.060059 1182.000000
16776.800781 13345.799805 1182.000000
7305.339844 1645.109985 386.401001
7852.709961 12640.000000 31.042500
7045.799805 4695.500000 43.313801
3518.350098 835.950012 0.000000
18910.099609 10662.900391 1044.339966
7311.850098 5235.430176 0.000000
16313.900391 11630.000000 1182.000000
13508.400391 9890.190430 791.880005
17154.000000 6671.689941 932.585999
323.833008 3473.000000 791.994995
3870.830078 9070.530273 803.312012
22720.000000 6010.439941 378.687988
7736.850098 14623.500000 580.125000
9350.990234 14593.400391 201.438004
11443.799805 13808.000000 958.812012
21421.199219 4804.740234 378.687988
17175.599609 12258.099609 1182.000000
6839.560059 5050.839844 120.223999
10424.799805 12459.700195 958.812012
23076.699219 9153.750000 378.687988
16405.400391 7610.399902 378.687988
14728.599609 13796.000000 378.687988
16522.099609 9183.240234 1182.000000
14532.400391 12815.400391 378.687988
10917.099609 14157.799805 201.436996
11206.000000 12538.400391 201.438004
2570.790039 1015.900024 0.000000
13900.500000 9112.400391 676.396973
12190.400391 13384.200195 958.812012
10624.900391 11809.200195 201.438004
19335.199219 4664.830078 1179.680054
22287.199219 10884.200195 492.604004
7370.009766 6408.509766 803.312012
7220.229980 2304.149902 0.000000
16322.299805 14455.599609 844.856018
14396.000000 9590.900391 1182.000000
6150.859863 6045.310059 573.750977
770.646973 1750.729980 608.890991
2409.110107 9125.040039 8.929350
11559.400391 13177.099609 301.679993
8375.700195 12097.200195 201.438004
8001.740234 11104.000000 0.000000
21845.199219 10392.900391 1182.000000
22276.199219 5848.200195 1175.790039
8277.980469 6408.770020 0.000000
8038.879883 8727.179688 803.312012
14011.599609 9127.009766 1082.109985
23316.500000 8259.820312 378.687012
6757.330078 5158.640137 633.387024
6480.270020 1823.099976 803.312012
8323.849609 4365.149902 418.950012
15547.700195 7181.560059 378.687988
12649.500000 13129.500000 958.812012
19133.800781 3854.100098 771.112976
16513.699219 7309.950195 1182.000000
22366.199219 10239.700195 378.687988
16699.800781 12821.099609 1182.000000
16702.300781 8889.059570 378.687988
19658.300781 10976.000000 1166.520020
3999.520020 11281.700195 123.912003
12069.700195 12971.799805 958.812012
3850.580078 6913.799805 451.841003
6719.330078 1012.570007 467.766998
1309.949951 2353.050049 802.093994
7000.700195 11670.299805 0.000000
13249.599609 14312.500000 1182.000000
11348.799805 14912.900391 201.436996
19535.699219 12577.400391 378.687988
1546.800049 2637.899902 418.924988
4544.830078 7868.500000 803.312012
14173.299805 13015.400391 378.687988
18442.500000 10934.200195 1182.000000
16806.000000 5182.490234 562.893005
11545.400391 11158.599609 958.812988
3676.699951 9795.330078 803.312012
23389.699219 9507.580078 1047.130005
3030.889893 9808.290039 803.312012
18671.699219 12192.599609 378.687988
11828.900391 13774.200195 420.233002
19213.699219 12605.200195 1182.000000
4055.199951 10224.500000 0.000000
5902.040039 943.195007 803.312012
13442.299805 13324.400391 1182.000000
4013.929932 8672.080078 803.312012
16681.800781 9647.179688 378.687988
16021.200195 7826.359863 378.687988
18618.099609 4980.040039 1153.449951
12557.200195 13811.200195 386.837006
5987.459961 9576.730469 0.000000
1759.410034 6306.270020 801.336975
14194.200195 9364.900391 378.687988
18348.000000 12717.099609 1182.000000
19412.300781 12188.599609 1182.000000
14463.000000 11883.299805 1182.000000
7881.259766 7323.919922 0.000000
22345.800781 10855.500000 1042.069946
5802.250000 12284.200195 803.312012
13581.200195 10325.000000 400.390015
22784.099609 5714.859863 1182.000000
16394.699219 13452.000000 378.687988
21882.900391 4582.390137 433.803009
4829.580078 1064.430054 769.489990
11835.099609 14417.599609 958.812012
7578.770020 2362.520020 718.851013
5094.180176 11357.500000 0.000000
8638.830078 8136.370117 129.764008
8500.589844 6779.959961 751.643005
16977.500000 9331.200195 385.127991
10379.500000 15577.000000 201.438004
2561.600098 1570.530029 251.505997
16103.200195 13956.299805 378.687988
9130.169922 10727.500000 201.438004
19526.900391 13122.900391 714.354980
4551.500000 10973.200195 0.000000
9041.610352 12906.299805 201.438004
23100.699219 6401.229980 378.687988
3184.620117 577.721985 0.000000
20216.699219 4997.700195 675.960022
21497.699219 4235.669922 555.226990
21341.000000 11797.400391 1011.770020
21297.500000 5339.430176 1009.090027
11229.200195 11734.900391 958.812012
20371.599609 10988.000000 383.639008
18102.000000 11741.599609 378.687988
16747.400391 12403.400391 1182.000000
22720.000000 10537.099609 949.203979
17522.099609 4630.609863 1076.900024
2193.500000 7601.879883 0.000000
8895.610352 12015.599609 201.438004
21983.599609 5480.189941 379.433014
8584.259766 13456.200195 201.438004
16598.199219 12017.599609 1182.000000
6672.009766 8237.830078 0.000000
15876.599609 11733.700195 1182.000000
6612.520020 8216.730469 803.312012
3354.479980 196.503006 86.800400
13745.400391 10068.599609 1172.900024
7373.779785 13381.500000 10.075800
16169.900391 13136.500000 1182.000000
16554.000000 9613.719727 1182.000000
3582.379883 9869.429688 0.000000
5495.189941 7094.970215 803.312012
17968.900391 4782.410156 1182.000000
10371.200195 11766.900391 958.812012
15857.400391 12167.500000 1182.000000
14632.299805 11161.000000 378.687988
2212.010010 9228.650391 653.619995
5933.680176 1672.280029 61.272499
11895.000000 13839.400391 958.812012
16501.500000 5434.379883 764.578979
8602.639648 15323.799805 201.438004
1045.520020 6111.620117 0.000000
19071.800781 4049.159912 1132.349976
8629.459961 9402.099609 206.266998
16946.800781 6102.229980 1182.000000
16741.500000 14186.299805 1111.010010
16061.000000 8928.740234 378.687988
23454.099609 9078.660156 1134.410034
19373.800781 10689.500000 828.583008
22661.500000 8240.610352 618.935974
16312.599609 12564.599609 378.687988
20938.699219 11528.099609 1182.000000
5104.259766 9091.040039 0.000000
7775.120117 6430.549805 0.000000
22543.000000 5116.799805 1129.079956
17586.199219 12347.200195 1182.000000
14671.299805 10317.500000 1182.000000
4650.520020 7446.600098 803.312988
6782.160156 12660.500000 803.312012
9525.709961 14076.900391 201.438004
16426.500000 10666.799805 1182.000000
8869.330078 14627.700195 201.438004
22153.599609 5984.299805 462.401001
15085.000000 10066.400391 1182.000000
20378.000000 12234.599609 1172.900024
20574.300781 5073.930176 885.107971
6648.609863 5546.359863 713.581970
3620.899902 10970.799805 615.080017
1840.900024 661.700989 411.755005
13137.000000 13709.000000 1182.000000
2008.849976 811.185974 32.970901
9900.919922 11473.700195 201.438004
4648.470215 9182.299805 0.000000
22840.199219 10129.400391 1146.079956
22403.500000 9082.000000 925.349976
6136.470215 11144.400391 0.000000
22644.800781 7365.790039 629.098022
14513.599609 13324.299805 378.687988
8810.900391 13067.099609 958.812012
3615.080078 8187.569824 803.312012
16906.400391 6011.310059 378.687988
15981.099609 9778.669922 378.687988
13942.299805 13368.700195 1182.000000
12849.099609 12054.000000 1114.900024
17387.800781 5904.490234 410.944000
13888.400391 12006.099609 378.687988
1049.680054 5407.299805 803.312012
5126.740234 10949.900391 803.312012
20073.400391 4402.350098 1182.000000
1430.439941 7521.759766 792.765015
5674.899902 6415.879883 356.834015
2389.780029 9592.070312 314.894989
8399.780273 8458.870117 5.620670
1227.890015 1682.550049 0.000000
1886.130005 7611.259766 803.312012
20214.699219 10806.900391 1085.530029
20522.900391 4521.870117 378.687988
22652.300781 9056.209961 405.002991
16888.500000 6523.959961 383.667999
5171.870117 8538.410156 803.312012
7864.509766 5944.910156 0.000000
2032.000000 8847.589844 726.513977
15575.099609 12026.700195 378.687988
4790.049805 11483.700195 803.312012
4525.600098 11431.799805 3.406250
23125.000000 10056.000000 561.309998
18246.599609 12152.599609 378.687988
8313.440430 5155.330078 62.039101
7677.339844 4949.899902 0.000000
3377.320068 9142.650391 0.000000
9905.280273 13618.000000 1175.410034
1179.969971 4144.709961 436.385010
22901.800781 8641.129883 381.915009
2680.879883 8012.770020 803.312012
17261.000000 14000.799805 446.675995
15566.400391 11440.500000 378.687988
10055.000000 14999.200195 201.438004
7262.700195 12562.299805 0.000000
9305.309570 11254.000000 580.125000
17045.000000 9306.049805 1158.640015
5936.689941 8813.799805 803.312012
23293.599609 8615.929688 1182.000000
4130.509766 11521.799805 456.329010
3648.439941 7546.100098 0.000000
23597.699219 7318.160156 416.410004
16560.800781 8080.830078 378.687988
15019.200195 9081.110352 378.687988
8520.440430 8880.559570 45.891602
22443.699219 6500.500000 493.105011
14292.000000 10368.099609 378.687988
7683.620117 3555.159912 803.312012
2840.770020 9499.879883 0.000000
10789.900391 15185.700195 201.438004
19533.900391 4869.029785 473.742004
17643.000000 10102.700195 1160.859985
22738.599609 8981.320312 1171.670044
7323.580078 6179.979980 0.000000
23647.099609 6849.029785 534.005005
15195.099609 7853.520020 378.687988
2259.389893 6477.720215 727.140015
2957.139893 6785.200195 659.000977
14347.500000 9778.730469 378.687012
8682.959961 11536.200195 201.438004
23707.199219 8717.679688 968.572998
12869.799805 11605.000000 982.783020
20163.400391 11244.599609 1182.000000
5949.100098 10750.000000 0.000000
7847.100098 9473.669922 0.000000
13795.000000 12419.599609 378.687988
12726.700195 13336.400391 378.687988
13229.500000 11355.700195 1173.479980
20020.500000 4291.959961 378.687988
17085.199219 8961.139648 546.640015
9802.009766 15586.000000 201.438004
2236.699951 6580.330078 23.430099
10836.400391 14466.299805 958.812012
11304.200195 13792.500000 201.438004
8042.919922 14108.200195 958.812012
8171.370117 5590.479980 803.312012
19026.000000 4997.629883 520.484985
6750.640137 2996.659912 225.964005
19171.300781 11307.500000 1182.000000
6398.459961 1522.810059 0.000000
8094.169922 6789.080078 0.000000
7611.620117 6788.660156 803.312012
5297.390137 7689.069824 0.000000
17085.000000 4846.240234 828.890991
8647.360352 6461.879883 475.536987
22582.300781 6695.950195 1107.569946
15681.700195 12915.099609 378.687988
4696.720215 10056.299805 803.312012
5587.850098 319.967010 279.260010
10264.500000 11184.299805 207.378006
294.351013 3045.719971 737.484009
4443.180176 8386.610352 803.312012
6993.779785 3594.260010 701.000977
15038.200195 14599.099609 1108.310059
1205.180054 3657.179932 418.868988
19654.400391 4029.810059 1153.020020
2712.449951 230.934998 438.618011
20974.800781 4008.489990 607.856018
8728.290039 10741.799805 580.125000
22346.699219 10422.599609 1182.000000
8585.910156 9813.639648 181.925995
10496.799805 14852.900391 201.438004
8626.480469 15804.400391 201.438004
5412.720215 9500.440430 0.000000
16329.299805 11183.700195 1182.000000
11117.299805 13300.200195 201.438004
17023.699219 5156.589844 1136.310059
4291.020020 9019.230469 803.312012
22664.099609 7768.200195 822.353027
10229.000000 12825.500000 201.438004
8859.299805 13894.900391 201.438004
9870.559570 13349.099609 201.438004
3986.429932 9790.070312 0.000000
9981.089844 12256.000000 201.438004
15122.099609 7499.689941 1149.510010
9061.030273 16099.900391 201.438004
10115.500000 13945.200195 201.438004
6962.810059 4126.629883 612.473022
15223.200195 10863.599609 378.687988
23185.000000 5906.410156 1100.119995
14449.500000 8155.229980 906.018005
10645.799805 12682.900391 201.438004
2825.459961 10141.299805 495.757996
10163.400391 11804.700195 201.438004
10405.500000 12336.799805 201.438004
10381.299805 14422.900391 201.438004
8161.620117 13427.500000 201.438004
5787.279785 12184.599609 0.000000
10700.200195 13232.700195 201.438004
9382.620117 11497.799805 201.438004
8958.410156 15551.400391 201.438004
11496.200195 14206.400391 201.438004
9618.059570 13673.700195 201.438004
23577.699219 7320.169922 1152.609985
20977.599609 4807.399902 378.687988
17635.699219 13715.700195 387.358002
17973.400391 4381.020020 1096.270020
12677.000000 13655.200195 1182.000000
9431.959961 15766.299805 201.438004
6795.060059 10604.900391 0.000000
3470.219971 6924.990234 163.378998
22737.500000 9965.650391 378.687988
16768.000000 8849.809570 1176.369995
12971.900391 13672.099609 378.687988
5452.240234 961.685974 0.000000
13348.799805 12350.099609 1182.000000
21368.599609 10474.799805 1139.050049
9795.379883 12745.799805 201.438004
8709.269531 11875.400391 580.125000
17299.800781 14142.700195 878.758972
1263.229980 1200.150024 637.557007
8524.820312 5557.129883 252.414993
22350.800781 9692.040039 1171.859985
9685.929688 11096.700195 201.438004
9904.339844 14431.200195 201.438004
14346.500000 11090.200195 1182.000000
6956.830078 6026.600098 803.312012
811.294006 3668.149902 0.000000
8091.169922 13859.400391 201.438004
17738.400391 13659.299805 1174.780029
1431.339966 1955.930054 803.312012
81.446098 4005.070068 139.858002
9719.309570 10589.900391 215.408997
22872.099609 6796.339844 378.687988
9023.139648 10039.400391 201.438004
8375.330078 13058.299805 201.438004
9053.250000 12461.400391 953.236023
13708.700195 10497.700195 1182.000000
9384.150391 13153.700195 201.438004
10646.900391 13826.500000 201.436996
9581.830078 11930.099609 201.438004
14636.900391 11428.799805 1182.000000
22866.000000 5337.669922 516.395020
3611.300049 10916.299805 144.487000
9063.669922 13506.900391 201.438004
1661.219971 2278.889893 113.163002
11976.400391 14150.599609 215.460999
9727.089844 11290.200195 580.125000
