ply
format ascii 1.0
element vertex 1648
property float x
property float y
property float z
end_header
4.732510 79.232201 9.467630
-3.984990 62.123402 14.470700
-4.476270 80.181900 11.299100
-1.567070 59.725700 15.619300
-3.993690 55.965801 10.251500
5.568460 65.275101 10.462600
2.478150 79.884201 14.979600
-5.541460 73.059898 10.823900
-4.636300 68.982201 7.762200
-0.766401 58.410599 6.494250
-5.624110 68.075699 11.739300
-4.984550 69.827202 8.309270
-5.167930 76.323402 12.556700
-4.653470 60.607700 12.888200
5.210100 61.552399 10.907900
2.115340 65.544403 5.821850
1.835930 71.125702 16.316500
4.503640 68.796402 7.582820
-3.643680 76.134598 14.992500
-5.524110 65.924698 9.849510
-2.528530 56.693600 14.389600
3.049510 64.528900 6.360060
2.383090 59.909901 15.318100
-4.591850 68.512299 14.343500
-3.305970 56.925598 8.316380
-2.789570 80.902702 13.844100
4.105700 58.591599 8.854380
1.884490 65.442001 16.298901
-0.724055 77.559799 16.298201
2.755020 54.574699 13.605500
-4.112630 75.453003 14.534900
-3.421840 68.108902 6.493470
-2.643360 57.422501 14.499900
4.438160 76.870598 14.001400
4.145910 56.833500 9.975830
-1.349500 77.263702 16.223801
4.524190 62.060501 13.752600
3.844310 73.597099 7.041300
2.815720 72.818398 15.826300
-5.313840 70.454399 9.141520
5.051120 66.327003 13.589000
-1.314870 55.801102 7.204740
-5.018110 72.124397 13.430500
-3.923760 72.671097 7.046340
-5.259340 66.364197 8.939630
-3.138130 56.327400 8.309940
5.023460 75.947601 9.079750
3.503830 58.191200 13.902700
1.221890 80.176003 15.357200
-5.251130 74.344704 12.599500
-3.676890 66.474403 6.709630
4.771650 79.667801 10.724300
-3.914740 64.688904 15.020600
-2.079130 80.622704 14.665600
-4.449780 61.473000 8.325740
-1.633240 59.422199 6.504940
-4.052630 55.798599 10.972900
-4.447380 58.047699 10.263000
-5.131930 78.202599 12.321000
4.558170 64.502296 14.187500
4.890540 77.975998 13.040900
4.089610 56.033600 11.162200
5.135770 78.372803 9.994260
-1.068290 74.874397 5.677180
2.162500 76.607002 15.911800
1.088340 59.339600 6.342480
-1.013150 69.690598 16.574699
-3.716660 80.568398 13.039100
-1.061260 63.116699 16.324900
-2.166000 72.001404 5.889220
-4.349110 72.289101 7.560610
-5.446630 71.201103 9.539590
2.679160 60.189201 6.846500
3.286680 78.669601 14.990500
-1.332810 64.173203 5.630770
1.974810 73.892097 5.903000
-3.772990 78.127701 7.274170
-4.696510 79.738403 10.438700
4.982230 74.245697 8.770230
-4.260900 62.092999 7.927540
1.246420 81.444397 14.220700
-5.129480 67.132202 8.606190
2.894330 71.264000 15.846400
-4.059000 80.703697 11.628100
-1.346260 82.624496 9.554550
2.157990 80.060799 6.983630
3.423750 67.730797 15.531700
4.463290 61.328899 8.378690
-0.918768 82.673897 12.097700
3.301020 63.838699 6.643970
2.108690 72.071098 16.162901
-0.147482 82.562202 8.947560
3.946010 70.303596 15.085100
-2.045030 57.504501 7.109850
-5.136890 64.860497 13.169200
-4.647720 79.689201 9.869430
-2.346940 78.599098 6.389600
5.499830 65.876801 12.345900
-0.096286 57.664200 6.564560
-5.210300 73.797401 12.766600
1.589660 70.477402 5.584970
-2.427900 59.598099 6.794650
-5.531220 70.914703 10.062800
-1.076050 61.107201 6.005070
-2.972330 81.131104 13.288500
-4.969960 60.566399 10.396800
-3.889760 74.530701 14.896800
3.429170 67.182800 15.520600
-0.956878 65.485603 16.542700
2.004870 58.761101 15.224100
2.649430 65.728600 6.032010
-5.465190 74.406403 10.738800
3.785200 65.767899 6.835830
-3.862020 55.030499 11.249800
3.885100 62.730400 14.749800
-4.517280 70.960899 7.693120
-4.589200 77.894997 13.746900
-4.512960 59.925098 12.897900
-4.476080 70.169098 7.594900
-1.712940 67.561203 5.593060
2.660020 66.660896 16.036301
2.644480 61.454399 6.534490
-5.172980 68.859100 13.321000
-2.960430 78.429703 15.315200
-4.127440 76.680702 14.421000
-0.843888 70.871696 16.563000
-3.151800 57.931099 14.248200
0.869524 55.513401 7.133390
4.579020 58.708401 11.817100
1.968690 60.939800 6.335540
-1.373630 57.244701 6.892520
-2.076750 80.286102 7.105640
3.812910 60.679699 7.723390
5.284640 70.265999 12.973200
-2.452590 82.200104 10.230300
-0.196814 55.134998 7.126340
-2.563570 69.529701 5.965100
1.903880 62.353500 6.068430
-0.500340 65.744698 16.617300
4.710760 60.014301 9.567740
3.876320 63.623600 7.113760
-0.683622 60.245399 6.113980
-0.580921 76.657700 5.697370
-5.376670 73.458199 12.313000
-1.955240 69.161903 16.326700
-5.203630 71.198898 8.952700
-4.203330 67.882896 14.849400
-1.255140 82.247398 13.205900
-2.192650 58.390900 6.967960
-5.274390 76.447502 12.005500
-5.438450 73.749100 11.736900
-3.287910 71.661697 15.524400
1.705430 56.576900 7.186120
2.013790 59.297600 15.340700
-3.439340 66.992996 15.510500
3.908170 56.472900 12.472800
-2.322420 82.346199 11.556100
-4.109620 79.601097 8.484940
5.186850 76.504402 9.542430
2.423680 62.103001 6.324210
-5.265470 62.704102 12.020100
-5.148510 66.925598 13.373800
-5.434220 66.934700 9.347020
-0.798535 68.266296 5.399510
5.603760 68.193802 11.902900
-2.038650 69.071503 5.737110
1.540760 65.667702 5.576450
2.543660 68.358498 5.929860
2.466910 67.607201 5.904870
4.817380 72.815903 8.208520
4.880990 61.500198 9.284810
2.802110 76.168602 6.395100
4.969160 72.281700 8.499020
3.906500 59.161400 13.708100
-5.208140 76.672699 9.614450
4.430480 69.977402 14.502600
-1.655460 65.388702 5.640720
-3.735070 69.772301 15.261200
-5.473230 68.940598 12.591600
-0.821049 59.520199 6.269550
3.338170 65.775002 6.492320
2.147960 66.789902 16.249800
-3.313620 59.150200 14.442600
-0.583747 67.576698 5.378130
-3.343250 72.637398 6.598870
-3.446860 80.290001 8.272440
-2.950960 80.333000 14.266300
0.039293 81.545097 7.658230
2.501600 61.218800 15.530700
3.397730 70.955002 15.475600
5.396110 76.551300 10.987600
-0.956576 81.762802 8.061150
5.003420 77.943802 9.252310
-4.510550 71.482597 7.718380
0.273462 65.492599 16.633101
1.708150 67.406303 16.438601
-4.244470 57.160500 10.183400
-5.499480 73.876297 11.226700
-4.539550 60.636101 8.854260
4.443370 77.600899 13.980300
-3.464460 66.185097 15.470800
3.189120 56.899101 13.857900
4.448580 62.518200 8.067860
-1.659650 66.899200 16.453199
-4.792610 77.595802 13.373600
-4.595760 63.509399 13.968100
-3.872110 56.877602 12.788200
5.182060 76.995499 12.443300
-4.957100 60.160900 10.872800
1.454030 79.520897 15.651500
-4.920960 75.561798 13.246300
-5.270110 63.608898 12.543900
-0.908594 58.863701 15.613000
-0.800322 82.673897 10.670100
-3.631810 56.477001 8.900210
-0.315053 82.673897 11.024300
-4.020470 65.880699 7.012500
3.643820 62.205299 7.160030
4.477660 60.103699 13.069400
-5.050250 71.868301 8.651900
1.832720 59.808601 15.525800
2.600400 81.967400 12.203200
-2.698190 58.942902 7.170580
0.174014 79.178101 16.021299
-0.520028 67.443802 16.660299
-1.227720 65.840202 5.504380
2.566340 80.833900 14.088100
2.968210 63.219398 15.561100
-2.646870 65.766701 16.002600
-5.355530 76.418098 10.631500
1.129810 55.978600 7.087040
5.047440 63.738701 8.914370
-4.274060 65.341400 14.639100
1.040210 65.808502 5.481470
-4.520190 79.053703 8.777460
5.253340 62.892502 12.321900
-4.095890 56.515099 10.122900
-1.696090 60.153599 6.379820
-4.749370 68.323097 7.886510
0.133278 67.153297 16.708300
5.401180 72.255600 9.539310
0.789507 67.291397 16.623199
-0.539728 82.673897 11.707800
3.475380 69.482697 6.563070
-5.387220 63.363201 10.349300
4.966320 62.498402 12.929800
0.735524 60.712898 6.033710
-2.311370 55.296200 14.178500
-1.131180 57.942402 6.640170
-2.443940 76.238800 6.217410
2.143730 80.873199 7.660430
-5.054920 60.940601 11.518800
-0.193224 57.337101 15.382800
2.906640 65.285797 15.835900
-5.304970 75.412399 12.145200
2.020330 78.032501 6.130840
-3.058870 58.425999 14.449000
3.377670 62.843700 6.835660
2.266320 70.770302 16.153500
3.888290 69.375603 6.877040
-3.055730 56.498501 13.889600
-4.338690 57.198002 11.194500
-4.869580 64.748596 13.798300
1.150400 82.078598 13.483500
2.762430 81.663696 9.347770
4.469900 67.567398 14.496800
3.953860 71.647003 7.017150
-5.245090 67.465302 13.154700
2.798270 77.148399 6.433650
1.022360 74.792099 5.667240
5.001470 77.347198 12.892700
-3.408490 55.985600 8.782750
3.353200 79.663399 7.574840
2.583830 58.253101 14.768300
-5.071360 60.680099 11.006000
3.346550 75.463699 15.260100
4.908800 60.455101 10.089600
4.219300 64.909302 7.360190
2.819850 80.322502 7.655450
4.242720 68.034599 7.230820
-3.118820 57.351700 14.110100
-4.393190 63.924099 14.303200
4.659010 65.327499 14.136200
-4.350580 79.865501 9.330760
-2.186450 67.940399 5.785120
4.687230 62.718102 13.689300
-4.534590 58.743198 12.209800
-1.781270 78.375900 15.932800
0.589532 62.176102 16.256201
2.915320 79.613297 14.822800
-3.226890 72.940002 15.503500
0.201458 67.081596 5.332760
-4.095420 71.648102 14.843200
-2.909890 63.271000 6.418630
3.057910 63.337700 6.523420
-5.494980 63.563202 11.023600
-4.624320 78.375198 13.504300
-5.117510 75.659302 12.759900
5.149090 68.481796 8.631650
-3.626870 62.763500 14.989300
0.317240 78.192497 5.751930
4.239900 62.421398 14.211600
1.759810 69.065201 16.409901
-4.130990 57.543201 9.492380
-5.677560 70.211502 10.987700
-3.940040 61.760700 7.590870
0.328620 81.515297 14.367100
-3.182270 71.628799 6.424180
0.280979 80.861298 14.989800
1.840870 79.249496 6.411660
-2.648150 61.558899 6.517660
5.059350 71.624001 13.382800
0.886183 65.786201 16.568899
-1.375150 70.864197 16.493299
3.960180 58.023300 8.810760
-0.871456 80.182800 15.414000
-4.389900 60.921299 8.402050
-5.548990 65.896103 11.980700
0.585689 82.609001 9.092030
3.151340 59.857800 14.745300
3.793690 61.884602 14.661500
3.956110 64.482498 14.968800
-0.649612 72.316299 5.500670
-2.106550 60.325699 15.515800
3.098110 76.022202 15.417700
1.139980 63.939499 16.401300
-4.346740 78.666100 8.212220
-4.814830 69.589104 14.015300
-3.285820 63.566200 6.668200
0.260365 66.297203 16.679899
-4.621310 74.015800 13.983900
-3.059120 75.630302 6.560490
2.070650 75.449402 16.008600
-4.440200 60.941502 13.564200
-1.284710 55.270000 7.315020
-4.077350 66.640198 14.993300
5.535490 64.385002 11.374000
-0.590546 78.975197 5.990370
-1.546230 62.575901 16.146900
3.826190 55.578300 12.169600
-4.233480 58.558601 12.850500
4.363650 80.024498 12.429300
2.509580 73.846298 6.122130
0.700891 63.298698 5.639750
1.236730 64.108498 5.624940
-1.195650 81.266998 14.431700
0.349861 79.027100 5.976530
-3.921760 80.201599 8.822190
-0.729138 56.937000 15.225000
-2.757360 55.158199 13.799200
5.128440 74.651703 9.174020
2.152280 58.293098 6.973170
2.668330 64.692200 15.929200
3.260990 79.778900 14.450600
3.262480 60.595402 14.831700
4.122470 57.325001 9.595020
-2.444260 81.137497 8.182070
2.981840 58.556702 7.489120
3.397350 74.187897 6.734010
-4.365680 66.720001 7.412490
3.338640 70.053200 15.557900
-4.629630 61.574501 13.382200
3.247000 78.203003 6.879170
1.330670 58.667500 15.482400
2.904740 79.450302 7.103100
-3.315890 68.837799 15.608000
-4.595750 58.392601 10.842700
-2.929620 76.199997 6.494800
3.186380 81.239403 12.834500
4.707750 71.892799 8.002140
-4.859080 71.389999 13.864800
-3.925180 59.602001 13.833700
-4.989510 77.914703 9.209070
1.513750 67.458099 5.511660
5.572440 71.971802 11.333800
-2.186050 54.470402 14.052400
-3.609280 70.662201 15.327900
4.107960 75.316803 7.479890
5.667700 67.542000 10.663700
-3.384730 68.300797 15.568700
3.772570 76.632599 7.167190
-3.894620 63.777599 7.107500
4.477880 58.022099 11.495900
4.133550 77.516403 14.390500
-0.791656 82.574898 9.123410
5.323960 73.612099 12.515400
-2.202110 81.936203 12.899900
5.567750 70.913101 11.691600
-2.929720 66.209297 15.882800
-5.126380 70.724403 8.716950
-1.303690 70.917397 5.530740
3.300500 56.866299 8.330290
-4.866980 64.598602 8.248480
5.425910 74.166603 10.352400
-5.571420 72.466599 10.840300
-1.362370 61.034100 15.965700
5.280070 78.304298 11.051200
3.710130 59.624599 7.909600
4.960920 60.295101 11.319300
1.765950 81.058197 14.404800
-1.843100 79.553101 15.473700
1.519070 77.133499 5.866880
1.364150 57.685299 6.785560
0.818511 66.602203 16.612499
3.360710 81.527397 11.175400
-0.517598 74.937798 5.607680
-2.745210 70.265999 6.057300
-3.118770 55.994499 13.629400
-1.147110 71.664803 16.491301
4.804520 59.797298 10.228400
-2.708570 68.782600 16.023399
-3.159030 63.940800 15.509700
4.525670 66.966400 14.414300
-5.034940 65.912201 13.567900
-1.535380 74.348503 5.744650
1.627800 66.381104 16.460800
-4.753760 59.074799 11.071200
-3.537840 57.878399 13.750900
5.057090 74.710602 13.022200
-3.286760 64.110703 6.597190
-3.381650 79.749397 14.371600
-2.441640 66.320503 16.120899
5.090190 73.751099 8.968940
2.651640 71.866798 15.946800
5.250450 75.106400 12.506700
-1.260200 81.407997 7.776550
2.927020 61.700600 15.326200
4.138830 61.890598 14.213100
3.675860 75.845497 7.046450
-1.303980 82.673897 11.201500
1.956160 54.792599 14.315600
2.196260 60.470402 15.507600
0.950906 59.335999 15.706100
5.578810 67.862801 9.964120
4.417570 73.198898 7.717610
1.097910 68.013000 5.441450
-0.189122 63.441601 16.473900
-5.068010 78.983704 11.259300
0.655717 71.123299 5.453680
4.050480 65.383499 14.934400
5.222700 74.135399 9.336960
4.342300 60.118900 8.627690
-4.967510 61.594200 12.574200
2.563340 81.367500 13.450200
1.001240 55.648800 14.909900
3.963150 68.327103 15.125000
-0.810527 60.870399 16.017000
2.816180 78.479897 6.619400
-3.223380 62.987598 15.334700
-4.913660 78.996597 12.354700
-2.602870 71.023499 6.028130
2.906930 63.922798 15.700800
-3.404010 81.382500 10.086300
1.358000 73.556396 16.379601
-1.455640 79.054703 6.171720
2.140230 59.043201 6.799950
-4.634770 73.440498 14.011700
2.592580 75.844597 15.772400
4.282920 75.020897 14.346200
-3.116480 67.485298 15.764400
0.486611 56.551800 6.858340
-2.185130 82.252296 9.765170
-2.725850 79.619904 7.067150
4.451210 80.252502 11.144300
4.646810 75.881599 13.805700
-5.208750 62.160000 11.828600
3.263200 60.983799 7.109650
1.543070 62.928200 16.202600
-4.761840 65.360397 8.026110
-3.643500 69.985901 6.705580
2.708020 70.221703 6.040880
1.368980 71.676003 5.569720
1.602760 76.407997 16.153799
1.733090 80.069702 15.217700
-1.949090 55.987000 14.607000
-0.609925 73.567200 5.553770
-5.274870 68.682701 8.946490
-1.852380 56.973801 14.877200
-4.850210 66.769798 13.988200
2.720600 63.894100 6.207140
-4.490720 79.903000 12.305600
3.151310 71.616898 6.399830
-5.072880 75.117104 12.934100
1.707500 72.112099 5.704060
-4.934090 61.549599 9.393710
-1.091290 72.761902 16.453100
0.503893 77.441101 16.332701
-4.859620 74.749496 8.537270
5.126420 69.559303 13.394500
-2.837550 66.883904 15.965200
-0.899319 82.673897 12.655600
3.847650 56.770199 9.244710
-4.163730 79.906097 13.090400
5.549520 73.267899 10.961400
5.126270 66.161003 8.647850
3.340410 59.179401 7.601610
1.727300 58.506001 6.749400
-4.611000 58.785599 11.696600
3.002950 55.718201 13.683400
-1.010680 74.429703 16.383101
-2.127990 72.664902 5.902820
1.994800 63.365200 16.064899
5.351940 74.434097 9.888720
4.945260 64.776703 13.619700
0.988810 78.363098 16.157801
-1.092440 81.671600 14.025100
-4.059920 79.322800 13.818900
3.307870 81.537804 10.539600
-5.314280 63.944000 9.502490
3.233390 59.885502 7.342480
-2.298530 67.339302 16.193300
5.089810 72.245598 13.244800
-5.159410 62.525600 9.556960
5.416430 67.087997 12.731200
1.738570 68.359200 5.596400
-0.370606 62.486301 16.331699
3.922740 76.552002 14.697600
4.551470 67.693604 7.638750
3.537990 80.253304 8.350400
5.094650 69.027802 13.500700
-3.970640 70.406998 6.967950
-2.783890 72.526398 6.167720
-1.325700 66.387398 16.543600
-3.312970 75.734299 15.269900
0.757819 56.231998 15.067700
-4.393850 63.240299 7.846260
-3.450760 61.677700 14.920100
-1.341110 68.632797 16.554300
2.046310 55.059399 7.713350
4.351110 58.396702 9.552370
-0.439894 61.096100 5.923390
-0.028174 61.539001 5.797050
1.237910 56.863300 6.925470
3.574680 66.562302 6.630100
4.618200 59.382599 9.663400
-0.436121 61.492699 16.173500
-0.304747 70.341003 5.377330
5.095150 64.013901 13.076900
-2.855270 74.250198 6.321810
-5.471340 68.839897 9.429550
-3.161510 77.361000 15.319300
-3.171630 59.728901 14.699700
-1.839590 82.296898 12.623700
3.576550 76.873901 15.000300
0.011843 68.937302 5.308620
-2.638060 71.433800 15.971000
4.242590 78.110497 7.881430
1.384910 75.077400 16.302900
-3.454740 61.150002 7.217910
-5.573830 66.845398 10.003600
3.925880 55.551998 11.617900
-4.295440 64.460197 14.522700
5.036520 72.776703 8.717400
-3.784550 58.492599 13.639400
3.854970 70.295898 6.876170
-2.943410 60.251801 7.034690
3.723460 81.156898 11.220500
1.645380 78.675797 6.120150
4.843800 76.699898 8.738190
-2.806990 79.854599 14.748600
-0.557528 59.846600 15.859600
-2.555490 60.755798 6.619680
1.798310 66.132401 5.655210
4.506380 74.694901 7.951070
-1.861810 81.545700 8.242910
5.553990 68.368301 9.748450
5.036250 67.522697 13.660300
4.813920 64.027100 8.271820
1.348510 72.305199 16.439100
4.529340 79.091499 8.835180
3.325370 68.065598 6.419990
4.758220 62.365101 8.651020
1.940140 76.689201 6.031600
-5.311730 65.481903 12.837200
-3.866110 64.986099 6.952610
-4.881250 78.906303 9.517960
-0.337762 64.663002 5.453120
-3.960600 55.964802 12.029500
-5.440110 64.160896 10.112200
2.708500 67.371101 16.023800
5.692820 68.569099 10.835700
-1.778730 79.512398 6.509850
-2.546090 58.988201 14.989200
-1.501960 81.855003 13.631000
1.334630 76.214600 5.775640
3.302980 80.218201 14.024700
4.795030 64.954498 8.106360
-3.863730 60.958199 14.326100
5.157530 62.734200 9.471020
4.734490 66.383102 14.132700
-5.675250 68.596703 11.324600
-1.797970 58.169399 15.177200
-0.409807 75.620399 16.405500
2.418410 65.258202 16.066700
-2.216260 67.251198 5.804870
-4.125000 64.608704 7.264690
5.388870 71.178902 12.633500
-1.395190 69.305702 16.532700
2.024550 57.055401 14.825000
-1.889960 82.616699 11.653300
-2.694560 71.807999 6.099840
-5.460890 64.735901 12.156400
-1.474860 80.015099 6.671530
5.253160 76.042397 12.312400
-4.022690 69.176201 6.974820
4.644180 61.141602 8.862880
5.044280 79.044601 11.280800
-0.200186 56.714001 15.246100
-1.390430 76.579498 16.231100
-3.591900 58.425900 8.163520
4.482790 79.109299 13.290600
4.549600 65.913498 14.332200
0.171524 64.990501 5.412900
-3.304440 65.186897 6.507580
-3.909680 64.171204 14.964100
1.225120 73.226402 5.618290
0.246494 62.428299 5.691890
5.005980 65.718498 13.609700
0.135216 72.934998 5.460730
5.321570 68.996498 12.954700
2.738660 73.639198 15.825000
-4.459710 79.620697 12.769900
-5.038820 68.686401 8.376820
4.535290 68.146202 14.421100
-2.204770 71.678703 16.139900
3.758810 77.714500 14.838700
-2.309330 78.721397 15.621500
-3.303140 61.082802 14.914000
4.998150 78.601196 12.462900
-4.290280 74.955200 14.341700
0.534887 61.299400 5.899850
-5.580010 69.341103 11.926600
-1.592890 57.791801 6.855380
5.290480 72.453300 12.738800
-4.723670 61.171001 12.990600
3.929120 79.774300 8.394780
-3.768900 72.130699 6.899450
1.320540 60.516998 6.151600
4.552540 77.165100 8.178140
0.987465 80.756401 14.983600
-4.106650 72.886002 14.743600
-2.931620 68.786499 6.127160
-3.941260 55.532299 11.468800
-4.641500 74.709503 13.903000
-4.993300 71.264397 8.451720
2.606600 58.103500 7.319550
-1.128890 58.340900 15.474800
4.563900 60.761600 13.178800
-0.296905 81.523598 14.362300
4.289460 75.897903 14.270100
-3.964160 68.188301 6.908610
3.892890 62.994999 7.235520
-4.062410 71.511703 7.136250
1.803970 57.277802 7.063010
1.706800 74.228996 16.221901
3.177280 76.781502 6.719210
-0.206308 64.702499 16.597700
1.098770 61.805599 5.897850
-2.707710 66.680298 6.014570
5.083840 60.936100 10.738400
-5.162340 61.657501 11.606300
-3.579920 77.543701 7.041080
-3.880620 60.694500 7.807160
-1.911130 74.777702 16.108801
2.262790 66.220001 16.188999
3.439310 59.516899 14.437900
5.225600 74.157501 12.684600
3.386240 70.983002 6.548360
-4.806020 70.432198 8.034910
-3.118150 66.911499 6.275420
-2.065980 65.084297 5.829040
-4.199580 72.195099 14.671700
4.932070 60.025501 10.874300
0.466357 69.041801 16.660601
5.201080 69.860001 8.833830
0.566349 82.673897 11.523500
4.518420 62.042400 8.275550
-1.023360 72.199600 16.486099
-2.369610 75.851501 15.864400
-0.198197 80.173698 6.522980
-5.103550 62.215599 12.488200
5.530120 68.950600 9.662120
-4.518030 75.223801 8.007150
-3.918320 73.507599 14.938600
2.099960 73.286797 5.923450
4.322830 79.591499 8.894330
3.042860 68.181297 15.829600
3.666070 80.728500 12.839000
-2.890480 80.869400 8.261070
3.954750 68.463097 6.903550
5.340610 64.069298 9.531820
1.337340 65.172897 16.475100
1.800090 75.869904 5.931990
-4.455750 76.771103 8.045190
-1.785660 70.585297 5.670800
-2.431370 81.643997 8.881690
0.806427 71.742699 16.533001
5.114970 61.560902 11.855600
-2.115150 65.838303 16.227200
-1.440600 73.178802 5.644740
-1.472710 59.000198 15.498200
1.052020 82.673897 9.479660
-4.978960 67.491699 13.797800
-3.825240 56.216801 9.503010
-2.183960 61.663399 6.295960
-4.208820 58.064999 12.642900
4.599120 70.322403 7.760610
-4.452770 70.552399 14.449000
-4.322350 62.698200 7.859220
-1.505230 78.509598 6.016480
-1.981750 77.617500 15.963000
-4.891460 62.420200 8.951180
1.678710 64.323097 16.304199
2.102960 55.435200 14.375900
-0.026146 71.199799 5.373860
-0.709432 80.210800 6.613720
-0.708969 78.760002 16.094101
5.164000 75.480797 9.361830
0.822831 73.875000 16.434700
1.292080 74.181602 5.673270
-1.554060 61.858398 6.003520
5.641060 66.849701 10.514000
-4.590050 67.909798 14.345800
5.253690 71.738602 9.129580
-3.609310 74.880501 6.938340
3.826820 59.679199 13.986100
-5.361450 66.127296 12.810800
2.380510 64.547798 5.992330
0.360019 82.673897 10.964900
-3.300710 69.580902 6.431680
-5.279270 76.973396 10.251800
4.744960 61.987999 13.265100
-5.380770 75.130302 10.360500
-4.263390 59.652401 13.368800
1.273540 56.722698 15.058300
4.811460 63.218800 13.544600
-2.590390 81.883003 9.541010
5.376700 65.200600 12.639600
5.115010 73.646301 13.015600
1.737410 74.468903 5.834580
-2.579430 64.307999 6.101850
4.094810 62.115501 7.705590
4.458600 76.337700 14.015800
-3.201020 76.604897 6.726990
5.083510 61.082401 11.502300
-2.795580 79.060501 15.211100
-0.744907 66.352699 16.619200
-2.490680 81.490196 13.341200
1.283890 58.150200 15.385800
3.993930 56.990501 12.557900
3.707640 67.781898 6.716870
-2.648720 66.101501 6.009320
-4.029010 58.938900 8.558550
-4.359660 76.001801 7.860690
4.738820 59.120499 10.773900
-2.840200 69.559402 15.951000
-4.730000 78.551804 8.888480
-5.630520 70.762001 10.770500
3.895220 69.623001 15.142300
-4.761700 65.295197 13.999400
0.095081 60.030300 15.954700
5.636440 69.791901 11.424400
-4.607890 62.337502 8.319810
-5.203590 76.097801 9.533000
5.444720 72.852798 10.013100
-2.309300 80.956703 14.155500
-4.146390 76.161301 14.436300
-0.855041 78.117500 16.221300
4.314890 64.045898 14.426200
-3.737330 60.420799 14.327800
-3.908210 77.261902 7.337520
5.439780 68.115601 12.701500
1.812650 58.139900 15.164500
5.109560 78.619301 11.790200
5.381650 63.333000 11.700000
-3.182450 77.232002 6.726810
1.725670 57.498299 15.052300
-0.676043 57.818001 15.423900
1.301890 65.188599 5.550620
5.584380 66.212097 10.185100
-4.349010 62.570099 14.105900
-0.298151 56.735100 6.793610
1.259440 68.552299 5.464600
4.929430 63.234200 8.767230
2.516570 71.111603 5.996170
3.981030 80.864502 10.807400
-0.275395 74.297096 16.486300
-0.571665 58.905102 6.365270
5.026070 76.560097 12.870200
-5.646890 66.065804 11.309200
0.789183 60.687401 15.985700
5.313100 75.380096 9.936340
-4.722690 61.430000 8.930010
-0.851739 65.390701 5.480050
-0.450765 61.955101 5.790040
-4.465170 65.556900 7.621560
-4.827710 75.380898 8.537720
4.737090 59.236801 11.455000
2.376080 80.545700 14.517500
-3.518690 55.595501 9.109900
4.395150 72.255699 7.618420
4.435870 58.339699 12.243400
4.412950 73.517197 14.294700
5.302760 63.400200 9.678150
-1.938280 74.144096 16.130400
1.284620 56.210701 14.934000
4.503650 80.076797 10.435200
1.893770 73.746300 16.169500
1.592540 82.236702 12.967500
-4.143100 74.881203 7.492130
-2.134440 80.080002 15.044400
-1.470230 74.014801 16.330999
-0.280951 55.168800 14.901400
-1.825380 66.245003 16.371700
1.153020 75.558502 16.310600
2.262230 73.327499 16.038601
-1.490720 78.857803 15.916900
-3.168800 58.893299 7.544660
5.448290 73.522400 11.745400
5.143770 77.055298 9.490760
-5.559170 65.046204 10.489400
0.672438 73.317398 5.549930
0.866590 61.374401 16.099001
-5.079500 69.404099 13.516400
-5.394510 63.570301 11.792400
-0.214308 77.213501 5.657730
5.115980 61.550499 10.195100
-5.143660 77.180199 9.480490
-2.316900 78.020500 15.779300
3.155530 81.474403 12.302200
5.227490 66.053398 13.123500
-4.022350 70.327202 15.022200
-3.198990 55.368000 8.726410
-3.278390 79.264198 14.742300
0.198996 80.710800 6.907860
5.511460 65.425102 12.065400
1.426860 64.652100 5.597100
1.309060 75.310204 5.729490
4.707950 60.367599 12.640800
-4.103550 75.626602 7.498010
-3.078770 74.955200 15.495700
-5.420570 67.498299 9.299460
-4.225850 74.229103 14.482500
2.635960 81.985397 9.970150
2.990700 58.194500 14.440800
-1.174140 80.814201 7.154750
-2.808550 62.517399 6.460370
0.033872 72.331398 16.611099
-0.173348 69.987801 16.678900
1.179230 69.467300 5.473690
1.405690 55.052898 7.415330
-5.661170 66.751503 11.357100
-5.028670 66.128799 8.416890
-2.623980 80.208099 7.409270
5.329310 72.897301 9.439340
-5.333880 77.502800 10.661600
-5.200870 70.449699 13.163100
0.615765 72.370598 16.533001
-2.084250 71.244400 5.822810
0.175219 70.126198 5.355660
-1.280770 80.395401 15.175100
3.246560 76.242996 6.740540
3.202820 62.248299 15.217700
5.516360 66.650803 9.581920
3.184200 56.212002 8.410910
0.404776 78.553802 16.190599
-3.208330 79.987602 7.687220
5.536970 64.924004 11.658500
4.156860 74.500298 7.480260
2.846090 56.484600 7.942420
-5.681670 69.595001 11.113000
3.519040 64.497200 15.306800
-0.259766 76.226799 5.634710
1.939960 74.749397 16.098301
5.345280 70.518700 9.224080
0.695728 59.847000 15.841400
2.846310 67.953102 6.058310
-0.084934 78.573303 5.803580
-2.240170 79.217598 15.467600
-5.358500 72.496803 12.570000
-5.385350 75.753197 10.619200
1.852120 60.382000 6.398790
-2.737040 56.024899 7.983440
3.812760 71.730499 15.118300
1.759360 69.954803 5.641780
0.706217 67.671501 5.393310
-1.527470 67.399399 16.513300
0.481909 66.428596 5.376220
0.867157 80.988297 7.226920
4.470860 69.577698 7.567410
3.874150 58.059799 13.375400
5.519160 71.505600 11.880400
-0.110087 73.503700 16.546400
-4.974090 68.056396 13.824300
-2.641280 75.198997 6.246370
3.669740 78.336197 14.795600
2.074040 82.299202 12.313100
-2.139840 66.808899 16.253300
-3.582880 59.959301 7.642220
5.299770 67.052498 9.019360
4.211620 63.497898 14.466700
-0.218418 66.630402 16.691799
5.516960 70.323303 12.245300
2.381790 68.972099 5.876950
-0.985279 61.798599 16.147301
2.337130 76.088303 6.165520
-2.164850 62.507301 6.151680
3.931290 64.377800 7.056570
2.211000 56.477100 7.457150
-1.311960 77.833504 5.831560
5.618940 71.594498 10.935900
4.387710 62.948299 14.142800
4.727390 72.303101 13.976800
-4.445390 72.838501 14.305800
4.617400 73.936600 13.995300
-2.334070 55.510201 7.812810
1.492730 62.337101 16.130501
-1.669300 70.025200 16.425200
-4.728380 62.953400 8.358550
4.349590 57.575802 11.736800
5.043710 61.988098 9.487310
0.921854 55.116600 14.805800
3.124940 66.463203 6.286240
-0.426965 81.885498 13.939500
3.533880 58.301399 8.130270
3.386940 63.144798 15.229900
-5.265410 67.901199 8.914410
-2.556520 65.117996 6.030210
4.332870 58.712502 12.693900
-5.518370 69.732803 12.330900
4.822540 73.441597 13.747300
4.095290 78.065903 14.354200
4.052460 80.393997 9.473980
5.537370 72.365700 10.551000
-0.763443 77.341698 5.731000
4.781060 69.813004 14.051400
-4.506080 73.843300 7.883670
3.175880 74.690399 6.594400
5.332410 76.628403 11.499900
-1.665770 68.517303 5.569890
1.522330 81.767799 8.301560
0.247634 56.393600 15.170100
-3.272380 73.798302 15.416700
4.092370 66.495598 14.971300
-4.366880 80.298599 10.485800
0.277687 62.659599 16.370100
-2.198660 63.987801 16.050900
-3.232950 61.737400 6.932800
1.114880 74.338097 16.373800
3.090030 62.309399 6.715500
-5.520060 71.859001 11.766000
2.142210 64.561203 16.139200
-5.379550 74.592598 10.156600
-2.271550 77.963600 6.225460
-0.010855 58.453602 15.645500
-3.339580 55.709099 13.241500
0.016206 59.341801 6.200870
2.746060 57.615200 14.473600
2.091530 68.405602 16.287701
4.356060 58.974098 9.251730
2.125950 81.434303 13.730700
-2.813460 61.148701 15.305100
-4.724600 73.315697 8.126930
-3.701090 59.902199 14.217600
1.549200 82.673897 10.160700
2.509780 60.825802 6.582470
-3.947650 79.816200 13.576100
-1.390870 76.009598 16.257999
-5.303050 75.543404 9.918610
-0.757947 79.635002 15.741900
3.629530 57.553200 8.515330
-4.968300 63.113998 13.137400
2.382380 62.085098 15.721200
2.117340 79.085098 15.573800
2.708380 69.384499 6.021740
1.960610 72.721100 16.194901
-2.093300 54.956402 7.777160
2.376820 63.317200 6.130010
-0.987027 55.467300 14.872700
2.698290 56.427502 14.186900
-0.470112 71.575897 5.447380
3.771160 79.625999 13.967800
0.721495 70.775299 16.582899
-5.379510 75.375999 11.592100
5.285410 62.880001 9.962940
0.302433 61.224499 16.149900
-4.711970 61.963200 8.696130
-0.614511 71.684799 16.560600
-4.072680 63.344501 7.409830
-4.096060 80.276901 12.659700
4.975110 75.172302 8.867990
4.271230 80.366402 11.919400
-5.551100 67.378998 9.790390
4.620600 79.746803 9.896200
-2.715330 68.179001 16.029699
-4.028060 69.696602 6.994500
-5.333140 71.971497 12.685800
-1.268830 60.472698 6.148660
4.108210 73.098000 7.306510
0.614499 81.980003 13.801100
1.869520 71.056198 5.725780
4.511230 61.205399 13.520100
4.006760 78.620697 7.750300
0.443101 55.528999 14.957600
-2.979720 64.849602 6.282010
-2.483980 59.891300 15.265100
-1.520680 62.396801 5.902710
-0.232934 62.798401 5.634380
-3.263240 81.517303 11.927000
5.399620 74.527100 11.746300
4.919570 79.185097 11.823000
-2.534050 55.932499 14.178900
-4.209410 72.908897 7.423510
5.640230 70.563599 11.247400
-4.895300 61.006699 12.497000
-2.725550 77.587097 6.388040
4.265620 57.006500 10.598900
-4.084160 67.324203 7.035760
2.521040 63.045101 15.810700
-4.978200 79.010696 10.160200
-2.798340 63.600300 15.741600
2.654160 72.955299 6.135820
3.259550 80.837799 13.332900
4.793560 69.368202 7.980640
5.620680 70.384903 10.583900
-4.994620 63.290699 8.909180
4.788710 78.550797 13.001800
4.555380 67.164200 7.652480
-1.358680 79.774803 15.553500
-4.327010 80.224098 9.837440
1.453140 61.564999 16.022100
5.251180 77.858803 11.796200
3.480850 68.644997 15.486500
-3.517690 73.357903 15.255100
-2.495340 60.694599 15.428500
0.450033 82.324501 8.652340
-4.570880 66.020599 14.314300
5.312730 77.471703 10.489800
-1.974160 75.471100 16.047501
-3.866820 56.266399 12.456100
-3.893170 77.676804 14.688400
2.031690 59.767700 6.595990
-2.998350 76.192497 15.484200
-1.475640 77.992897 16.131500
-1.504710 71.869904 5.609650
-5.127020 69.402702 8.629590
-0.780004 72.897003 5.543780
-4.548950 67.233803 7.642970
1.575490 82.082901 8.802580
3.793490 56.157101 9.459910
0.751111 71.762199 5.491830
-5.256720 74.557899 9.471970
-2.054840 62.425499 15.911900
-3.659890 71.429703 6.780700
-5.028290 74.502403 13.117800
-2.128830 66.209602 5.787480
5.323980 64.350502 12.616400
-3.368580 68.957901 6.467040
3.764400 80.863602 12.314600
-4.851790 63.931900 13.642000
-2.090760 58.994499 15.240900
0.822093 81.270302 14.549000
-3.587640 59.417900 7.820320
1.117650 82.673897 12.402900
1.263300 68.023598 16.568199
0.939705 77.600197 5.763450
4.411200 59.629501 9.030300
-3.552540 75.025101 15.128000
-3.359570 78.355202 7.002730
-5.557700 68.469902 12.238200
-3.460390 75.960297 6.887900
-5.010100 66.678802 8.329750
-4.001500 63.187199 14.687200
-1.755150 81.194901 7.757030
-0.053420 77.338303 16.393801
1.716630 72.866898 5.742900
5.149470 68.503601 13.397600
1.277090 82.673897 10.920400
-5.246860 78.015503 10.354300
-5.120280 75.598503 9.270690
-4.484100 76.436401 13.975000
-3.574720 65.692902 6.679570
-0.529131 70.404099 16.623100
-2.722890 61.933498 15.526700
-5.394830 76.011002 11.247600
-5.139530 71.324898 13.220300
-4.685390 62.989700 13.762000
5.375710 68.322601 9.169900
3.441300 67.097198 6.521060
1.804100 68.949799 5.637150
-3.500800 65.317802 15.382200
3.150880 77.219803 15.328900
-4.562400 62.162800 13.727900
-1.498510 58.558102 6.642930
1.006100 82.305702 8.805760
-2.737410 63.048801 15.715700
-0.585821 73.765999 16.471100
2.202730 70.096497 16.202600
4.108780 70.949501 14.871300
-4.485240 75.359100 14.056500
-5.164170 73.234299 9.082840
-3.355330 81.125999 9.326510
2.264150 71.442001 16.125500
-0.569873 57.358398 6.693550
-4.920070 76.878098 8.944160
3.029700 81.083900 8.748210
4.505100 57.946301 10.862500
0.894729 79.025398 15.983600
-2.073150 56.946800 7.251920
-0.323679 80.112000 15.530900
-5.555760 70.238602 11.964400
3.524360 56.114201 8.888630
-1.983500 73.433502 16.148500
-4.070040 77.819801 7.593640
3.956900 79.287399 8.053030
-3.978610 80.557198 9.603080
4.614670 58.982700 10.049700
0.713870 82.673897 10.290600
0.541947 77.193100 5.700930
0.872214 67.155098 5.420330
-2.442070 74.584602 15.898900
4.631680 79.740196 12.077800
-4.720150 59.718399 9.733280
5.036640 68.073799 13.673700
4.412140 70.805000 7.545920
-3.409520 78.045898 15.060300
4.088300 72.746498 14.778400
4.769070 76.509598 13.496900
4.439640 72.669403 14.326600
1.272790 61.048401 15.989300
-4.878880 60.889599 9.551120
4.888270 73.722801 8.477920
-4.245280 73.638298 14.503700
-5.012090 73.391403 13.296000
-1.729370 61.198799 6.184630
-2.123070 64.553596 5.885030
-2.434730 64.603600 16.020599
2.110090 71.634697 5.850290
4.219460 56.801300 11.443500
-3.670480 76.967201 14.922700
4.249610 70.290703 7.304020
2.280160 69.898804 5.856210
3.445460 74.253403 15.256400
-5.611740 71.766602 11.097700
-3.613340 76.440399 7.033640
-0.392772 74.994102 16.437401
2.742960 77.678703 15.622100
-2.817720 75.603500 15.657600
-5.517200 70.765602 12.120400
-4.134720 57.199799 12.336100
2.959660 72.360802 6.290010
-3.271510 64.727898 15.516900
-4.856030 70.865402 13.903000
-4.571820 78.075500 8.300850
-3.079570 67.517601 6.238240
0.667379 81.510696 7.703770
3.177980 77.482101 6.729050
3.985800 80.728897 9.998680
4.120350 76.060204 7.553310
1.443600 66.784500 5.499260
-3.897150 74.009399 7.106740
2.807350 62.776199 6.410740
-0.143093 82.389702 13.329700
-0.300615 65.844002 5.382120
-4.958110 76.313797 8.966840
-2.892390 65.617798 6.161260
2.880000 75.258499 6.401070
0.960484 79.777901 15.640600
-2.622370 57.595798 7.468160
2.311020 79.037003 6.519510
-3.743660 57.976101 8.514390
5.508710 63.912399 10.832300
-5.491900 71.334999 12.139400
3.925060 59.294300 8.302140
0.125968 68.221298 16.719900
-0.060909 73.445503 5.475610
-3.876900 59.028301 13.701400
4.001830 74.490501 14.753900
-4.220600 78.230301 14.145500
-0.361582 74.425102 5.562530
5.706180 67.013397 11.035100
1.114030 82.673897 11.811000
3.262450 75.514000 6.709640
0.875853 82.497803 12.993600
3.979160 77.039299 7.437240
4.131640 77.519096 7.638540
-4.876960 60.002800 11.543400
-0.997434 62.327900 16.225401
-5.448130 67.950104 12.677100
4.480120 78.619598 13.664600
-2.990630 61.269001 6.835000
2.830430 55.881001 8.093850
-2.092360 57.555401 14.913800
4.094320 69.831497 7.085570
3.280250 77.738403 15.203300
2.382800 63.828400 15.956600
3.548250 68.701599 6.598030
-5.526690 64.237801 11.322900
0.355140 74.180901 5.549880
1.738950 81.792397 13.541200
1.261870 69.103897 16.554600
3.830480 61.332001 14.478000
5.626940 65.093498 10.984100
2.024150 62.609600 15.954400
1.309180 60.350201 15.851000
-1.152770 56.021801 14.944900
5.213350 62.356602 10.012700
2.749700 68.583702 16.010900
-2.128470 69.805397 16.240101
-4.187080 78.304001 7.865380
-4.774220 72.694298 13.888600
-4.424920 74.523804 7.831440
0.902508 54.549301 14.686100
0.454540 82.673897 9.736350
2.120410 67.231300 5.765390
-3.032440 81.393097 12.796300
0.152153 71.742798 5.412200
-3.662970 55.854000 12.717500
-0.553503 66.350098 5.387080
0.290209 58.238602 6.467510
-4.698470 75.845802 8.290220
2.264370 57.728199 14.873900
0.865265 58.181702 6.555110
-2.300150 61.240700 15.618500
3.375490 60.389801 7.334110
2.762950 76.545097 15.644000
-4.190250 77.326599 14.325400
2.012940 67.795700 5.714810
3.390080 61.561501 7.086470
3.936420 65.209297 6.990950
0.852205 58.461201 15.536300
4.212120 57.730499 12.448800
0.171238 80.419296 15.347200
0.610199 59.578701 6.229580
-3.765460 79.255302 14.249100
1.379000 77.721298 16.200701
-1.369750 56.917198 15.063900
4.134170 62.690498 7.615870
1.715380 80.650803 7.238940
-3.749640 81.028000 11.907400
4.866270 64.114601 13.657000
-2.446240 62.962101 6.198930
-1.078240 69.924202 5.470210
3.679300 55.002300 12.202900
3.939050 73.955002 14.877800
-2.948460 57.311600 7.795780
5.150520 65.080902 8.863040
2.796000 77.884598 6.474470
-5.124090 62.004700 9.737270
-1.260360 79.336098 15.813900
5.246680 62.014999 11.374600
2.804820 59.205700 7.183770
5.394880 63.536499 10.268700
2.229010 77.819603 15.842200
3.013360 70.642403 15.786200
-2.517690 56.917500 7.572540
-4.831460 75.059799 13.523900
-1.392910 76.264603 5.785680
-4.924900 70.257301 13.842200
-5.594700 65.574097 11.496500
0.254492 76.442802 16.387100
3.389920 74.848701 15.263200
-5.273120 77.680000 11.752800
5.527670 71.404999 10.185000
5.278200 71.683502 12.848300
5.246560 62.500198 11.930500
4.546320 58.517101 10.269600
-4.080730 66.418404 7.046060
3.982230 66.305702 6.949400
-0.806868 56.416000 15.101300
3.789880 61.745300 7.398970
-5.475300 72.635002 10.165400
-1.603940 56.603401 7.137880
4.874030 75.497200 13.367600
1.467200 66.941902 16.530500
-1.894510 55.459301 7.523850
-2.293900 58.340401 15.010100
3.598100 79.018600 14.613100
4.293150 66.803299 7.316620
5.187360 69.181503 8.762970
2.627540 81.647797 12.887300
-5.234000 78.266701 11.461500
4.018100 60.241901 13.907600
3.789550 58.749199 8.311040
-2.840970 68.127998 6.054220
2.030390 61.638599 15.794900
-5.111480 73.821198 9.029120
-1.728940 64.107300 16.259001
-1.764400 82.578598 9.954660
5.638230 66.297401 11.473500
-0.756478 63.722198 16.428801
4.950270 60.611500 11.847900
-1.486640 55.508598 14.688000
4.954890 72.735298 13.516200
4.888890 69.885300 8.122970
-5.162680 65.295998 8.861200
-4.327600 57.640099 12.010200
-5.352920 72.275398 9.424850
-3.814210 55.125000 11.767600
0.622319 65.340897 5.452630
4.461380 71.790398 14.357000
-5.559080 66.492599 12.112900
-3.931230 55.501598 10.536700
2.196120 63.832401 5.996870
3.837940 80.309601 8.806410
-5.366070 74.290398 12.088000
0.550987 78.021004 16.276300
5.357190 73.509399 9.589230
-3.359580 60.480499 7.300770
-4.882760 79.315804 11.701400
4.984280 70.690598 13.661000
5.383480 74.066803 12.037800
-5.396950 72.820702 9.638480
-0.018216 75.398697 5.563730
4.927820 65.686600 8.237560
4.201980 63.707298 7.516040
-4.757260 60.259800 9.561500
4.391680 57.462502 11.229700
-3.376410 78.673599 14.920300
-3.927460 59.457802 8.249620
2.257450 77.295403 6.171350
0.613400 76.881401 16.319099
4.517740 70.725502 14.353000
-4.627650 77.150703 13.754600
3.873060 67.582901 15.185000
3.892350 63.547100 14.891200
3.500600 81.278297 10.052200
-5.112920 61.610600 10.103100
-3.351040 81.508003 11.407400
-1.220260 64.987396 16.480200
2.569960 55.917702 14.147400
-4.113730 76.383499 7.569600
-2.237530 77.243896 6.162680
4.127290 68.934402 7.097180
-4.850160 76.420601 13.312000
-4.214250 69.586700 14.798000
2.386580 81.145203 8.146540
5.569340 64.539101 10.791000
-5.200960 61.567600 10.821100
-5.361320 64.974197 12.643800
1.465250 80.315002 6.873530
1.390120 78.707199 16.006800
-5.199870 77.611504 12.348900
-5.482810 64.843300 9.995720
-1.088870 73.957497 5.635680
-0.368694 79.570602 6.207050
-1.779780 82.337700 9.418310
-5.367950 62.799198 10.680800
3.030190 61.038799 15.113200
2.839760 81.990601 10.911100
-1.591160 57.444500 15.095500
-5.220710 63.280399 9.457830
-2.112620 67.870598 16.275999
-5.185740 76.832497 12.451300
-4.492140 60.026199 9.034230
3.071400 80.537598 8.068820
3.015750 57.971500 7.667970
5.247080 77.319000 9.965460
-4.924230 68.646698 13.905600
-4.570290 59.099300 9.701120
3.186810 76.529602 15.319700
3.653960 80.728104 9.162290
0.714086 64.713303 5.499840
5.587890 69.552498 10.199100
-4.719580 66.501801 7.877270
-5.010640 65.586197 8.452060
-1.230030 60.073299 15.813300
2.928140 68.672699 6.121430
5.213970 77.554802 12.262000
5.543380 69.681702 12.149300
-0.702362 55.407501 7.134190
-3.635330 80.710098 9.080390
-3.093720 59.741699 7.268780
4.708590 79.103302 12.751600
-1.668100 64.636101 16.340099
3.927270 57.472198 9.040680
-5.595140 70.288002 10.374100
-4.729520 77.075302 8.489080
-5.459480 73.333603 10.301600
3.551720 72.322701 15.288900
5.665700 69.065300 11.320700
-3.391060 74.373901 15.290900
-0.752260 75.529800 5.666580
-4.474760 59.239300 12.636600
-1.526960 76.860100 5.869120
2.502750 81.561699 8.830000
2.692280 59.194801 14.931000
2.613980 65.059998 6.057490
0.682352 72.384499 5.507710
5.194650 72.376404 9.053230
-3.904430 80.837601 10.052400
3.598530 73.623596 15.177000
-5.603580 70.543602 11.531900
3.741660 77.486603 7.161840
4.510460 74.173698 7.915380
4.412500 66.441597 14.553300
0.013629 54.729900 14.842100
4.582240 77.767601 8.253770
3.667390 56.978901 8.768470
2.401880 54.839401 13.986100
4.520690 74.593803 14.069600
1.792030 79.765800 6.652150
1.798390 75.034599 5.888890
-0.099353 59.314400 15.813700
4.268840 76.790298 7.803080
5.369740 67.797897 9.168970
2.562890 82.164902 10.474100
4.912210 60.846401 12.378800
-4.538500 67.126297 14.400200
-2.744090 59.516602 14.975300
-1.281660 66.937500 5.476410
-2.870380 64.333199 15.782900
-4.473580 69.551399 7.570040
-2.352760 70.280197 16.136299
-0.127211 77.943802 16.341999
1.537750 65.827698 16.465700
-0.347351 72.847198 16.546900
5.112760 64.330002 8.910530
-4.067270 70.960999 7.106660
1.950770 79.586998 15.411500
3.286790 73.073402 15.449500
2.039490 64.905998 5.828780
4.448440 75.616302 7.946690
5.442240 71.394402 9.549040
-1.969030 63.372898 16.076500
2.265760 56.297699 14.483400
1.812030 69.666100 16.374399
1.033710 79.525002 6.272510
0.242631 58.747398 6.354920
4.082820 69.055901 14.987900
-5.406550 65.302200 9.449080
3.199670 56.271599 13.621500
-3.337450 81.553101 10.889800
-5.485900 73.258202 11.556600
3.708070 60.599400 14.420100
-1.855340 63.253700 5.921190
-5.504820 65.323402 12.072600
-0.269666 77.914703 5.704370
-4.118250 61.355099 14.108600
-4.694990 59.167301 10.366700
-0.518815 72.333900 16.547199
-2.733890 62.533501 15.631200
4.910800 67.022797 13.913400
-4.816780 77.676300 8.730700
2.596740 71.628799 6.051620
-4.743020 60.135399 12.444000
1.013290 70.450104 5.473790
-0.739451 63.756001 5.596630
4.591360 75.151100 13.934200
5.445650 73.472801 10.247700
5.250750 78.156303 10.553200
5.210430 71.142700 8.963280
1.775560 64.272903 5.772840
-2.664040 70.844803 15.985600
1.287270 70.558701 16.517099
0.551277 69.671600 16.635900
4.087690 79.989899 13.147600
3.367620 57.667099 13.897800
-3.919080 67.233498 15.145400
-4.182900 58.175999 9.265760
-0.738167 62.408298 5.759630
3.603310 57.387100 13.491300
-1.959170 61.765999 15.845000
-2.357100 74.240196 6.079400
3.473890 55.060101 12.731000
5.417110 65.160797 9.495040
4.981690 61.391201 12.460800
5.459290 64.686501 12.147600
3.658430 74.689796 6.964640
-5.491450 70.503601 9.635570
-2.341660 82.380699 10.986400
5.604460 67.545700 11.848300
1.416060 59.799999 6.334540
4.594010 63.799999 14.020200
-1.018690 67.029999 16.590500
-0.557519 76.377403 16.350300
3.312940 58.760601 14.341400
-3.440500 55.108898 12.838800
3.909580 77.125900 14.689100
4.227020 67.907204 14.818900
-4.482070 58.181000 11.716300
3.930200 60.160099 8.033920
5.044870 67.057198 8.403870
-3.100090 65.513397 15.703400
2.686260 69.304604 16.020599
-4.491810 67.850098 7.558450
1.430960 54.607899 14.502900
-3.714970 79.480103 7.875340
1.431230 72.998100 16.396900
0.351279 74.810699 5.579770
-4.091560 61.293598 7.902890
3.308640 65.133301 6.514550
-2.123100 79.085297 6.459960
4.561420 59.055401 12.327800
-1.931840 69.659302 5.706410
-4.627610 79.385696 9.382740
-2.068970 72.882500 16.141701
-4.934940 62.381699 12.960100
-4.149790 73.615501 7.401430
0.180590 69.601997 5.345110
-3.621600 72.638901 15.218800
4.901790 78.643799 9.363930
4.694890 77.251801 13.634700
-4.421770 58.536900 9.647100
-3.941040 68.406303 15.139800
5.576840 72.737801 11.057000
0.544044 75.352402 5.630770
-0.518343 69.242897 16.649500
5.515690 65.736603 9.865540
0.317075 70.202400 16.655399
-4.493660 64.846497 7.723470
3.710610 61.210999 7.428870
3.026060 70.621498 6.253890
-5.394170 70.620796 12.678600
-0.898145 64.501099 5.538980
-3.216440 62.380402 6.799130
2.699350 62.561199 15.662900
-3.239250 60.299599 14.780700
3.344170 81.138199 9.328320
-5.336940 68.390999 12.951200
-5.516070 71.772797 10.208800
0.086139 61.848000 16.273100
0.304500 64.237900 5.488570
1.590560 59.059101 6.568700
0.406328 64.069702 16.511600
-3.887670 62.544201 7.330510
0.873183 73.307899 16.455400
5.457090 69.396797 12.605200
4.449540 65.428802 7.612870
-4.937770 73.577103 8.579180
5.400300 75.560997 10.663700
5.639500 71.049500 10.926200
-4.766570 63.842800 8.228580
5.408960 75.219299 11.424700
-4.820170 67.784897 7.987440
-4.871260 78.529297 12.816700
-5.702940 69.075897 10.995200
-4.527860 79.046898 13.241400
3.722750 65.969704 15.257500
1.403750 62.948399 5.769220
4.823560 76.179100 8.625520
-0.426187 81.890503 8.097650
0.959795 62.882599 16.313499
3.107900 55.052898 13.313300
2.372100 78.617203 15.626300
-2.150080 72.301598 16.135799
1.005400 76.902298 5.764830
2.327760 74.897797 6.101220
1.044570 68.539101 16.595301
-5.214500 62.049999 10.372100
5.293830 65.659897 9.125020
-3.657420 63.447399 15.062300
5.639950 65.821198 10.773400
4.135270 65.947800 14.875300
4.270610 64.855904 14.599400
-3.426640 73.446198 6.711690
-1.979070 73.844704 5.902310
-3.349010 74.272697 6.702030
2.279960 57.107700 7.338340
0.479167 72.893799 16.527300
1.561610 73.628403 5.718170
3.325700 65.311096 15.516100
-2.161650 56.261101 7.478100
3.132690 73.108101 6.465720
3.574670 76.321297 15.034400
-2.381980 76.407303 15.831000
0.316158 79.921097 15.646100
5.651480 68.053596 10.501600
-2.777670 81.983498 11.657400
1.143260 76.874702 16.249701
3.751410 73.054703 15.094100
2.594490 80.057899 7.267900
4.951490 71.357498 8.360440
-2.583880 72.970703 15.923800
-5.280940 62.929298 9.889520
1.207020 72.466202 5.580060
-2.395620 68.613800 5.874420
-3.598680 67.725800 15.397400
-3.534770 62.933102 6.942630
4.739660 75.117500 8.292840
-3.010690 81.534897 9.544000
5.382510 77.370796 10.997100
-2.814060 81.248901 8.718840
5.459230 74.893898 10.871500
4.803210 71.076401 13.958100
4.388210 69.294701 14.581500
-4.320750 59.105499 9.095310
5.475620 74.419601 11.208500
-2.209560 68.536499 16.235800
-3.191790 62.248001 15.226100
-4.743440 76.446602 8.464860
-2.262130 75.721001 6.115820
4.238500 73.737801 7.526640
4.204310 56.530899 10.920300
1.900610 61.562302 6.194930
-3.947450 65.471397 15.050200
4.981170 61.063999 9.777710
0.242781 75.155403 16.449499
2.684090 82.064598 11.603300
5.665300 69.774803 10.823300
4.969120 79.026199 10.131800
-3.465660 58.582500 14.085600
-2.699900 67.654800 16.030500
-1.720960 54.839901 14.436400
-1.959920 73.319801 5.867160
-1.009310 64.458504 16.473200
3.086840 64.547699 15.645100
-1.186430 58.932400 6.440500
4.498490 71.457497 7.701030
4.214660 59.674599 13.479300
-3.398500 70.167999 15.508900
-0.507910 67.986900 16.667299
-0.678773 69.099197 5.399900
-2.858820 63.813301 6.308000
-0.654598 81.504204 7.695120
-1.310540 63.482800 5.700610
4.714730 73.362297 8.117740
0.766474 58.846199 6.403220
3.638020 60.074799 14.352200
-4.901190 60.474400 12.026800
5.549810 66.678299 12.197500
0.083477 70.927696 16.660801
4.808400 70.706497 8.055910
-0.812055 76.865303 16.293699
2.628210 79.134399 15.304400
-2.841830 80.484497 7.814790
3.283230 80.098396 7.857490
-1.483780 65.831596 16.488300
-5.653900 66.500801 10.638000
2.864970 74.266197 6.330230
-2.142050 79.803101 6.818440
-3.425480 57.076801 13.612900
1.775360 64.898499 16.311501
-1.724010 77.427803 5.952010
-1.119790 56.340599 6.998800
-0.012350 82.673897 10.239100
-5.625510 69.095703 10.410300
-5.385890 63.079102 11.464500
0.669155 63.844799 5.578010
0.788110 68.926804 5.410600
5.567180 70.829697 10.310100
-3.742730 55.679600 9.603830
0.218445 71.509102 16.619801
-3.616460 54.995300 12.350700
-5.489100 73.778999 10.690100
4.706030 60.619598 9.264170
-5.120580 78.237701 9.669150
0.107636 75.802803 16.436701
