ply
format ascii 1.0
element vertex 1686
property float x
property float y
property float z
end_header
-0.044349 -0.001913 0.001418
-0.046508 -0.001175 0.000320
-0.047733 0.000319 0.001047
-0.046590 -0.001884 0.001171
-0.047780 -0.000324 0.000180
-0.047870 0.002552 0.001035
-0.044287 0.002920 0.001431
-0.047508 0.000527 0.001072
-0.046906 0.002851 0.000281
-0.048150 -0.001487 0.000138
-0.048615 0.000938 0.000090
-0.046644 0.001270 0.001169
-0.046217 -0.000316 0.000353
-0.044435 -0.000525 0.000549
-0.043691 -0.000460 0.001492
-0.044172 -0.001370 0.001438
-0.045702 -0.001943 0.000408
-0.047915 -0.001823 0.000164
-0.048244 -0.001768 0.000127
-0.047388 0.002171 0.001087
-0.045627 -0.000364 0.000418
-0.047433 -0.001824 0.000217
-0.044885 0.001823 0.001363
-0.046165 0.000682 0.001221
-0.045199 -0.001684 0.001325
-0.045719 0.002841 0.001273
-0.044538 0.002613 0.000542
-0.046653 0.001947 0.000307
-0.044227 -0.001708 0.000571
-0.044699 -0.000482 0.001381
-0.046263 0.001784 0.001211
-0.043753 0.001350 0.000627
-0.048036 -0.001188 0.000151
-0.046084 -0.000167 0.001229
-0.046855 -0.001756 0.001142
-0.045535 0.001455 0.001291
-0.046363 0.000025 0.001198
-0.048106 -0.000188 0.001005
-0.048265 0.002476 0.000130
-0.047489 0.000929 0.001075
-0.048508 -0.000796 0.000960
-0.044490 0.000436 0.001405
-0.044217 0.000518 0.001435
-0.045825 -0.001033 0.000395
-0.044096 0.001748 0.001450
-0.044071 0.002123 0.001454
-0.043826 -0.000400 0.000617
-0.045387 -0.000805 0.000444
-0.045801 0.001721 0.000401
-0.046352 0.000430 0.000339
-0.043799 0.002348 0.001484
-0.048592 0.001207 0.000092
-0.046171 0.002152 0.000361
-0.047044 -0.000957 0.000261
-0.044283 0.001836 0.000569
-0.044837 0.001727 0.000508
-0.044343 -0.001144 0.001420
-0.047189 0.000980 0.001108
-0.045444 -0.001542 0.001298
-0.047904 0.001964 0.001030
-0.047073 0.000123 0.001120
-0.047935 0.001697 0.001027
-0.045760 0.002425 0.001267
-0.044872 -0.001424 0.001361
-0.047407 0.000264 0.001083
-0.045121 -0.000397 0.000474
-0.048127 0.001140 0.001005
-0.046291 0.001382 0.000347
-0.045911 0.000757 0.001249
-0.044358 -0.001231 0.000557
-0.047905 -0.000436 0.001027
-0.045867 -0.000588 0.001252
-0.047685 0.001200 0.000193
-0.046040 0.000122 0.001234
-0.045273 0.002503 0.000460
-0.047743 0.002316 0.001048
-0.046961 0.000758 0.001133
-0.045260 -0.000385 0.001319
-0.045313 0.002127 0.001317
-0.046988 0.001825 0.000270
-0.045577 -0.001221 0.000422
-0.048502 0.001122 0.000963
-0.046626 -0.001088 0.001168
-0.046060 -0.001214 0.000369
-0.046655 0.000704 0.000306
-0.044428 0.000902 0.000552
-0.044124 -0.001428 0.000583
-0.048119 0.000072 0.001004
-0.048524 -0.000180 0.000098
-0.044892 -0.001944 0.000497
-0.047907 0.002438 0.000169
-0.046343 -0.001907 0.000337
-0.046239 0.002397 0.001215
-0.047646 -0.001492 0.001055
-0.046043 -0.000863 0.000371
-0.047271 0.000701 0.001099
-0.045643 0.001449 0.000418
-0.046415 0.001493 0.001194
-0.046778 0.000107 0.001153
-0.046528 -0.000827 0.000318
-0.047861 0.001581 0.000174
-0.043887 -0.000881 0.001470
-0.048274 0.000898 0.000127
-0.045465 0.000704 0.000437
-0.045364 0.002801 0.000451
-0.045258 -0.000136 0.000459
-0.046849 0.001119 0.000285
-0.046872 0.000385 0.001142
-0.044690 -0.000166 0.000522
-0.047331 -0.000830 0.000229
-0.044683 0.000160 0.001384
-0.046204 0.002734 0.001219
-0.043809 0.001955 0.001482
-0.043789 -0.001571 0.000619
-0.046231 0.002469 0.000355
-0.045978 -0.000210 0.000379
-0.047073 0.000559 0.000259
-0.045071 0.002819 0.000483
-0.045373 0.002159 0.000449
-0.043743 0.000780 0.001488
-0.045439 0.001208 0.001302
-0.044869 0.002237 0.001366
-0.048390 0.002052 0.000977
-0.047244 0.001023 0.000241
-0.047726 0.001441 0.001049
-0.043966 0.000622 0.001463
-0.045003 -0.001036 0.000486
-0.047735 0.001000 0.001048
-0.048469 -0.000851 0.000104
-0.044291 0.001988 0.001429
-0.048522 0.000075 0.000960
-0.046299 0.002786 0.000347
-0.045161 0.001367 0.001332
-0.047302 0.001319 0.000235
-0.047534 0.002474 0.001072
-0.046062 0.000457 0.000371
-0.047438 0.001589 0.000220
-0.046398 0.002020 0.000336
-0.047065 0.002804 0.001124
-0.048303 -0.001674 0.000982
-0.047925 -0.000558 0.000164
-0.043867 0.000051 0.000613
-0.045166 -0.000666 0.000468
-0.045885 0.001296 0.000391
-0.044881 0.000159 0.000501
-0.044073 -0.000572 0.000589
-0.046437 0.000851 0.000330
-0.048578 0.001569 0.000956
-0.044179 0.000154 0.001439
-0.047499 -0.000906 0.001072
-0.045250 -0.000012 0.001321
-0.046767 0.002957 0.001157
-0.047130 0.000386 0.001114
-0.046784 0.002214 0.001154
-0.043714 0.002966 0.001494
-0.047995 0.001374 0.001019
-0.044566 0.002892 0.001400
-0.046754 0.001920 0.001157
-0.045840 -0.001666 0.000393
-0.048015 -0.001384 0.001014
-0.046523 0.001780 0.001183
-0.048572 0.002432 0.000957
-0.043906 0.001053 0.000610
-0.044818 0.001447 0.000509
-0.048410 -0.000507 0.000111
-0.045052 0.000547 0.001343
-0.047542 -0.000515 0.000206
-0.047334 0.002450 0.000233
-0.045371 -0.001927 0.001305
-0.048382 -0.000192 0.000975
-0.046570 -0.001481 0.001173
-0.044182 -0.000178 0.000578
-0.044264 0.002665 0.000572
-0.045149 0.001098 0.001333
-0.047541 0.000974 0.000208
-0.044030 -0.000984 0.000594
-0.043679 0.001759 0.000635
-0.048236 0.000907 0.000992
-0.047247 0.002459 0.001103
-0.045455 0.000156 0.001298
-0.048113 -0.000849 0.000143
-0.044743 -0.000449 0.000515
-0.045135 0.001885 0.001336
-0.045345 0.001888 0.000452
-0.047765 0.000052 0.001044
-0.046012 0.001568 0.000378
-0.047853 -0.000952 0.001032
-0.046550 -0.000063 0.000317
-0.044474 -0.000677 0.001406
-0.046782 -0.000220 0.000291
-0.044230 -0.000774 0.000572
-0.046117 -0.001548 0.000362
-0.047611 -0.001206 0.001059
-0.048163 -0.000699 0.000999
-0.043848 -0.001218 0.000613
-0.045650 -0.001752 0.001275
-0.045753 0.001616 0.001267
-0.043639 0.000682 0.000639
-0.048341 0.001535 0.000121
-0.045463 -0.001215 0.001296
-0.044029 0.001764 0.000597
-0.043962 0.001456 0.001465
-0.048543 -0.001406 0.000095
-0.045661 -0.000713 0.000414
-0.047122 0.002712 0.000257
-0.048046 0.001035 0.000153
-0.045622 0.000681 0.001281
-0.046286 -0.000703 0.000345
-0.043850 0.002878 0.000618
-0.045016 -0.000536 0.001346
-0.044359 0.000371 0.000559
-0.047091 0.002090 0.000259
-0.044993 0.002584 0.001352
-0.048382 0.002808 0.000978
-0.045703 0.001020 0.001272
-0.044912 -0.001622 0.000495
-0.046220 0.000664 0.000354
-0.047395 0.001845 0.000225
-0.044075 0.002064 0.000592
-0.044562 0.002458 0.001400
-0.044783 -0.001186 0.000510
-0.045288 0.002777 0.001320
-0.044798 0.002773 0.001374
-0.043670 -0.000662 0.000634
-0.046659 0.001317 0.000306
-0.044574 0.001861 0.000537
-0.044828 0.000806 0.000508
-0.047068 0.001512 0.000261
-0.046107 0.000934 0.000367
-0.046939 -0.001160 0.001133
-0.044919 -0.000037 0.001358
-0.044168 -0.000812 0.001440
-0.047812 0.002984 0.000181
-0.046422 -0.000913 0.001191
-0.045044 0.002901 0.001347
-0.047576 0.001206 0.001066
-0.044542 0.000955 0.001400
-0.043934 0.000778 0.000606
-0.048314 0.001332 0.000984
-0.048159 0.001940 0.001002
-0.044156 0.002349 0.000584
-0.045822 -0.001204 0.001256
-0.045389 -0.000626 0.001305
-0.045786 -0.001387 0.000399
-0.046316 -0.001004 0.000341
-0.046180 0.000185 0.000358
-0.045447 -0.001476 0.000436
-0.048454 -0.001962 0.000104
-0.048095 0.000715 0.000147
-0.045646 0.001892 0.001279
-0.048310 0.001878 0.000124
-0.045131 0.000827 0.001335
-0.047047 -0.000224 0.000261
-0.044907 0.000286 0.001359
-0.047302 -0.000307 0.000233
-0.044225 -0.000525 0.001434
-0.045586 0.002472 0.000426
-0.046121 -0.001210 0.001223
-0.043663 0.001680 0.001498
-0.047099 0.003021 0.000259
-0.044614 0.000136 0.000530
-0.044365 -0.001650 0.001417
-0.044302 0.001045 0.001427
-0.046286 -0.001351 0.000344
-0.045784 0.002187 0.000404
-0.045963 0.001939 0.000384
-0.048592 0.001628 0.000093
-0.045065 0.001103 0.000482
-0.043833 0.002202 0.000619
-0.047311 -0.000098 0.001093
-0.048209 -0.000131 0.000133
-0.046991 0.002386 0.001132
-0.046777 0.001553 0.000293
-0.041135 -0.001122 0.001774
-0.040325 0.001010 0.001005
-0.041556 -0.000641 0.001728
-0.041930 0.000027 0.001688
-0.042075 0.002145 0.000813
-0.042534 -0.000633 0.000759
-0.042151 0.001768 0.000804
-0.043383 0.002989 0.001531
-0.039652 -0.000250 0.001078
-0.043421 -0.000369 0.000661
-0.041061 -0.001658 0.000921
-0.040741 -0.000528 0.001818
-0.039121 0.002403 0.001139
-0.042655 -0.000220 0.001607
-0.042764 -0.000845 0.001594
-0.038650 -0.000891 0.001187
-0.039691 0.000860 0.001075
-0.038951 0.002768 0.002019
-0.041870 0.002626 0.001697
-0.041853 0.000762 0.000836
-0.041213 -0.000141 0.000905
-0.041337 -0.001446 0.001751
-0.041518 0.001696 0.001735
-0.042590 0.001282 0.000755
-0.041240 0.002994 0.000906
-0.040041 0.002845 0.001038
-0.039903 -0.001198 0.001910
-0.042304 0.000532 0.000786
-0.038855 0.002431 0.001169
-0.040749 -0.001944 0.001816
-0.040846 -0.000461 0.000945
-0.042327 -0.000248 0.001643
-0.043036 -0.000045 0.001565
-0.040607 -0.001057 0.001832
-0.039977 0.000769 0.001043
-0.041346 -0.001858 0.001750
-0.039384 -0.000065 0.001968
-0.038661 0.000636 0.002049
-0.040195 -0.000519 0.001017
-0.043136 0.002064 0.001557
-0.039928 -0.001834 0.001906
-0.040240 -0.001854 0.001011
-0.038892 0.000631 0.001163
-0.041338 0.000339 0.001753
-0.041710 0.002218 0.000853
-0.040858 0.002851 0.000948
-0.039264 0.002504 0.001985
-0.040652 0.000189 0.000968
-0.040919 -0.000187 0.001799
-0.041142 -0.000392 0.000913
-0.042148 0.001028 0.001664
-0.042995 -0.001739 0.001568
-0.039061 -0.000495 0.002004
-0.039681 -0.001518 0.001073
-0.041486 -0.001165 0.001735
-0.042415 -0.001703 0.000771
-0.043261 0.001488 0.001542
-0.039938 -0.000105 0.001046
-0.041568 0.000585 0.001728
-0.039303 -0.001119 0.001115
-0.043023 0.002803 0.000709
-0.042612 0.000702 0.000752
-0.039430 0.000969 0.001103
-0.039595 0.001483 0.001086
-0.041293 -0.001202 0.000895
-0.040213 -0.001722 0.001875
-0.039381 -0.001015 0.001968
-0.040092 -0.000658 0.001889
-0.040708 0.000882 0.000962
-0.040490 -0.001698 0.001844
-0.042030 0.002812 0.000819
-0.040983 0.000844 0.000932
-0.038751 0.000202 0.001178
-0.039965 0.002316 0.001046
-0.039609 0.001105 0.001945
-0.042414 0.000274 0.000773
-0.040777 0.002146 0.000956
-0.041987 0.002246 0.001684
-0.038649 -0.000629 0.002049
-0.041066 0.000172 0.001783
-0.039652 -0.000661 0.001077
-0.041478 0.000886 0.000877
-0.040368 0.001285 0.001001
-0.042373 0.002023 0.000780
-0.042523 0.002628 0.000764
-0.042720 0.002271 0.000742
-0.040409 0.001715 0.000996
-0.042042 -0.000581 0.001674
-0.041733 -0.000922 0.001708
-0.039415 0.000766 0.001966
-0.040369 0.000356 0.000999
-0.040370 -0.001322 0.001858
-0.040773 0.001262 0.001816
-0.041014 0.002415 0.001791
-0.040410 0.000701 0.000995
-0.039352 -0.001473 0.001109
-0.043339 -0.001047 0.001531
-0.039801 0.001824 0.001924
-0.041682 -0.001842 0.001713
-0.040183 0.002894 0.001884
-0.040282 -0.000881 0.001007
-0.042781 0.000450 0.001594
-0.040512 0.002290 0.000986
-0.039046 -0.001628 0.002004
-0.042531 0.000784 0.001622
-0.040232 -0.001208 0.001013
-0.040475 0.001994 0.000989
-0.040666 0.002811 0.001830
-0.039821 0.002552 0.001062
-0.038890 0.001415 0.002025
-0.038963 0.000219 0.002015
-0.040640 -0.000285 0.001829
-0.040974 0.000098 0.000932
-0.042046 -0.001352 0.000812
-0.039007 -0.001776 0.001147
-0.043409 -0.000576 0.001523
-0.039980 0.000594 0.001903
-0.041888 -0.001590 0.001690
-0.041653 0.000267 0.001718
-0.040445 -0.000601 0.000990
-0.039716 0.000507 0.001932
-0.042046 0.002463 0.000816
-0.041705 0.000928 0.001713
-0.039288 0.000191 0.001979
-0.040356 -0.000125 0.001000
-0.040503 -0.001264 0.000983
-0.040789 -0.000093 0.000952
-0.040191 0.000955 0.001881
-0.041245 0.001504 0.000904
-0.040251 0.000001 0.001873
-0.043567 0.002623 0.000649
-0.041351 -0.000477 0.001751
-0.043386 0.000366 0.001527
-0.043539 0.000996 0.000650
-0.043514 -0.000020 0.000652
-0.043437 -0.001929 0.001519
-0.042725 0.001582 0.000741
-0.039532 0.002168 0.001094
-0.040599 -0.000387 0.000973
-0.041371 0.001037 0.001750
-0.040161 0.000578 0.001022
-0.039113 0.000761 0.001138
-0.043179 0.001298 0.000690
-0.040888 0.000347 0.000942
-0.038808 0.001326 0.001173
-0.039478 0.003009 0.001961
-0.041392 -0.000204 0.001747
-0.040483 0.002024 0.001849
-0.043347 -0.001327 0.001529
-0.041529 -0.001387 0.000869
-0.040917 0.001897 0.000941
-0.043366 0.001688 0.000670
-0.040763 0.002509 0.000958
-0.039532 0.001824 0.001093
-0.042322 0.002438 0.001647
-0.040870 0.001674 0.001806
-0.039543 0.000506 0.001091
-0.041551 0.002222 0.001732
-0.043070 -0.001397 0.001560
-0.043287 -0.000319 0.001537
-0.043088 -0.001003 0.001558
-0.041167 0.003002 0.001775
-0.042671 0.002886 0.000748
-0.039386 -0.000373 0.001107
-0.039251 0.002761 0.001986
-0.043423 -0.000816 0.000661
-0.039598 -0.000260 0.001945
-0.042108 -0.001615 0.000805
-0.039583 0.000226 0.001947
-0.039697 -0.000946 0.001072
-0.039853 0.000107 0.001917
-0.041904 0.001957 0.001692
-0.039923 0.001191 0.001910
-0.041485 0.001270 0.000877
-0.041533 -0.000408 0.000870
-0.040228 0.000106 0.001014
-0.042424 0.002275 0.000775
-0.042027 0.000985 0.000817
-0.039821 0.001195 0.001061
-0.041703 -0.000210 0.001712
-0.041871 -0.001874 0.000831
-0.042662 -0.001611 0.001605
-0.038913 0.002072 0.002023
-0.039922 -0.001765 0.001046
-0.042209 -0.000892 0.000795
-0.039369 -0.000808 0.001108
-0.040080 0.001747 0.001894
-0.041224 0.001054 0.000905
-0.041371 0.002412 0.001752
-0.041950 0.002918 0.001689
-0.039012 -0.000474 0.001148
-0.041019 -0.000552 0.001787
-0.039181 0.002757 0.001133
-0.043548 -0.001815 0.000646
-0.041434 -0.000885 0.000880
-0.042932 0.001543 0.001579
-0.041257 0.000692 0.001763
-0.039916 0.002156 0.001912
-0.042230 0.000027 0.001654
-0.042455 -0.000970 0.000768
-0.039441 -0.001692 0.001960
-0.038897 0.002775 0.001165
-0.042116 0.000237 0.000806
-0.040112 -0.001440 0.001026
-0.043486 0.001919 0.001518
-0.039923 -0.000549 0.001047
-0.040025 -0.000922 0.001035
-0.038690 0.002862 0.002048
-0.041115 0.000541 0.000917
-0.042894 0.000150 0.000720
-0.040076 0.001628 0.001033
-0.039063 0.000471 0.002004
-0.038946 -0.000741 0.002016
-0.042615 -0.000086 0.000751
-0.043229 0.000954 0.001545
-0.041627 0.001515 0.000861
-0.042240 -0.001025 0.001652
-0.043598 -0.001548 0.001502
-0.042621 0.002017 0.001613
-0.043571 0.002258 0.000648
-0.041692 -0.001388 0.001712
-0.042456 0.001024 0.000770
-0.042185 -0.001863 0.000796
-0.042339 -0.000622 0.001642
-0.038696 -0.001156 0.002043
-0.042071 -0.000295 0.001671
-0.040350 0.001751 0.001864
-0.038907 -0.000952 0.001159
-0.042398 -0.001338 0.001634
-0.039757 0.002808 0.001070
-0.043454 0.002310 0.001522
-0.038875 0.000953 0.002026
-0.039291 0.000216 0.001118
-0.040536 0.000521 0.001842
-0.040818 0.001568 0.000951
-0.039571 0.000109 0.001087
-0.040638 0.001197 0.000970
-0.041077 0.002276 0.000923
-0.042257 0.001286 0.000792
-0.043572 0.002899 0.000649
-0.043596 -0.000762 0.001503
-0.040885 0.002994 0.001806
-0.039445 0.000467 0.001962
-0.041429 0.000594 0.000882
-0.039632 -0.000575 0.001940
-0.041011 0.001151 0.001790
-0.042787 0.000821 0.001594
-0.042280 0.001805 0.001651
-0.043249 0.000829 0.000682
-0.041998 0.000675 0.001681
-0.040747 0.000935 0.001819
-0.042159 -0.001529 0.001660
-0.042334 0.002862 0.000785
-0.038983 -0.001172 0.002011
-0.042955 0.000758 0.000714
-0.039491 0.001511 0.001958
-0.041787 0.001950 0.000845
-0.041853 0.001233 0.000836
-0.043015 0.001211 0.001569
-0.041467 0.001299 0.001740
-0.043438 0.001388 0.000661
-0.039115 0.000754 0.001999
-0.039288 0.001403 0.001120
-0.043031 0.002344 0.001569
-0.038644 0.001683 0.001191
-0.042857 0.001905 0.000726
-0.040238 0.000608 0.001875
-0.043305 0.000130 0.000675
-0.040312 -0.001022 0.001865
-0.040768 0.002500 0.001819
-0.043207 -0.001725 0.000684
-0.040060 -0.001464 0.001892
-0.041564 -0.001132 0.000866
-0.041328 0.001870 0.000895
-0.039735 0.002549 0.001933
-0.041704 0.001457 0.001714
-0.042833 0.000492 0.000727
-0.039286 0.000525 0.001119
-0.039030 -0.000096 0.001146
-0.039758 -0.001594 0.001925
-0.039069 -0.000186 0.002003
-0.039513 0.001214 0.001095
-0.039700 -0.001226 0.001071
-0.042060 -0.000574 0.000811
-0.042530 0.000055 0.001621
-0.040967 -0.001759 0.001792
-0.041706 0.000506 0.000852
-0.040294 -0.000440 0.001868
-0.043166 0.002047 0.000692
-0.040439 0.002804 0.000994
-0.041217 0.001735 0.001768
-0.042036 -0.000079 0.000815
-0.042946 0.002886 0.001579
-0.043517 0.001985 0.000654
-0.041050 0.002618 0.000927
-0.039151 0.002011 0.001136
-0.039385 0.002473 0.001110
-0.042688 0.002437 0.001607
-0.041358 0.002479 0.000892
-0.043136 0.001575 0.000695
-0.041930 0.001323 0.001689
-0.042396 -0.000364 0.000775
-0.039133 -0.000702 0.001135
-0.039449 -0.001413 0.001960
-0.043507 -0.001105 0.000651
-0.039874 0.001820 0.001056
-0.040016 0.002697 0.001902
-0.041809 -0.000296 0.000839
-0.040939 -0.001442 0.001795
-0.043608 0.000126 0.001502
-0.041195 -0.000679 0.000907
-0.041703 0.000207 0.000852
-0.041761 -0.000701 0.000844
-0.042382 0.002123 0.001640
-0.040029 -0.000206 0.001897
-0.043278 0.001756 0.001541
-0.041189 0.002120 0.001772
-0.042638 -0.001569 0.000746
-0.043436 0.000444 0.000661
-0.040740 -0.001878 0.000956
-0.038979 0.002464 0.002016
-0.042559 0.001072 0.001619
-0.040216 0.001313 0.001878
-0.043169 -0.001278 0.000688
-0.040345 0.002353 0.001865
-0.042454 0.001776 0.000771
-0.041242 0.001447 0.001765
-0.040472 0.000785 0.001849
-0.039144 0.001346 0.001996
-0.038912 -0.001913 0.002018
-0.042742 -0.001109 0.001596
-0.039755 -0.000925 0.001926
-0.043126 -0.000643 0.001555
-0.042244 0.000497 0.001653
-0.042962 -0.000130 0.000712
-0.039394 0.002016 0.001970
-0.042529 0.001631 0.001623
-0.041803 0.002576 0.000844
-0.039214 0.001637 0.001989
-0.038748 -0.000088 0.001178
-0.040219 0.002637 0.001018
-0.041628 0.002829 0.001724
-0.040110 0.001199 0.001029
-0.042020 -0.001911 0.001675
-0.040330 0.002680 0.001867
-0.042865 -0.001048 0.000722
-0.039001 0.001773 0.001152
-0.043268 0.002904 0.000682
-0.039967 0.002434 0.001907
-0.042757 0.001237 0.001598
-0.040832 0.002180 0.001811
-0.039216 0.002207 0.001990
-0.042466 0.002812 0.001631
-0.042394 -0.001295 0.000774
-0.042860 0.001120 0.000725
-0.040673 -0.001358 0.001825
-0.040620 0.000496 0.000972
-0.039263 0.001770 0.001123
-0.040932 0.000498 0.001798
-0.041602 0.001947 0.001726
-0.042427 0.001478 0.000773
-0.043102 0.000322 0.000697
-0.043095 0.002640 0.001562
-0.042652 -0.001241 0.000745
-0.041821 0.002968 0.000842
-0.041570 0.002809 0.000869
-0.039190 -0.000818 0.001989
-0.042014 0.000547 0.000818
-0.041535 0.000029 0.001731
-0.043456 0.000700 0.001520
-0.043609 0.002551 0.001505
-0.039819 0.000884 0.001921
-0.042853 -0.000574 0.001585
-0.039462 0.002777 0.001102
-0.038984 0.000371 0.001152
-0.041573 -0.000149 0.000866
-0.043001 -0.000310 0.001569
-0.041051 -0.000976 0.000922
-0.040032 -0.000938 0.001896
-0.040977 0.001424 0.001794
-0.038801 -0.000100 0.002033
-0.040787 -0.000731 0.000952
-0.042085 0.000293 0.001671
-0.039333 0.001138 0.001975
-0.041365 0.002140 0.000891
-0.041903 0.001508 0.000831
-0.040482 0.001321 0.001849
-0.042811 0.002554 0.000732
-0.041880 -0.000929 0.000831
-0.039230 -0.001246 0.001984
-0.039088 -0.001403 0.001139
-0.043031 0.000678 0.001567
-0.042824 -0.000427 0.000727
-0.043417 0.002723 0.001526
-0.042243 0.001448 0.001655
-0.041395 -0.001662 0.000884
-0.041150 0.002742 0.001777
-0.042828 -0.000706 0.000727
-0.040220 0.002044 0.001018
-0.040877 -0.000953 0.001803
-0.041610 -0.001832 0.000860
-0.040783 -0.001319 0.000952
-0.041094 0.000901 0.001781
-0.043095 0.000415 0.001559
-0.041287 -0.000770 0.001757
-0.039506 0.002719 0.001958
-0.040178 0.000319 0.001881
-0.039542 -0.001738 0.001088
-0.043062 -0.000867 0.000700
-0.040467 -0.001973 0.000986
-0.040686 0.000117 0.001825
-0.043636 0.001027 0.001500
-0.038832 0.000962 0.001170
-0.042466 -0.001811 0.001626
-0.040602 0.001573 0.001836
-0.042911 -0.001764 0.000716
-0.040603 -0.000794 0.001833
-0.043249 0.002341 0.000684
-0.042828 0.001794 0.001590
-0.040716 -0.001610 0.000959
-0.043350 0.000062 0.001531
-0.043169 -0.000509 0.000689
-0.038820 -0.001529 0.001168
-0.041959 -0.001256 0.001683
-0.040470 0.000256 0.001849
-0.041872 0.001670 0.001696
-0.038672 0.001958 0.002049
-0.038835 -0.001452 0.002027
-0.041082 -0.001392 0.000919
-0.038863 0.002025 0.001167
-0.041820 -0.001179 0.000837
-0.040651 0.001805 0.000970
-0.042249 0.000784 0.001653
-0.043379 0.001208 0.001529
-0.040172 0.002022 0.001884
-0.040972 0.001224 0.000934
-0.039825 0.000396 0.001059
-0.039620 0.002226 0.001945
-0.042471 -0.000899 0.001627
-0.040450 -0.001644 0.000988
-0.042987 0.002364 0.000713
-0.039359 -0.000464 0.001971
-0.043255 -0.001579 0.001539
-0.039891 0.001568 0.001914
-0.042946 -0.001441 0.000713
-0.041362 0.000290 0.000889
-0.038655 -0.001923 0.002047
-0.043439 -0.001541 0.000658
-0.042898 0.000202 0.001581
-0.042190 0.002738 0.001662
-0.043254 0.002601 0.000683
-0.039828 0.002083 0.001061
-0.038944 0.001784 0.002019
-0.039892 -0.000437 0.001912
-0.040424 0.001067 0.001855
-0.039097 0.001078 0.001140
-0.038738 -0.000641 0.001178
-0.039968 0.000157 0.001043
-0.040336 -0.000738 0.001862
-0.040574 -0.000935 0.000975
-0.041780 -0.001627 0.000841
-0.039727 0.001362 0.001932
-0.040256 0.002335 0.001014
-0.043552 -0.000142 0.001508
-0.041764 0.002380 0.001708
-0.043605 -0.001027 0.001501
-0.040501 -0.000068 0.001845
-0.043240 -0.000184 0.000682
-0.042338 -0.000066 0.000781
-0.042891 0.001383 0.000722
-0.040595 0.002279 0.001837
-0.039772 0.002835 0.001929
-0.036009 0.001949 0.002343
-0.035947 0.002467 0.001490
-0.038593 0.002744 0.001198
-0.037737 0.000828 0.002151
-0.037913 -0.001933 0.002129
-0.037467 -0.000281 0.001319
-0.038110 0.002824 0.001251
-0.036398 -0.000297 0.001437
-0.034509 0.001054 0.002508
-0.034175 -0.000777 0.001681
-0.036679 0.002489 0.001409
-0.038018 0.001746 0.001260
-0.033972 0.000640 0.002567
-0.038353 0.001355 0.002084
-0.037443 0.002865 0.002186
-0.033991 0.000475 0.001703
-0.035062 0.002710 0.001587
-0.035944 0.000636 0.001488
-0.037589 0.001817 0.001308
-0.037187 0.001494 0.002213
-0.038621 0.002287 0.001194
-0.035522 0.001410 0.002396
-0.034521 0.002323 0.002508
-0.034429 -0.000756 0.001653
-0.038543 0.000799 0.001201
-0.036495 0.000714 0.001427
-0.034630 0.000770 0.001633
-0.036962 -0.001748 0.002234
-0.035617 -0.000241 0.002384
-0.035871 0.001540 0.001497
-0.033680 0.002108 0.002600
-0.034390 -0.000741 0.002519
-0.036305 0.001946 0.002311
-0.035228 -0.000653 0.001566
-0.037556 0.001189 0.002172
-0.033815 0.001871 0.001724
-0.033929 0.002723 0.002574
-0.036919 0.001078 0.002242
-0.036959 0.001927 0.002238
-0.038038 -0.000238 0.002117
-0.037216 0.000612 0.001348
-0.037270 0.000295 0.001341
-0.037821 -0.000070 0.002141
-0.034940 0.000647 0.002460
-0.038364 0.001446 0.001222
-0.037404 0.000283 0.002187
-0.035408 0.002559 0.001549
-0.034129 0.002235 0.002551
-0.035439 0.000977 0.002405
-0.037548 0.000153 0.001310
-0.037141 0.001046 0.001356
-0.034162 -0.000513 0.002544
-0.037210 -0.000239 0.002208
-0.033838 -0.000805 0.002580
-0.033908 -0.001391 0.001710
-0.034985 0.001184 0.002455
-0.036000 -0.000574 0.002341
-0.034701 -0.001647 0.002483
-0.035067 -0.000927 0.001583
-0.037234 -0.001489 0.001343
-0.035794 0.000661 0.002365
-0.035015 0.000511 0.001590
-0.034603 0.001717 0.002498
-0.034895 -0.000469 0.001602
-0.034845 0.001860 0.002472
-0.037250 0.001850 0.002206
-0.034604 0.001376 0.002498
-0.037378 -0.001214 0.002188
-0.035460 -0.001159 0.001539
-0.033798 0.002737 0.001727
-0.037537 -0.001759 0.002170
-0.034678 0.000646 0.002489
-0.038396 -0.000684 0.002077
-0.038435 -0.001721 0.002071
-0.037881 0.001298 0.001275
-0.037180 0.002736 0.001354
-0.036701 0.001728 0.002266
-0.037003 0.001382 0.001372
-0.038133 0.001723 0.002109
-0.034671 -0.000981 0.001627
-0.035125 0.002077 0.001580
-0.038337 0.001895 0.002086
-0.038066 -0.000574 0.002113
-0.035675 0.001142 0.002379
-0.037932 0.002522 0.001271
-0.036502 0.001007 0.001427
-0.038632 0.002433 0.002054
-0.035368 -0.001026 0.002411
-0.038332 -0.001371 0.001222
-0.035600 0.000120 0.002386
-0.035811 -0.000039 0.001502
-0.036865 0.000769 0.001386
-0.037644 0.000644 0.001300
-0.034938 0.001231 0.001600
-0.038026 -0.001275 0.001256
-0.037270 0.001995 0.001343
-0.037825 0.002229 0.002143
-0.036461 0.002738 0.001433
-0.035334 0.000238 0.002416
-0.034951 0.002956 0.001600
-0.035365 0.002934 0.002416
-0.036975 0.002103 0.001376
-0.037177 0.000796 0.002213
-0.034588 -0.000012 0.002498
-0.035720 -0.000445 0.001511
-0.034975 0.001519 0.001596
-0.035185 0.000275 0.001571
-0.036024 -0.001255 0.001477
-0.033650 -0.001485 0.001739
-0.036403 0.001543 0.001438
-0.038077 0.001475 0.001253
-0.034232 0.000884 0.002538
-0.037189 0.002302 0.001353
-0.037229 0.002565 0.002209
-0.038015 -0.001778 0.001256
-0.036527 0.002222 0.002286
-0.038084 -0.001425 0.002110
-0.034051 0.003003 0.002561
-0.033852 -0.001780 0.002577
-0.036426 -0.001368 0.002293
-0.034241 0.000614 0.002537
-0.034133 0.000781 0.001688
-0.033991 -0.000318 0.001702
-0.034764 0.001036 0.002480
-0.038064 0.002025 0.001255
-0.038055 0.000256 0.002115
-0.037438 0.001637 0.002185
-0.035467 0.001003 0.001541
-0.037340 -0.000801 0.001332
-0.038135 0.001020 0.002107
-0.036971 0.001643 0.001376
-0.034192 0.001693 0.002543
-0.037580 -0.000988 0.002166
-0.037313 -0.001144 0.001335
-0.037604 0.002722 0.001307
-0.037544 0.002577 0.002174
-0.035818 0.003016 0.002365
-0.036632 0.000960 0.002273
-0.035614 0.001412 0.001525
-0.034272 -0.000466 0.001671
-0.033799 0.001158 0.001725
-0.033722 0.000976 0.002595
-0.038210 0.000170 0.001237
-0.035087 0.002862 0.002446
-0.036008 -0.001493 0.002339
-0.034686 0.001602 0.001628
-0.035795 -0.001080 0.002363
-0.034868 0.001582 0.002469
-0.035566 0.001799 0.002392
-0.037821 -0.001687 0.002139
-0.034764 -0.001379 0.002477
-0.036352 -0.001444 0.001441
-0.035309 0.001817 0.001559
-0.038425 -0.001938 0.001211
-0.037396 -0.000530 0.001326
-0.038088 0.002242 0.002114
-0.038417 0.002785 0.002078
-0.035170 -0.000177 0.001572
-0.034935 0.002403 0.001601
-0.033928 -0.001127 0.002569
-0.034294 0.001441 0.002532
-0.035976 -0.000819 0.001483
-0.036184 0.000513 0.001461
-0.037825 0.000889 0.001281
-0.038528 0.000437 0.001202
-0.035550 0.000568 0.002392
-0.034625 0.002898 0.002497
-0.038106 -0.000485 0.001248
-0.037707 -0.001959 0.001290
-0.033831 -0.001397 0.002580
-0.034427 0.002274 0.001657
-0.037956 -0.000904 0.002125
-0.034518 -0.001041 0.002504
-0.038372 0.000410 0.002081
-0.036084 0.000092 0.002333
-0.035166 -0.000215 0.002434
-0.034642 0.002836 0.001634
-0.036131 -0.000295 0.001466
-0.033769 0.000413 0.002589
-0.034180 0.002779 0.002546
-0.035612 -0.001532 0.001522
-0.034936 0.000065 0.001598
-0.037385 0.000859 0.001329
-0.034792 0.000254 0.002476
-0.035720 0.002790 0.001515
-0.036167 -0.000598 0.001462
-0.036958 0.000466 0.002237
-0.035242 -0.000479 0.002425
-0.037759 -0.001001 0.001286
-0.034335 0.002055 0.002528
-0.036000 0.001307 0.002344
-0.037442 0.000854 0.002184
-0.034586 -0.000272 0.001637
-0.034861 -0.001694 0.001605
-0.036078 0.000773 0.002334
-0.034435 0.000548 0.001654
-0.034690 0.001924 0.001628
-0.035727 0.000424 0.001511
-0.036893 0.002879 0.002247
-0.035077 -0.001442 0.001581
-0.034045 0.001360 0.002559
-0.037382 0.001623 0.001330
-0.038562 0.001109 0.002060
-0.036476 0.000106 0.001429
-0.033848 -0.000895 0.001718
-0.035771 -0.001210 0.001505
-0.037571 0.002341 0.001310
-0.037275 0.001155 0.002202
-0.035072 -0.001863 0.002442
-0.033815 0.002471 0.002586
-0.036295 -0.000604 0.002309
-0.034096 0.001156 0.001692
-0.036311 0.001113 0.002309
-0.037122 0.000235 0.002218
-0.035022 0.002508 0.002453
-0.035463 -0.001803 0.001538
-0.036694 -0.001445 0.002264
-0.035333 0.001608 0.002417
-0.036065 0.001030 0.001475
-0.036584 -0.000620 0.002277
-0.033908 -0.000202 0.002573
-0.033737 0.001662 0.002594
-0.035793 0.000924 0.001505
-0.034865 0.002235 0.002470
-0.035959 0.002964 0.001489
-0.035480 -0.000774 0.001537
-0.037650 -0.001704 0.001297
-0.038386 0.000743 0.002079
-0.036657 0.001312 0.001410
-0.037793 -0.000210 0.001283
-0.035153 0.000867 0.002437
-0.035043 0.001807 0.001589
-0.037972 -0.001178 0.002123
-0.035631 -0.001706 0.002381
-0.035261 0.001180 0.002425
-0.036813 -0.001630 0.001389
-0.034271 -0.001741 0.002531
-0.034220 -0.001880 0.001675
-0.038483 0.001132 0.001208
-0.034905 0.000859 0.001603
-0.035448 -0.001929 0.002401
-0.036773 -0.000368 0.001395
-0.037902 0.001560 0.002134
-0.037412 -0.001880 0.001323
-0.038073 -0.000066 0.001252
-0.037028 0.000103 0.001368
-0.036335 0.000306 0.002305
-0.033720 0.000043 0.001733
-0.033778 0.000794 0.001727
-0.038624 -0.000381 0.001191
-0.034665 0.000262 0.001629
-0.037754 0.001583 0.001289
-0.035413 0.002891 0.001549
-0.033686 0.001541 0.001738
-0.037275 -0.000044 0.001340
-0.037210 -0.001601 0.002207
-0.038254 0.002562 0.001235
-0.038457 -0.000063 0.001210
-0.035088 0.000426 0.002443
-0.034332 0.000094 0.002526
-0.034974 -0.001932 0.001592
-0.038597 0.002023 0.001197
-0.036698 0.000340 0.001404
-0.038275 0.000949 0.001231
-0.035313 0.001397 0.001558
-0.035179 -0.001705 0.001570
-0.033951 0.001508 0.001709
-0.036203 0.002383 0.002322
-0.036574 -0.000642 0.001417
-0.037277 0.000556 0.002202
-0.035401 0.000572 0.001548
-0.037905 0.001148 0.002133
-0.036696 0.001614 0.001406
-0.038223 -0.001069 0.001234
-0.033774 0.001253 0.002589
-0.034489 -0.001847 0.001646
-0.035927 -0.000266 0.002350
-0.034723 0.001073 0.001623
-0.036811 -0.000110 0.001391
-0.034394 0.001377 0.001660
-0.037060 -0.001873 0.001362
-0.035722 -0.001770 0.001510
-0.038003 -0.000781 0.001259
-0.036209 0.000785 0.001459
-0.037875 -0.001550 0.001272
-0.035290 0.000648 0.002421
-0.036017 0.000230 0.001479
-0.036958 -0.000634 0.002235
-0.034168 -0.000152 0.002544
-0.034694 0.002242 0.001628
-0.034023 0.001100 0.002561
-0.037742 0.000219 0.002150
-0.035383 0.002113 0.001552
-0.035757 0.002423 0.002372
-0.033814 0.003009 0.001726
-0.038484 -0.001664 0.001205
-0.037521 0.001338 0.001314
-0.034857 -0.000197 0.001607
-0.035632 0.002163 0.002385
-0.036397 -0.000924 0.002297
-0.034319 0.001790 0.001669
-0.037490 -0.000188 0.002177
-0.034559 -0.001882 0.002499
-0.033981 0.001918 0.002567
-0.038562 -0.001491 0.002057
-0.034079 0.002510 0.001696
-0.035205 0.001937 0.002432
-0.036310 -0.000314 0.002307
-0.036842 -0.001030 0.002248
-0.035975 -0.001876 0.002343
-0.038069 0.001983 0.002116
-0.037222 0.002173 0.002210
-0.037713 0.001914 0.002155
-0.038230 0.000043 0.002096
-0.035453 -0.000419 0.001541
-0.034545 0.002592 0.002506
-0.034445 0.001054 0.001654
-0.034665 0.000001 0.001628
-0.036737 0.000141 0.002261
-0.034364 -0.001284 0.001660
-0.038262 0.002997 0.002096
-0.033643 -0.001218 0.002601
-0.035234 0.002303 0.002429
-0.034517 0.000438 0.002506
-0.037115 -0.001054 0.002218
-0.036533 -0.001711 0.001420
-0.033861 0.002136 0.001720
-0.036615 0.001975 0.002276
-0.036226 0.001296 0.001458
-0.036519 0.000518 0.002285
-0.035755 0.001178 0.001509
-0.036045 0.001673 0.002339
-0.037272 -0.000812 0.002201
-0.035668 0.000700 0.001519
-0.033997 0.000172 0.002563
-0.035776 -0.000813 0.002366
-0.034366 -0.001424 0.002521
-0.036490 0.000068 0.002288
-0.036166 0.002708 0.001466
-0.035638 0.002813 0.002385
-0.037633 -0.001337 0.001299
-0.038471 0.001662 0.002071
-0.036862 0.001340 0.002248
-0.037017 -0.000063 0.002230
-0.035013 -0.001025 0.002450
-0.037845 0.002966 0.002142
-0.034553 -0.001559 0.001639
-0.038368 0.002410 0.002083
-0.038148 0.000621 0.002106
-0.035040 -0.001283 0.002446
-0.035914 0.002217 0.002354
-0.037036 0.002351 0.002230
-0.034042 -0.001126 0.001696
-0.034101 -0.001579 0.001689
-0.036844 0.002180 0.002251
-0.035198 0.001033 0.001571
-0.037802 0.002105 0.001285
-0.036065 -0.000901 0.002334
-0.035213 0.002337 0.001571
-0.036328 0.001507 0.002307
-0.035445 -0.001432 0.002402
-0.037808 0.000154 0.001282
-0.037893 0.000521 0.002134
-0.036588 0.002830 0.002280
-0.035537 -0.000658 0.002392
-0.036327 -0.000869 0.001444
-0.037587 0.000547 0.002167
-0.035039 0.000053 0.002448
-0.036214 -0.001701 0.001455
-0.034770 -0.000752 0.002477
-0.036992 0.002978 0.001375
-0.036778 0.001060 0.001396
-0.034922 -0.000463 0.002460
-0.034401 0.000205 0.001658
-0.033738 -0.000612 0.001730
-0.036958 0.002613 0.002239
-0.038434 0.002151 0.002076
-0.037027 -0.001162 0.001366
-0.036506 0.001303 0.002288
-0.037017 -0.000868 0.001368
-0.035460 0.000174 0.001541
-0.034331 -0.000076 0.001665
-0.038119 0.002288 0.001250
-0.037687 -0.001227 0.002154
-0.034891 -0.001113 0.001602
-0.036967 -0.000328 0.002235
-0.034857 -0.000146 0.002468
-0.036660 0.002530 0.002272
-0.037955 0.000395 0.001265
-0.036548 -0.001056 0.001419
-0.034325 0.002672 0.001669
-0.036260 0.002801 0.002317
-0.038339 -0.000801 0.001222
-0.034725 0.002558 0.001625
-0.035641 0.002126 0.001523
-0.036567 0.002250 0.001421
-0.033785 -0.000504 0.002586
-0.034176 0.002079 0.001685
-0.033712 0.002927 0.002598
-0.035339 0.002586 0.002418
-0.036667 -0.001893 0.002266
-0.038266 -0.000396 0.002091
-0.035686 -0.001334 0.002375
-0.036247 -0.001125 0.001452
-0.037660 -0.001485 0.002157
-0.037784 0.002670 0.002148
-0.037054 -0.000326 0.001364
-0.037708 -0.000603 0.001292
-0.034801 0.002679 0.002477
-0.038604 0.000232 0.002055
-0.033985 0.000154 0.001704
-0.036019 0.000406 0.002340
-0.038270 -0.000908 0.002090
-0.038386 0.001844 0.001220
-0.038362 0.002144 0.001223
-0.038389 -0.000492 0.001217
-0.036919 -0.000585 0.001379
-0.037352 0.002515 0.001335
-0.035188 0.000734 0.001571
-0.038566 -0.000262 0.002058
-0.038604 0.001425 0.002056
-0.035936 0.001925 0.001490
-0.038549 -0.000944 0.002059
-0.036454 0.001898 0.001433
-0.034220 -0.001006 0.002537
-0.037746 -0.000631 0.002148
-0.035598 0.001743 0.001527
-0.035644 0.002422 0.001523
-0.036765 0.000717 0.002258
-0.036110 -0.001256 0.002328
-0.038116 0.000705 0.001248
-0.037731 -0.000373 0.002150
-0.034092 -0.001337 0.002551
-0.036288 0.002232 0.001452
-0.035352 -0.001450 0.001551
-0.036736 0.002785 0.001403
-0.037231 -0.000509 0.002205
-0.037531 0.002285 0.002176
-0.038610 -0.001353 0.001191
-0.038254 0.000448 0.001233
-0.036745 -0.001975 0.001396
-0.036759 -0.000173 0.002258
-0.035728 -0.000893 0.001510
-0.036978 0.000370 0.001373
-0.035772 0.001475 0.002369
-0.037606 0.001039 0.001305
-0.038283 -0.001961 0.002088
-0.034685 -0.000647 0.001625
-0.035418 -0.000065 0.002406
-0.036153 -0.000028 0.001464
-0.036582 -0.001153 0.002276
-0.036276 0.000604 0.002312
-0.036076 0.001701 0.001475
-0.034463 -0.000261 0.002511
-0.034118 0.002843 0.001692
-0.036731 -0.000851 0.001399
-0.034632 -0.001257 0.001630
-0.035095 0.001702 0.002444
-0.038280 -0.000256 0.001229
-0.033825 -0.001716 0.001719
-0.038059 0.002609 0.002118
-0.034579 -0.000562 0.002498
-0.035423 -0.000115 0.001545
-0.036379 -0.001808 0.002298
-0.036046 0.002650 0.002340
-0.035954 -0.001621 0.001484
-0.035006 -0.001544 0.002450
-0.038400 -0.001233 0.002076
-0.036196 0.001948 0.001462
-0.038215 0.001200 0.001238
-0.034061 -0.001595 0.002554
-0.036621 -0.001441 0.001411
-0.036760 0.001929 0.001399
-0.034274 0.002517 0.002535
-0.035114 -0.000762 0.002439
-0.036412 0.002477 0.001438
-0.034400 -0.001012 0.001656
-0.038158 -0.001725 0.002102
-0.036956 0.001648 0.002238
-0.036995 0.002479 0.001374
-0.035205 -0.001212 0.001567
-0.037108 -0.001316 0.002218
-0.037498 0.000414 0.001316
-0.035347 -0.001672 0.002412
-0.038062 0.001357 0.002116
-0.036050 0.001042 0.002338
-0.035975 0.002191 0.001486
-0.032513 -0.001384 0.001864
-0.031961 0.001862 0.002790
-0.031429 -0.001344 0.001984
-0.032524 -0.001228 0.002724
-0.033156 -0.000696 0.002655
-0.028732 -0.001451 0.002282
-0.031852 0.002551 0.002803
-0.030097 -0.001591 0.002992
-0.030463 -0.001549 0.002090
-0.028697 -0.001788 0.002285
-0.031356 0.002787 0.001997
-0.032923 -0.000454 0.002681
-0.033379 0.002168 0.002634
-0.031167 -0.000818 0.002874
-0.029914 -0.000597 0.003013
-0.032228 0.002468 0.002761
-0.030333 0.001146 0.002108
-0.031584 0.001033 0.001970
-0.032503 0.001907 0.002730
-0.029882 0.000361 0.003018
-0.031871 0.000798 0.001938
-0.033111 -0.001455 0.002659
-0.029646 0.001418 0.003045
-0.029825 0.002680 0.003027
-0.032247 0.001956 0.002758
-0.032088 0.002743 0.002777
-0.030748 -0.001622 0.002059
-0.032902 0.001468 0.002686
-0.031520 0.001569 0.001977
-0.030094 -0.000850 0.002993
-0.030409 0.002702 0.002101
-0.030735 -0.001891 0.002921
-0.029933 -0.000740 0.002150
-0.030812 -0.000205 0.002914
-0.031063 0.000830 0.002888
-0.029105 0.001296 0.002243
-0.029560 -0.001732 0.002190
-0.028792 -0.000366 0.003137
-0.029004 -0.000496 0.002253
-0.028828 0.000795 0.002274
-0.030658 -0.000997 0.002930
-0.029476 0.000980 0.002202
-0.030503 0.000760 0.002089
-0.033278 -0.000084 0.002642
-0.031396 -0.001309 0.002849
-0.028871 0.000285 0.002268
-0.032630 0.000858 0.001854
-0.031491 -0.001590 0.002838
-0.033331 0.000952 0.001777
-0.032030 0.002294 0.001922
-0.029432 0.001341 0.002207
-0.032728 0.002024 0.001844
-0.032236 -0.001888 0.002755
-0.031798 -0.001029 0.002805
-0.031037 0.002353 0.002892
-0.029545 0.001990 0.002196
-0.029456 -0.001221 0.002202
-0.030257 0.000193 0.002115
-0.031104 -0.001287 0.002020
-0.031229 0.000481 0.002869
-0.029461 -0.001477 0.003062
-0.031810 0.000044 0.002805
-0.032596 -0.000795 0.001856
-0.030016 0.001167 0.002143
-0.028844 0.001631 0.003134
-0.030851 0.002667 0.002052
-0.031077 0.002701 0.002888
-0.031472 -0.000585 0.002841
-0.032473 0.001095 0.002732
-0.032744 0.001055 0.002703
-0.030391 -0.000774 0.002099
-0.031742 0.000493 0.002812
-0.030187 0.001447 0.002124
-0.029409 0.001646 0.003071
-0.030671 0.001846 0.002071
-0.028891 0.000755 0.003127
-0.030324 0.002895 0.002972
-0.029182 0.000881 0.003095
-0.033499 0.002463 0.002621
-0.033102 0.000622 0.002662
-0.031004 0.001403 0.002895
-0.029695 0.002339 0.003041
-0.029294 0.002759 0.003085
-0.031773 0.002213 0.002811
-0.028932 0.001521 0.002263
-0.029747 -0.001476 0.002169
-0.030130 -0.000433 0.002989
-0.030950 -0.001079 0.002037
-0.030246 0.001335 0.002978
-0.029830 0.002008 0.003025
-0.028701 -0.000069 0.003148
-0.030412 0.000474 0.002098
-0.031541 -0.000222 0.002834
-0.030875 0.000359 0.002047
-0.032604 0.002759 0.001859
-0.032207 0.000621 0.002761
-0.031545 0.002818 0.002837
-0.031272 0.001420 0.002866
-0.032223 -0.001149 0.002757
-0.032264 -0.001078 0.001892
-0.033284 0.001611 0.001782
-0.032362 0.001318 0.001884
-0.033137 0.002436 0.002661
-0.033064 0.002324 0.001808
-0.030630 0.000755 0.002936
-0.029688 -0.001062 0.002176
-0.032761 -0.001527 0.001837
-0.029199 -0.000537 0.003092
-0.031283 -0.000218 0.002862
-0.030170 0.000267 0.002986
-0.031507 0.001907 0.001979
-0.029684 -0.000376 0.002178
-0.030524 0.001060 0.002948
-0.030111 0.002171 0.002994
-0.030642 0.001232 0.002074
-0.030950 0.001372 0.002040
-0.031386 -0.001936 0.002849
-0.031238 0.001964 0.002009
-0.029304 0.002051 0.003083
-0.032435 -0.001553 0.002734
-0.030761 0.002638 0.002923
-0.033354 -0.001532 0.001771
-0.029139 -0.000227 0.002238
-0.031772 0.001518 0.001949
-0.031135 -0.000024 0.002018
-0.028872 0.002093 0.003131
-0.030614 -0.000145 0.002075
-0.029569 -0.000646 0.002190
-0.029727 0.000847 0.002174
-0.032810 0.000561 0.002695
-0.033467 -0.001634 0.002620
-0.032240 0.000202 0.001896
-0.030990 -0.000573 0.002894
-0.031323 0.000121 0.002858
-0.031922 0.000148 0.001931
-0.032841 0.002361 0.002693
-0.029745 0.000312 0.002172
-0.032573 -0.001125 0.001858
-0.029986 0.001429 0.003007
-0.032721 0.001100 0.001844
-0.031734 0.002735 0.001955
-0.032843 -0.001460 0.002689
-0.031661 -0.001216 0.001958
-0.029716 0.001755 0.003038
-0.032289 -0.000781 0.001890
-0.029902 -0.000278 0.003015
-0.033361 0.001586 0.002635
-0.029842 -0.000993 0.003020
-0.030704 -0.000416 0.002065
-0.032676 -0.000067 0.002709
-0.028872 -0.000162 0.002268
-0.030185 0.000717 0.002124
-0.032240 0.001213 0.002758
-0.030342 -0.001800 0.002103
-0.031483 0.002096 0.002843
-0.029450 0.000955 0.003066
-0.033346 0.002230 0.001777
-0.030854 0.000080 0.002049
-0.029377 -0.000212 0.003073
-0.029176 0.000920 0.002235
-0.030944 0.001053 0.002040
-0.033432 -0.000644 0.002625
-0.032554 0.002394 0.001864
-0.029533 0.002922 0.003059
-0.032084 -0.001746 0.001911
-0.030572 0.002294 0.002944
-0.031452 0.002306 0.001986
-0.029754 0.002287 0.002173
-0.031669 0.001893 0.002822
-0.030393 0.001930 0.002963
-0.029911 0.000096 0.003014
-0.029013 -0.001840 0.002250
-0.031615 0.000235 0.002826
-0.030186 -0.000123 0.002123
-0.029610 0.000598 0.002187
-0.029636 0.000550 0.003045
-0.030008 0.001785 0.002144
-0.028849 -0.001927 0.003129
-0.033254 -0.001007 0.001783
-0.029895 0.000538 0.002155
-0.032148 -0.001355 0.001905
-0.028744 0.000270 0.003143
-0.032075 0.001582 0.002777
-0.029561 -0.001152 0.003051
-0.028785 0.001224 0.003140
-0.029157 0.001744 0.002238
-0.031108 -0.000874 0.002020
-0.031230 0.002171 0.002871
-0.032455 0.000801 0.002734
-0.032216 -0.000190 0.002759
-0.031967 -0.001117 0.001925
-0.033204 -0.001706 0.002649
-0.032616 0.000055 0.001855
-0.032478 0.000170 0.002731
-0.033105 0.002065 0.001803
-0.030120 -0.000414 0.002130
-0.030821 0.001090 0.002915
-0.030000 0.000203 0.002143
-0.032468 -0.000740 0.002731
-0.030328 0.002978 0.002110
-0.029299 -0.000451 0.002220
-0.029810 0.002672 0.002167
-0.032153 -0.001425 0.002765
-0.031267 0.001054 0.002866
-0.030667 -0.001294 0.002068
-0.030570 -0.001598 0.002939
-0.033024 -0.000276 0.001809
-0.030622 0.002545 0.002078
-0.032774 0.000287 0.001838
-0.031191 0.002222 0.002014
-0.029066 0.000047 0.002246
-0.033399 0.000595 0.002630
-0.033078 0.001249 0.001805
-0.029038 -0.000293 0.003110
-0.033120 0.000896 0.002661
-0.031654 0.000388 0.001961
-0.028674 0.001803 0.002292
-0.031446 0.002536 0.002848
-0.030195 0.002504 0.002986
-0.031743 -0.000748 0.001950
-0.029041 0.000601 0.002250
-0.029415 0.000416 0.003069
-0.031103 -0.000488 0.002021
-0.031842 0.001158 0.001941
-0.033633 0.002412 0.001745
-0.029506 -0.000822 0.003058
-0.032178 0.000922 0.001904
-0.029782 0.001116 0.003029
-0.032533 0.001584 0.001865
-0.031057 0.000080 0.002888
-0.029739 0.000852 0.003034
-0.030585 0.000245 0.002079
-0.031801 0.001198 0.002807
-0.031622 -0.000057 0.001964
-0.032874 -0.001172 0.001825
-0.031903 0.000484 0.001934
-0.030993 0.000698 0.002034
-0.031109 -0.001972 0.002880
-0.030030 0.002894 0.002143
-0.030157 0.002627 0.002129
-0.032413 0.002141 0.001879
-0.032771 0.001754 0.001839
-0.030115 -0.000991 0.002129
-0.030589 0.001625 0.002941
-0.030315 -0.000126 0.002969
-0.033334 0.001266 0.001777
-0.029046 0.001845 0.003112
-0.031293 -0.000262 0.002000
-0.033604 -0.000164 0.002606
-0.032109 -0.000127 0.001910
-0.030163 0.000915 0.002987
-0.032111 0.002187 0.002774
-0.033468 0.001322 0.002623
-0.029145 0.000116 0.003099
-0.028875 0.002165 0.002270
-0.029561 0.002060 0.003055
-0.031852 -0.000290 0.001938
-0.029240 -0.001493 0.002225
-0.029060 0.001484 0.003110
-0.032525 0.002352 0.002728
-0.030261 -0.001283 0.002113
-0.032078 0.001908 0.001916
-0.030877 -0.001419 0.002906
-0.031398 -0.000584 0.001988
-0.032766 0.001935 0.002701
-0.031910 -0.001293 0.002792
-0.031032 -0.001065 0.002889
-0.033610 -0.001026 0.001744
-0.030696 0.001388 0.002929
-0.033023 0.000808 0.001811
-0.032860 0.001426 0.001829
-0.030319 -0.001012 0.002968
-0.032271 0.002475 0.001895
-0.028787 -0.001348 0.003137
-0.030840 0.000522 0.002912
-0.032124 -0.000437 0.002769
-0.028758 0.002460 0.002283
-0.032210 -0.000771 0.002759
-0.033618 0.000474 0.001745
-0.032609 -0.001820 0.001853
-0.029257 0.000426 0.002226
-0.030379 -0.000402 0.002101
-0.033086 -0.001383 0.001801
-0.030631 -0.001264 0.002933
-0.031281 0.002924 0.002866
-0.029873 -0.001331 0.003017
-0.032888 -0.001850 0.002683
-0.032809 -0.000121 0.001833
-0.031411 0.000817 0.001988
-0.028927 -0.001060 0.002261
-0.032028 0.001068 0.002782
-0.029750 -0.001738 0.003030
-0.030687 -0.001915 0.002065
-0.032937 -0.001063 0.002679
-0.030682 -0.000916 0.002067
-0.032159 0.001618 0.001907
-0.029274 -0.001181 0.003083
-0.033387 -0.001244 0.001768
-0.030785 0.000172 0.002918
-0.033546 -0.001759 0.001750
-0.032111 0.001215 0.001912
-0.032079 0.000142 0.002775
-0.029432 0.001712 0.002208
-0.032851 -0.000640 0.001828
-0.031073 0.002522 0.002028
-0.033328 0.000249 0.002637
-0.032405 -0.000101 0.001878
-0.033311 0.002726 0.002642
-0.029328 -0.001963 0.002215
-0.032388 -0.000421 0.002740
-0.030679 0.002940 0.002933
-0.031203 -0.001724 0.002869
-0.029192 -0.001915 0.003091
-0.030968 -0.000227 0.002036
-0.029639 -0.000600 0.003043
-0.030118 -0.001880 0.002989
-0.031780 -0.001448 0.001945
-0.028696 -0.000463 0.002287
-0.033339 -0.000922 0.002635
-0.031823 0.002958 0.002806
-0.030025 0.000580 0.003002
-0.030807 0.002076 0.002056
-0.033478 0.000231 0.001760
-0.033616 -0.000948 0.002604
-0.031558 -0.000317 0.001971
-0.032698 -0.000935 0.002705
-0.030473 0.000448 0.002953
-0.033305 -0.001209 0.002638
-0.029130 0.002086 0.002242
-0.030414 -0.001932 0.002956
-0.029206 -0.001509 0.003090
-0.032632 -0.000310 0.001852
-0.029398 0.002423 0.002212
-0.029295 -0.000735 0.002220
-0.031227 0.000508 0.002008
-0.030869 0.001652 0.002910
-0.033213 0.001240 0.002651
-0.033624 -0.001939 0.002602
-0.029446 0.001248 0.003067
-0.030508 0.000146 0.002948
-0.031227 0.001588 0.002010
-0.031970 0.000785 0.002788
-0.029339 0.002488 0.003080
-0.033126 0.001802 0.002661
-0.033246 0.000363 0.001785
-0.030130 0.002323 0.002132
-0.032523 0.001852 0.001867
-0.032911 0.002951 0.001825
-0.030340 0.000705 0.002968
-0.029198 -0.001159 0.002230
-0.028800 0.002483 0.003140
-0.029756 0.001145 0.002171
-0.033184 0.002930 0.001795
-0.032441 0.002692 0.002738
-0.033332 -0.000723 0.001775
-0.031287 0.001908 0.002864
-0.029460 -0.001734 0.003062
-0.033604 0.000747 0.002607
-0.031206 0.001022 0.002011
-0.031816 -0.001819 0.002802
-0.030882 -0.000832 0.002906
-0.029855 0.002944 0.003024
-0.031447 -0.001641 0.001982
-0.030872 -0.000705 0.002046
-0.029635 -0.000089 0.002183
-0.030393 -0.000476 0.002960
-0.032326 -0.001627 0.001885
-0.032917 0.002622 0.001824
-0.028897 0.002734 0.002268
-0.028831 -0.000805 0.003132
-0.031811 -0.001724 0.001941
-0.031948 -0.000728 0.002788
-0.030537 0.002168 0.002086
-0.028944 0.000461 0.003121
-0.029347 -0.000025 0.002215
-0.033126 -0.001782 0.001796
-0.033080 0.000163 0.001803
-0.032367 -0.000358 0.001882
-0.032593 0.000470 0.001858
-0.029017 -0.001124 0.003111
-0.032885 0.000222 0.002686
-0.033630 0.000149 0.002604
-0.029920 -0.001262 0.002151
-0.029853 0.001520 0.002161
-0.031542 0.001454 0.002836
-0.030769 0.002334 0.002061
-0.030307 0.001902 0.002111
-0.029712 0.001772 0.002177
-0.028852 -0.001606 0.003129
-0.031394 -0.000965 0.002849
-0.031114 0.000235 0.002021
-0.031805 -0.000501 0.002804
-0.032052 -0.001665 0.002776
-0.030604 -0.000710 0.002937
-0.031602 0.000639 0.001967
-0.033499 0.001869 0.001759
-0.028842 -0.000797 0.002270
-0.032213 0.000486 0.001900
-0.030136 -0.001557 0.002126
-0.033060 0.001736 0.001808
-0.033344 0.000633 0.001775
-0.032433 0.000694 0.001875
-0.032853 0.000551 0.001829
-0.030543 0.001495 0.002085
-0.032633 -0.001716 0.002712
-0.029091 0.002911 0.002247
-0.030256 -0.001288 0.002974
-0.033068 0.002092 0.002668
-0.033562 -0.000160 0.001750
-0.028666 0.002933 0.002294
-0.028722 0.000529 0.002285
-0.028888 0.002770 0.003130
-0.031161 -0.001829 0.002013
-0.033413 -0.000423 0.001766
-0.033415 0.002710 0.001769
-0.031517 0.000937 0.002838
-0.029559 0.000197 0.003053
-0.033178 0.002571 0.001795
-0.029428 0.002808 0.002210
-0.029932 -0.000065 0.002151
-0.031146 -0.001393 0.002876
-0.032401 0.001626 0.002741
-0.029072 0.002576 0.003110
-0.031453 0.000164 0.001983
-0.028661 -0.000611 0.003151
-0.031823 0.001541 0.002805
-0.033049 -0.000833 0.001806
-0.029596 -0.000058 0.003049
-0.032981 -0.000122 0.002675
-0.032620 0.002899 0.002719
-0.030463 0.002626 0.002956
-0.032267 0.002799 0.001896
-0.032460 0.001374 0.002734
-0.030675 0.000547 0.002069
-0.032647 -0.000549 0.002711
-0.029124 -0.000866 0.003100
-0.030057 0.001154 0.002999
-0.030955 0.002029 0.002901
-0.029069 0.001143 0.003108
-0.029343 0.000677 0.002216
-0.033103 0.002886 0.002665
-0.032001 -0.000811 0.001921
-0.031880 -0.000205 0.002796
-0.032879 0.002702 0.002690
-0.029359 0.000667 0.003076
-0.030648 0.002020 0.002935
-0.031448 0.000659 0.002845
-0.031761 -0.001527 0.002808
-0.031818 0.002011 0.001945
-0.030220 0.001682 0.002982
-0.032039 0.002954 0.001922
-0.029973 0.001755 0.003009
-0.031474 -0.000905 0.001980
-0.032014 0.002618 0.001924
