ply
format ascii 1.0
comment PCL generated
element vertex 774
property float x
property float y
property float z
property uchar red
property uchar green
property uchar blue
property uchar alpha
element camera 1
property float view_px
property float view_py
property float view_pz
property float x_axisx
property float x_axisy
property float x_axisz
property float y_axisx
property float y_axisy
property float y_axisz
property float z_axisx
property float z_axisy
property float z_axisz
property float focal
property float scalex
property float scaley
property float centerx
property float centery
property int viewportx
property int viewporty
property float k1
property float k2
end_header
0.13430001 -0.24264286 1.1850001 152 78 163 255
0.13655715 -0.24264286 1.1850001 152 78 163 255
0.13928285 -0.24346191 1.189 152 78 163 255
0.14202382 -0.24428098 1.1930001 152 78 163 255
0.1442962 -0.24428098 1.1930001 152 78 163 255
0.14656857 -0.24428098 1.1930001 152 78 163 255
0.14884095 -0.24428098 1.1930001 152 78 163 255
0.12978572 -0.24038573 1.1850001 152 78 163 255
0.13204286 -0.24038573 1.1850001 152 78 163 255
0.13430001 -0.24038573 1.1850001 152 78 163 255
0.13655715 -0.24038573 1.1850001 152 78 163 255
0.13928285 -0.24119714 1.189 152 78 163 255
0.14202382 -0.2420086 1.1930001 152 78 163 255
0.1442962 -0.2420086 1.1930001 152 78 163 255
0.14656857 -0.2420086 1.1930001 152 78 163 255
0.14884095 -0.2420086 1.1930001 152 78 163 255
0.15111333 -0.2420086 1.1930001 152 78 163 255
0.1539 -0.24281999 1.197 152 78 163 255
0.12157239 -0.23973621 1.1930001 152 78 163 255
0.12342952 -0.23893237 1.189 152 78 163 255
0.12569429 -0.23893237 1.189 152 78 163 255
0.12795904 -0.23893237 1.189 152 78 163 255
0.12978572 -0.23812859 1.1850001 152 78 163 255
0.13204286 -0.23812859 1.1850001 152 78 163 255
0.13430001 -0.23812859 1.1850001 152 78 163 255
0.1370181 -0.23893237 1.189 152 78 163 255
0.13975143 -0.23973621 1.1930001 152 78 163 255
0.14202382 -0.23973621 1.1930001 152 78 163 255
0.1442962 -0.23973621 1.1930001 152 78 163 255
0.14656857 -0.23973621 1.1930001 152 78 163 255
0.14884095 -0.23973621 1.1930001 152 78 163 255
0.15111333 -0.23973621 1.1930001 152 78 163 255
0.1539 -0.24054 1.197 152 78 163 255
0.15617999 -0.24054 1.197 152 78 163 255
0.11702763 -0.23746383 1.1930001 152 78 163 255
0.11930001 -0.23746383 1.1930001 152 78 163 255
0.12157239 -0.23746383 1.1930001 152 78 163 255
0.12342952 -0.23666762 1.189 152 78 163 255
0.12569429 -0.23666762 1.189 152 78 163 255
0.12795904 -0.23666762 1.189 152 78 163 255
0.13022381 -0.23666762 1.189 152 78 163 255
0.13248858 -0.23666762 1.189 152 78 163 255
0.13475333 -0.23666762 1.189 152 78 163 255
0.13747905 -0.23746383 1.1930001 152 78 163 255
0.13975143 -0.23746383 1.1930001 152 78 163 255
0.14202382 -0.23746383 1.1930001 152 78 163 255
0.14478 -0.23826 1.197 152 78 163 255
0.14706001 -0.23826 1.197 152 78 163 255
0.14934 -0.23826 1.197 152 78 163 255
0.15162 -0.23826 1.197 152 78 163 255
0.1539 -0.23826 1.197 152 78 163 255
0.1556581 -0.23746383 1.1930001 152 78 163 255
0.15793048 -0.23746383 1.1930001 152 78 163 255
0.16020286 -0.23746383 1.1930001 152 78 163 255
0.11248287 -0.23519145 1.1930001 152 78 163 255
0.11475525 -0.23519145 1.1930001 152 78 163 255
0.11702763 -0.23519145 1.1930001 152 78 163 255
0.11930001 -0.23519145 1.1930001 152 78 163 255
0.12157239 -0.23519145 1.1930001 152 78 163 255
0.12384477 -0.23519145 1.1930001 152 78 163 255
0.12611714 -0.23519145 1.1930001 152 78 163 255
0.12838952 -0.23519145 1.1930001 152 78 163 255
0.1306619 -0.23519145 1.1930001 152 78 163 255
0.13293429 -0.23519145 1.1930001 152 78 163 255
0.13520667 -0.23519145 1.1930001 152 78 163 255
0.13794 -0.23598 1.197 152 78 163 255
0.14022 -0.23598 1.197 152 78 163 255
0.1425 -0.23598 1.197 152 78 163 255
0.14478 -0.23598 1.197 152 78 163 255
0.14706001 -0.23598 1.197 152 78 163 255
0.14934 -0.23598 1.197 152 78 163 255
0.15162 -0.23598 1.197 152 78 163 255
0.1539 -0.23598 1.197 152 78 163 255
0.1556581 -0.23519145 1.1930001 152 78 163 255
0.15793048 -0.23519145 1.1930001 152 78 163 255
0.16020286 -0.23519145 1.1930001 152 78 163 255
0.16193049 -0.23440285 1.189 152 78 163 255
0.16419524 -0.23440285 1.189 152 78 163 255
0.10757619 -0.23213808 1.189 152 78 163 255
0.10984095 -0.23213808 1.189 152 78 163 255
0.11210571 -0.23213808 1.189 152 78 163 255
0.11475525 -0.23291907 1.1930001 152 78 163 255
0.11742 -0.23370001 1.197 152 78 163 255
0.11970001 -0.23370001 1.197 152 78 163 255
0.12198001 -0.23370001 1.197 152 78 163 255
0.12426001 -0.23370001 1.197 152 78 163 255
0.12654001 -0.23370001 1.197 152 78 163 255
0.12882 -0.23370001 1.197 152 78 163 255
0.1311 -0.23370001 1.197 152 78 163 255
0.13338 -0.23370001 1.197 152 78 163 255
0.13566001 -0.23370001 1.197 152 78 163 255
0.13794 -0.23370001 1.197 152 78 163 255
0.14022 -0.23370001 1.197 152 78 163 255
0.1425 -0.23370001 1.197 152 78 163 255
0.14478 -0.23370001 1.197 152 78 163 255
0.14706001 -0.23370001 1.197 152 78 163 255
0.14934 -0.23370001 1.197 152 78 163 255
0.15162 -0.23370001 1.197 152 78 163 255
0.1539 -0.23370001 1.197 152 78 163 255
0.1556581 -0.23291907 1.1930001 152 78 163 255
0.15793048 -0.23291907 1.1930001 152 78 163 255
0.16020286 -0.23291907 1.1930001 152 78 163 255
0.16193049 -0.23213808 1.189 152 78 163 255
0.16419524 -0.23213808 1.189 152 78 163 255
0.16590001 -0.23135716 1.1850001 152 78 163 255
0.16815715 -0.23135716 1.1850001 152 78 163 255
0.10495715 -0.2291 1.1850001 152 78 163 255
0.10721429 -0.2291 1.1850001 152 78 163 255
0.10984095 -0.22987333 1.189 152 78 163 255
0.11210571 -0.22987333 1.189 152 78 163 255
0.11475525 -0.23064668 1.1930001 152 78 163 255
0.11742 -0.23142001 1.197 152 78 163 255
0.11970001 -0.23142001 1.197 152 78 163 255
0.12198001 -0.23142001 1.197 152 78 163 255
0.12426001 -0.23142001 1.197 152 78 163 255
0.12706856 -0.23238668 1.202 152 78 163 255
0.1293581 -0.23238668 1.202 152 78 163 255
0.13164762 -0.23238668 1.202 152 78 163 255
0.13393715 -0.23238668 1.202 152 78 163 255
0.13622667 -0.23238668 1.202 152 78 163 255
0.13851619 -0.23238668 1.202 152 78 163 255
0.14080572 -0.23238668 1.202 152 78 163 255
0.14309524 -0.23238668 1.202 152 78 163 255
0.14538477 -0.23238668 1.202 152 78 163 255
0.14706001 -0.23142001 1.197 152 78 163 255
0.14934 -0.23142001 1.197 152 78 163 255
0.15162 -0.23142001 1.197 152 78 163 255
0.1539 -0.23142001 1.197 152 78 163 255
0.15617999 -0.23142001 1.197 152 78 163 255
0.15846001 -0.23142001 1.197 152 78 163 255
0.16020286 -0.23064668 1.1930001 152 78 163 255
0.16193049 -0.22987333 1.189 152 78 163 255
0.16419524 -0.22987333 1.189 152 78 163 255
0.16590001 -0.2291 1.1850001 152 78 163 255
0.16815715 -0.2291 1.1850001 152 78 163 255
0.17098953 -0.22987333 1.189 152 78 163 255
0.1027 -0.22684287 1.1850001 152 78 163 255
0.10495715 -0.22684287 1.1850001 152 78 163 255
0.10721429 -0.22684287 1.1850001 152 78 163 255
0.10984095 -0.22760856 1.189 152 78 163 255
0.11210571 -0.22760856 1.189 152 78 163 255
0.11475525 -0.2283743 1.1930001 152 78 163 255
0.11742 -0.22914 1.197 152 78 163 255
0.11970001 -0.22914 1.197 152 78 163 255
0.12248952 -0.23009714 1.202 152 78 163 255
0.12477905 -0.23009714 1.202 152 78 163 255
0.12706856 -0.23009714 1.202 152 78 163 255
0.12978858 -0.23086287 1.2060001 152 78 163 255
0.13208573 -0.23086287 1.2060001 152 78 163 255
0.13393715 -0.23009714 1.202 152 78 163 255
0.13622667 -0.23009714 1.202 152 78 163 255
0.13851619 -0.23009714 1.202 152 78 163 255
0.14080572 -0.23009714 1.202 152 78 163 255
0.14309524 -0.23009714 1.202 152 78 163 255
0.14538477 -0.23009714 1.202 152 78 163 255
0.14767428 -0.23009714 1.202 152 78 163 255
0.14996381 -0.23009714 1.202 152 78 163 255
0.15225333 -0.23009714 1.202 152 78 163 255
0.15454286 -0.23009714 1.202 152 78 163 255
0.15683238 -0.23009714 1.202 152 78 163 255
0.15846001 -0.22914 1.197 152 78 163 255
0.16074 -0.22914 1.197 152 78 163 255
0.16247524 -0.2283743 1.1930001 152 78 163 255
0.16474763 -0.2283743 1.1930001 152 78 163 255
0.16646001 -0.22760856 1.189 152 78 163 255
0.16872476 -0.22760856 1.189 152 78 163 255
0.17098953 -0.22760856 1.189 152 78 163 255
0.1732543 -0.22760856 1.189 152 78 163 255
0.17610954 -0.2283743 1.1930001 152 78 163 255
0.1027 -0.22458573 1.1850001 152 78 163 255
0.10495715 -0.22458573 1.1850001 152 78 163 255
0.10757619 -0.22534381 1.189 152 78 163 255
0.11021049 -0.22610192 1.1930001 152 78 163 255
0.11248287 -0.22610192 1.1930001 152 78 163 255
0.11514 -0.22686 1.197 152 78 163 255
0.11742 -0.22686 1.197 152 78 163 255
0.1202 -0.22780761 1.202 152 78 163 255
0.12248952 -0.22780761 1.202 152 78 163 255
0.12477905 -0.22780761 1.202 152 78 163 255
0.12749144 -0.22856572 1.2060001 152 78 163 255
0.13021906 -0.22932382 1.21 152 78 163 255
0.13252382 -0.22932382 1.21 152 78 163 255
0.13482858 -0.22932382 1.21 152 78 163 255
0.13713333 -0.22932382 1.21 152 78 163 255
0.13943809 -0.22932382 1.21 152 78 163 255
0.14174286 -0.22932382 1.21 152 78 163 255
0.14357144 -0.22856572 1.2060001 152 78 163 255
0.14586858 -0.22856572 1.2060001 152 78 163 255
0.14816572 -0.22856572 1.2060001 152 78 163 255
0.15046287 -0.22856572 1.2060001 152 78 163 255
0.15276001 -0.22856572 1.2060001 152 78 163 255
0.15505715 -0.22856572 1.2060001 152 78 163 255
0.15683238 -0.22780761 1.202 152 78 163 255
0.1591219 -0.22780761 1.202 152 78 163 255
0.16074 -0.22686 1.197 152 78 163 255
0.16247524 -0.22610192 1.1930001 152 78 163 255
0.16474763 -0.22610192 1.1930001 152 78 163 255
0.16646001 -0.22534381 1.189 152 78 163 255
0.16872476 -0.22534381 1.189 152 78 163 255
0.17098953 -0.22534381 1.189 152 78 163 255
0.1732543 -0.22534381 1.189 152 78 163 255
0.17551905 -0.22534381 1.189 152 78 163 255
0.10304666 -0.22307904 1.189 152 78 163 255
0.10531143 -0.22307904 1.189 152 78 163 255
0.10757619 -0.22307904 1.189 152 78 163 255
0.11021049 -0.22382954 1.1930001 152 78 163 255
0.11286 -0.22458 1.197 152 78 163 255
0.11514 -0.22458 1.197 152 78 163 255
0.11791047 -0.22551809 1.202 152 78 163 255
0.1202 -0.22551809 1.202 152 78 163 255
0.12289715 -0.22626859 1.2060001 152 78 163 255
0.1251943 -0.22626859 1.2060001 152 78 163 255
0.12791428 -0.22701906 1.21 152 78 163 255
0.13064952 -0.22776954 1.2140001 152 78 163 255
0.13296191 -0.22776954 1.2140001 152 78 163 255
0.13527429 -0.22776954 1.2140001 152 78 163 255
0.13758668 -0.22776954 1.2140001 152 78 163 255
0.13989906 -0.22776954 1.2140001 152 78 163 255
0.14221144 -0.22776954 1.2140001 152 78 163 255
0.14404762 -0.22701906 1.21 152 78 163 255
0.14635238 -0.22701906 1.21 152 78 163 255
0.14865716 -0.22701906 1.21 152 78 163 255
0.15096191 -0.22701906 1.21 152 78 163 255
0.15276001 -0.22626859 1.2060001 152 78 163 255
0.15505715 -0.22626859 1.2060001 152 78 163 255
0.1573543 -0.22626859 1.2060001 152 78 163 255
0.15965144 -0.22626859 1.2060001 152 78 163 255
0.16141143 -0.22551809 1.202 152 78 163 255
0.16302 -0.22458 1.197 152 78 163 255
0.1653 -0.22458 1.197 152 78 163 255
0.16702001 -0.22382954 1.1930001 152 78 163 255
0.16929239 -0.22382954 1.1930001 152 78 163 255
0.17156476 -0.22382954 1.1930001 152 78 163 255
0.1732543 -0.22307904 1.189 152 78 163 255
0.17551905 -0.22307904 1.189 152 78 163 255
0.17778382 -0.22307904 1.189 152 78 163 255
0.10304666 -0.22081427 1.189 152 78 163 255
0.10531143 -0.22081427 1.189 152 78 163 255
0.10757619 -0.22081427 1.189 152 78 163 255
0.10984095 -0.22081427 1.189 152 78 163 255
0.11286 -0.22230001 1.197 152 78 163 255
0.11562095 -0.22322857 1.202 152 78 163 255
0.11791047 -0.22322857 1.202 152 78 163 255
0.12060001 -0.22397144 1.2060001 152 78 163 255
0.12289715 -0.22397144 1.2060001 152 78 163 255
0.12602477 -0.22545716 1.2140001 152 78 163 255
0.12833716 -0.22545716 1.2140001 152 78 163 255
0.13064952 -0.22545716 1.2140001 152 78 163 255
0.13350953 -0.22638573 1.2190001 152 78 163 255
0.13583145 -0.22638573 1.2190001 152 78 163 255
0.13815333 -0.22638573 1.2190001 152 78 163 255
0.14047524 -0.22638573 1.2190001 152 78 163 255
0.14221144 -0.22545716 1.2140001 152 78 163 255
0.14452383 -0.22545716 1.2140001 152 78 163 255
0.14683619 -0.22545716 1.2140001 152 78 163 255
0.14914858 -0.22545716 1.2140001 152 78 163 255
0.15096191 -0.22471429 1.21 152 78 163 255
0.15326667 -0.22471429 1.21 152 78 163 255
0.15557143 -0.22471429 1.21 152 78 163 255
0.1573543 -0.22397144 1.2060001 152 78 163 255
0.15965144 -0.22397144 1.2060001 152 78 163 255
0.16194858 -0.22397144 1.2060001 152 78 163 255
0.16370095 -0.22322857 1.202 152 78 163 255
0.1653 -0.22230001 1.197 152 78 163 255
0.16757999 -0.22230001 1.197 152 78 163 255
0.16929239 -0.22155716 1.1930001 152 78 163 255
0.17156476 -0.22155716 1.1930001 152 78 163 255
0.1732543 -0.22081427 1.189 152 78 163 255
0.17492858 -0.22007143 1.1850001 152 78 163 255
0.17718573 -0.22007143 1.1850001 152 78 163 255
0.10304666 -0.21854952 1.189 152 78 163 255
0.10531143 -0.21854952 1.189 152 78 163 255
0.10757619 -0.21854952 1.189 152 78 163 255
0.10984095 -0.21854952 1.189 152 78 163 255
0.11286 -0.22002001 1.197 152 78 163 255
0.11562095 -0.22093906 1.202 152 78 163 255
0.11791047 -0.22093906 1.202 152 78 163 255
0.12060001 -0.22167429 1.2060001 152 78 163 255
0.12371239 -0.22314477 1.2140001 152 78 163 255
0.12654382 -0.22406381 1.2190001 152 78 163 255
0.12886572 -0.22406381 1.2190001 152 78 163 255
0.13118763 -0.22406381 1.2190001 152 78 163 255
0.13394763 -0.22479907 1.223 152 78 163 255
0.13672288 -0.2255343 1.2270001 152 78 163 255
0.13860667 -0.22479907 1.223 152 78 163 255
0.1409362 -0.22479907 1.223 152 78 163 255
0.14279716 -0.22406381 1.2190001 152 78 163 255
0.14511906 -0.22406381 1.2190001 152 78 163 255
0.14744097 -0.22406381 1.2190001 152 78 163 255
0.14976287 -0.22406381 1.2190001 152 78 163 255
0.15146096 -0.22314477 1.2140001 152 78 163 255
0.15377335 -0.22314477 1.2140001 152 78 163 255
0.15557143 -0.22240953 1.21 152 78 163 255
0.15787619 -0.22240953 1.21 152 78 163 255
0.16018096 -0.22240953 1.21 152 78 163 255
0.16194858 -0.22167429 1.2060001 152 78 163 255
0.16370095 -0.22093906 1.202 152 78 163 255
0.16599049 -0.22093906 1.202 152 78 163 255
0.16757999 -0.22002001 1.197 152 78 163 255
0.16929239 -0.21928477 1.1930001 152 78 163 255
0.17156476 -0.21928477 1.1930001 152 78 163 255
0.1732543 -0.21854952 1.189 152 78 163 255
0.17492858 -0.2178143 1.1850001 152 78 163 255
0.17718573 -0.2178143 1.1850001 152 78 163 255
0.10304666 -0.21628475 1.189 152 78 163 255
0.10531143 -0.21628475 1.189 152 78 163 255
0.10757619 -0.21628475 1.189 152 78 163 255
0.10984095 -0.21628475 1.189 152 78 163 255
0.11286 -0.21774 1.197 152 78 163 255
0.11600572 -0.21937716 1.2060001 152 78 163 255
0.11830287 -0.21937716 1.2060001 152 78 163 255
0.12140001 -0.22083241 1.2140001 152 78 163 255
0.12503716 -0.22319716 1.2270001 152 78 163 255
0.12737429 -0.22319716 1.2270001 152 78 163 255
0.12971143 -0.22319716 1.2270001 152 78 163 255
0.13204859 -0.22319716 1.2270001 152 78 163 255
0.13438572 -0.22319716 1.2270001 152 78 163 255
0.13728002 -0.22410668 1.2320001 152 78 163 255
0.13906002 -0.22319716 1.2270001 152 78 163 255
0.14139715 -0.22319716 1.2270001 152 78 163 255
0.14326571 -0.22246952 1.223 152 78 163 255
0.14559524 -0.22246952 1.223 152 78 163 255
0.14840858 -0.22319716 1.2270001 152 78 163 255
0.15025429 -0.22246952 1.223 152 78 163 255
0.15258382 -0.22246952 1.223 152 78 163 255
0.15440668 -0.22174193 1.2190001 152 78 163 255
0.15608573 -0.22083241 1.2140001 152 78 163 255
0.15839811 -0.22083241 1.2140001 152 78 163 255
0.16071048 -0.22083241 1.2140001 152 78 163 255
0.16248572 -0.22010475 1.21 152 78 163 255
0.16424572 -0.21937716 1.2060001 152 78 163 255
0.16599049 -0.21864952 1.202 152 78 163 255
0.16828001 -0.21864952 1.202 152 78 163 255
0.16985999 -0.21774 1.197 152 78 163 255
0.17214 -0.21774 1.197 152 78 163 255
0.17442 -0.21774 1.197 152 78 163 255
0.17551905 -0.21628475 1.189 152 78 163 255
0.17778382 -0.21628475 1.189 152 78 163 255
0.1806543 -0.21701241 1.1930001 152 78 163 255
0.11182857 -0.22248 1.2360001 152 78 163 255
0.11418286 -0.22248 1.2360001 152 78 163 255
0.11531143 -0.22014 1.223 152 78 163 255
0.11764096 -0.22014 1.223 152 78 163 255
0.11997048 -0.22014 1.223 152 78 163 255
0.12320001 -0.22176002 1.2320001 152 78 163 255
0.12554666 -0.22176002 1.2320001 152 78 163 255
0.12789334 -0.22176002 1.2320001 152 78 163 255
0.13024001 -0.22176002 1.2320001 152 78 163 255
0.13258669 -0.22176002 1.2320001 152 78 163 255
0.13493334 -0.22176002 1.2320001 152 78 163 255
0.13772571 -0.22248 1.2360001 152 78 163 255
0.13962668 -0.22176002 1.2320001 152 78 163 255
0.14139715 -0.22086002 1.2270001 152 78 163 255
0.14373431 -0.22086002 1.2270001 152 78 163 255
0.14607145 -0.22086002 1.2270001 152 78 163 255
0.14840858 -0.22086002 1.2270001 152 78 163 255
0.15074573 -0.22086002 1.2270001 152 78 163 255
0.15308286 -0.22086002 1.2270001 152 78 163 255
0.15491334 -0.22014 1.223 152 78 163 255
0.15672858 -0.21942002 1.2190001 152 78 163 255
0.15905049 -0.21942002 1.2190001 152 78 163 255
0.16071048 -0.21852002 1.2140001 152 78 163 255
0.16302286 -0.21852002 1.2140001 152 78 163 255
0.16479047 -0.21780001 1.21 152 78 163 255
0.16654286 -0.21708001 1.2060001 152 78 163 255
0.16828001 -0.21636 1.202 152 78 163 255
0.17056952 -0.21636 1.202 152 78 163 255
0.17214 -0.21546 1.197 152 78 163 255
0.17442 -0.21546 1.197 152 78 163 255
0.1767 -0.21546 1.197 152 78 163 255
0.17838192 -0.21474002 1.1930001 152 78 163 255
0.1806543 -0.21474002 1.1930001 152 78 163 255
0.11228096 -0.2210162 1.2410001 152 78 163 255
0.11418286 -0.22012573 1.2360001 152 78 163 255
0.11653715 -0.22012573 1.2360001 152 78 163 255
0.11802572 -0.21852288 1.2270001 152 78 163 255
0.12036287 -0.21852288 1.2270001 152 78 163 255
0.12320001 -0.21941335 1.2320001 152 78 163 255
0.1259543 -0.22012573 1.2360001 152 78 163 255
0.12830856 -0.22012573 1.2360001 152 78 163 255
0.13066287 -0.22012573 1.2360001 152 78 163 255
0.13301714 -0.22012573 1.2360001 152 78 163 255
0.13537145 -0.22012573 1.2360001 152 78 163 255
0.13772571 -0.22012573 1.2360001 152 78 163 255
0.14008002 -0.22012573 1.2360001 152 78 163 255
0.14197333 -0.21941335 1.2320001 152 78 163 255
0.14432001 -0.21941335 1.2320001 152 78 163 255
0.14666668 -0.21941335 1.2320001 152 78 163 255
0.14901336 -0.21941335 1.2320001 152 78 163 255
0.15136001 -0.21941335 1.2320001 152 78 163 255
0.15308286 -0.21852288 1.2270001 152 78 163 255
0.15491334 -0.21781048 1.223 152 78 163 255
0.15724286 -0.21781048 1.223 152 78 163 255
0.15905049 -0.21709812 1.2190001 152 78 163 255
0.16137239 -0.21709812 1.2190001 152 78 163 255
0.16302286 -0.21620764 1.2140001 152 78 163 255
0.16479047 -0.21549524 1.21 152 78 163 255
0.16709524 -0.21549524 1.21 152 78 163 255
0.16884001 -0.21478288 1.2060001 152 78 163 255
0.17056952 -0.21407047 1.202 152 78 163 255
0.17285904 -0.21407047 1.202 152 78 163 255
0.17442 -0.21318001 1.197 152 78 163 255
0.1767 -0.21318001 1.197 152 78 163 255
0.17897999 -0.21318001 1.197 152 78 163 255
0.18125999 -0.21318001 1.197 152 78 163 255
0.10947429 -0.21777143 1.2360001 152 78 163 255
0.11228096 -0.21865238 1.2410001 152 78 163 255
0.11464477 -0.21865238 1.2410001 152 78 163 255
0.11653715 -0.21777143 1.2360001 152 78 163 255
0.11850668 -0.21706668 1.2320001 152 78 163 255
0.12085334 -0.21706668 1.2320001 152 78 163 255
0.1236 -0.21777143 1.2360001 152 78 163 255
0.12646382 -0.21865238 1.2410001 152 78 163 255
0.12882763 -0.21865238 1.2410001 152 78 163 255
0.1316143 -0.21935713 1.245 152 78 163 255
0.13398571 -0.21935713 1.245 152 78 163 255
0.13635714 -0.21935713 1.245 152 78 163 255
0.13828287 -0.21865238 1.2410001 152 78 163 255
0.14064667 -0.21865238 1.2410001 152 78 163 255
0.14243428 -0.21777143 1.2360001 152 78 163 255
0.14478858 -0.21777143 1.2360001 152 78 163 255
0.14714286 -0.21777143 1.2360001 152 78 163 255
0.14901336 -0.21706668 1.2320001 152 78 163 255
0.15136001 -0.21706668 1.2320001 152 78 163 255
0.15370668 -0.21706668 1.2320001 152 78 163 255
0.15542001 -0.21618573 1.2270001 152 78 163 255
0.15775716 -0.21618573 1.2270001 152 78 163 255
0.15957239 -0.21548095 1.223 152 78 163 255
0.16137239 -0.2147762 1.2190001 152 78 163 255
0.16369429 -0.2147762 1.2190001 152 78 163 255
0.16533525 -0.21389526 1.2140001 152 78 163 255
0.16709524 -0.21319048 1.21 152 78 163 255
0.16884001 -0.21248573 1.2060001 152 78 163 255
0.17056952 -0.21178097 1.202 152 78 163 255
0.17285904 -0.21178097 1.202 152 78 163 255
0.17442 -0.21090001 1.197 152 78 163 255
0.1767 -0.21090001 1.197 152 78 163 255
0.17838192 -0.21019526 1.1930001 152 78 163 255
0.1806543 -0.21019526 1.1930001 152 78 163 255
0.10947429 -0.21541716 1.2360001 152 78 163 255
0.11182857 -0.21541716 1.2360001 152 78 163 255
0.11418286 -0.21541716 1.2360001 152 78 163 255
0.11653715 -0.21541716 1.2360001 152 78 163 255
0.11889143 -0.21541716 1.2360001 152 78 163 255
0.12124572 -0.21541716 1.2360001 152 78 163 255
0.12410001 -0.21628858 1.2410001 152 78 163 255
0.12687142 -0.21698572 1.245 152 78 163 255
0.12924285 -0.21698572 1.245 152 78 163 255
0.1316143 -0.21698572 1.245 152 78 163 255
0.13452381 -0.21785714 1.25 152 78 163 255
0.13690476 -0.21785714 1.25 152 78 163 255
0.13872856 -0.21698572 1.245 152 78 163 255
0.14064667 -0.21628858 1.2410001 152 78 163 255
0.14243428 -0.21541716 1.2360001 152 78 163 255
0.14478858 -0.21541716 1.2360001 152 78 163 255
0.14714286 -0.21541716 1.2360001 152 78 163 255
0.14949715 -0.21541716 1.2360001 152 78 163 255
0.15185143 -0.21541716 1.2360001 152 78 163 255
0.15370668 -0.21472003 1.2320001 152 78 163 255
0.15605335 -0.21472003 1.2320001 152 78 163 255
0.15775716 -0.21384859 1.2270001 152 78 163 255
0.16009429 -0.21384859 1.2270001 152 78 163 255
0.16190191 -0.21315143 1.223 152 78 163 255
0.16369429 -0.21245429 1.2190001 152 78 163 255
0.16601621 -0.21245429 1.2190001 152 78 163 255
0.16764763 -0.21158287 1.2140001 152 78 163 255
0.16940001 -0.21088572 1.21 152 78 163 255
0.17113715 -0.21018858 1.2060001 152 78 163 255
0.17285904 -0.20949143 1.202 152 78 163 255
0.17442 -0.20862001 1.197 152 78 163 255
0.1767 -0.20862001 1.197 152 78 163 255
0.17838192 -0.20792288 1.1930001 152 78 163 255
0.1806543 -0.20792288 1.1930001 152 78 163 255
0.10677334 -0.21237335 1.2320001 152 78 163 255
0.10947429 -0.21306285 1.2360001 152 78 163 255
0.11182857 -0.21306285 1.2360001 152 78 163 255
0.11418286 -0.21306285 1.2360001 152 78 163 255
0.11700858 -0.21392478 1.2410001 152 78 163 255
0.11937238 -0.21392478 1.2410001 152 78 163 255
0.12212857 -0.21461429 1.245 152 78 163 255
0.12450001 -0.21461429 1.245 152 78 163 255
0.12687142 -0.21461429 1.245 152 78 163 255
0.12924285 -0.21461429 1.245 152 78 163 255
0.13214286 -0.21547619 1.25 152 78 163 255
0.13452381 -0.21547619 1.25 152 78 163 255
0.13690476 -0.21547619 1.25 152 78 163 255
0.13928571 -0.21547619 1.25 152 78 163 255
0.1411 -0.21461429 1.245 152 78 163 255
0.14301048 -0.21392478 1.2410001 152 78 163 255
0.14537428 -0.21392478 1.2410001 152 78 163 255
0.14714286 -0.21306285 1.2360001 152 78 163 255
0.14949715 -0.21306285 1.2360001 152 78 163 255
0.15185143 -0.21306285 1.2360001 152 78 163 255
0.15420572 -0.21306285 1.2360001 152 78 163 255
0.15656 -0.21306285 1.2360001 152 78 163 255
0.15840001 -0.21237335 1.2320001 152 78 163 255
0.16009429 -0.21151145 1.2270001 152 78 163 255
0.16243143 -0.21151145 1.2270001 152 78 163 255
0.16423143 -0.21082191 1.223 152 78 163 255
0.16601621 -0.21013241 1.2190001 152 78 163 255
0.16764763 -0.20927049 1.2140001 152 78 163 255
0.16940001 -0.20858096 1.21 152 78 163 255
0.17113715 -0.20789143 1.2060001 152 78 163 255
0.17285904 -0.2072019 1.202 152 78 163 255
0.17442 -0.20634 1.197 152 78 163 255
0.1767 -0.20634 1.197 152 78 163 255
0.17838192 -0.20565049 1.1930001 152 78 163 255
0.1806543 -0.20565049 1.1930001 152 78 163 255
0.10442667 -0.21002668 1.2320001 152 78 163 255
0.10677334 -0.21002668 1.2320001 152 78 163 255
0.10912001 -0.21002668 1.2320001 152 78 163 255
0.11182857 -0.21070859 1.2360001 152 78 163 255
0.11464477 -0.21156096 1.2410001 152 78 163 255
0.11738571 -0.21224286 1.245 152 78 163 255
0.11975715 -0.21224286 1.245 152 78 163 255
0.12212857 -0.21224286 1.245 152 78 163 255
0.125 -0.21309523 1.25 152 78 163 255
0.12738095 -0.21309523 1.25 152 78 163 255
0.1297619 -0.21309523 1.25 152 78 163 255
0.13214286 -0.21309523 1.25 152 78 163 255
0.13506192 -0.21394764 1.2550001 152 78 163 255
0.13745239 -0.21394764 1.2550001 152 78 163 255
0.13984287 -0.21394764 1.2550001 152 78 163 255
0.14166667 -0.21309523 1.25 152 78 163 255
0.14404762 -0.21309523 1.25 152 78 163 255
0.14584285 -0.21224286 1.245 152 78 163 255
0.1477381 -0.21156096 1.2410001 152 78 163 255
0.15010192 -0.21156096 1.2410001 152 78 163 255
0.15246572 -0.21156096 1.2410001 152 78 163 255
0.15420572 -0.21070859 1.2360001 152 78 163 255
0.15656 -0.21070859 1.2360001 152 78 163 255
0.1589143 -0.21070859 1.2360001 152 78 163 255
0.16074668 -0.21002668 1.2320001 152 78 163 255
0.16243143 -0.20917431 1.2270001 152 78 163 255
0.16476859 -0.20917431 1.2270001 152 78 163 255
0.16656096 -0.20849238 1.223 152 78 163 255
0.16833812 -0.20781049 1.2190001 152 78 163 255
0.16940001 -0.20627619 1.21 152 78 163 255
0.17113715 -0.2055943 1.2060001 152 78 163 255
0.17285904 -0.20491238 1.202 152 78 163 255
0.17442 -0.20406 1.197 152 78 163 255
0.1767 -0.20406 1.197 152 78 163 255
0.17778382 -0.2026962 1.189 152 78 163 255
0.18004857 -0.2026962 1.189 152 78 163 255
0.10442667 -0.20768002 1.2320001 152 78 163 255
0.10677334 -0.20768002 1.2320001 152 78 163 255
0.10912001 -0.20768002 1.2320001 152 78 163 255
0.11182857 -0.20835428 1.2360001 152 78 163 255
0.11464477 -0.20919715 1.2410001 152 78 163 255
0.11738571 -0.20987143 1.245 152 78 163 255
0.11975715 -0.20987143 1.245 152 78 163 255
0.12261905 -0.21071428 1.25 152 78 163 255
0.125 -0.21071428 1.25 152 78 163 255
0.12738095 -0.21071428 1.25 152 78 163 255
0.1297619 -0.21071428 1.25 152 78 163 255
0.13267143 -0.21155716 1.2550001 152 78 163 255
0.13506192 -0.21155716 1.2550001 152 78 163 255
0.13745239 -0.21155716 1.2550001 152 78 163 255
0.13984287 -0.21155716 1.2550001 152 78 163 255
0.14223334 -0.21155716 1.2550001 152 78 163 255
0.14404762 -0.21071428 1.25 152 78 163 255
0.14642857 -0.21071428 1.25 152 78 163 255
0.14821428 -0.20987143 1.245 152 78 163 255
0.15010192 -0.20919715 1.2410001 152 78 163 255
0.15246572 -0.20919715 1.2410001 152 78 163 255
0.15482953 -0.20919715 1.2410001 152 78 163 255
0.15656 -0.20835428 1.2360001 152 78 163 255
0.1589143 -0.20835428 1.2360001 152 78 163 255
0.16074668 -0.20768002 1.2320001 152 78 163 255
0.16309334 -0.20768002 1.2320001 152 78 163 255
0.16476859 -0.20683716 1.2270001 152 78 163 255
0.16710572 -0.20683716 1.2270001 152 78 163 255
0.16833812 -0.20548858 1.2190001 152 78 163 255
0.16940001 -0.20397145 1.21 152 78 163 255
0.17113715 -0.20329715 1.2060001 152 78 163 255
0.17285904 -0.20262285 1.202 152 78 163 255
0.17442 -0.20178001 1.197 152 78 163 255
0.17551905 -0.20043144 1.189 152 78 163 255
0.17778382 -0.20043144 1.189 152 78 163 255
0.17944287 -0.19975714 1.1850001 152 78 163 255
0.18170001 -0.19975714 1.1850001 152 78 163 255
0.10442667 -0.20533335 1.2320001 152 78 163 255
0.10677334 -0.20533335 1.2320001 152 78 163 255
0.10912001 -0.20533335 1.2320001 152 78 163 255
0.11182857 -0.20600002 1.2360001 152 78 163 255
0.11501428 -0.2075 1.245 152 78 163 255
0.11785714 -0.20833333 1.25 152 78 163 255
0.1202381 -0.20833333 1.25 152 78 163 255
0.12261905 -0.20833333 1.25 152 78 163 255
0.125 -0.20833333 1.25 152 78 163 255
0.12738095 -0.20833333 1.25 152 78 163 255
0.13028096 -0.20916668 1.2550001 152 78 163 255
0.13267143 -0.20916668 1.2550001 152 78 163 255
0.13506192 -0.20916668 1.2550001 152 78 163 255
0.13745239 -0.20916668 1.2550001 152 78 163 255
0.13984287 -0.20916668 1.2550001 152 78 163 255
0.14223334 -0.20916668 1.2550001 152 78 163 255
0.14462382 -0.20916668 1.2550001 152 78 163 255
0.1470143 -0.20916668 1.2550001 152 78 163 255
0.14880952 -0.20833333 1.25 152 78 163 255
0.15119047 -0.20833333 1.25 152 78 163 255
0.15295714 -0.2075 1.245 152 78 163 255
0.15532857 -0.2075 1.245 152 78 163 255
0.15719333 -0.20683333 1.2410001 152 78 163 255
0.15955715 -0.20683333 1.2410001 152 78 163 255
0.16126858 -0.20600002 1.2360001 152 78 163 255
0.16309334 -0.20533335 1.2320001 152 78 163 255
0.16544002 -0.20533335 1.2320001 152 78 163 255
0.16710572 -0.20450002 1.2270001 152 78 163 255
0.16833812 -0.20316668 1.2190001 152 78 163 255
0.16996002 -0.20233335 1.2140001 152 78 163 255
0.17113715 -0.20100002 1.2060001 152 78 163 255
0.17285904 -0.20033334 1.202 152 78 163 255
0.17442 -0.19950001 1.197 152 78 163 255
0.17551905 -0.19816667 1.189 152 78 163 255
0.17778382 -0.19816667 1.189 152 78 163 255
0.17944287 -0.19750001 1.1850001 152 78 163 255
0.18170001 -0.19750001 1.1850001 152 78 163 255
0.098809525 -0.20595238 1.25 152 78 163 255
0.10119048 -0.20595238 1.25 152 78 163 255
0.10357143 -0.20595238 1.25 152 78 163 255
0.10677334 -0.20298669 1.2320001 152 78 163 255
0.10912001 -0.20298669 1.2320001 152 78 163 255
0.11309524 -0.20595238 1.25 152 78 163 255
0.11547619 -0.20595238 1.25 152 78 163 255
0.13028096 -0.2067762 1.2550001 152 78 163 255
0.13506192 -0.2067762 1.2550001 152 78 163 255
0.13745239 -0.2067762 1.2550001 152 78 163 255
0.13984287 -0.2067762 1.2550001 152 78 163 255
0.14223334 -0.2067762 1.2550001 152 78 163 255
0.14462382 -0.2067762 1.2550001 152 78 163 255
0.1470143 -0.2067762 1.2550001 152 78 163 255
0.14940478 -0.2067762 1.2550001 152 78 163 255
0.15119047 -0.20595238 1.25 152 78 163 255
0.15357143 -0.20595238 1.25 152 78 163 255
0.15595238 -0.20595238 1.25 152 78 163 255
0.1577 -0.20512857 1.245 152 78 163 255
0.15955715 -0.20446953 1.2410001 152 78 163 255
0.16126858 -0.20364572 1.2360001 152 78 163 255
0.16362287 -0.20364572 1.2360001 152 78 163 255
0.16544002 -0.20298669 1.2320001 152 78 163 255
0.16778667 -0.20298669 1.2320001 152 78 163 255
0.16889048 -0.20150381 1.223 152 78 163 255
0.17066 -0.20084478 1.2190001 152 78 163 255
0.17170477 -0.19936191 1.21 152 78 163 255
0.17285904 -0.19804381 1.202 152 78 163 255
0.17442 -0.19722001 1.197 152 78 163 255
0.17551905 -0.19590192 1.189 152 78 163 255
0.17778382 -0.19590192 1.189 152 78 163 255
0.098809525 -0.20357142 1.25 152 78 163 255
0.10119048 -0.20357142 1.25 152 78 163 255
0.10357143 -0.20357142 1.25 152 78 163 255
0.10595238 -0.20357142 1.25 152 78 163 255
0.13984287 -0.20438574 1.2550001 152 78 163 255
0.14223334 -0.20438574 1.2550001 152 78 163 255
0.14462382 -0.20438574 1.2550001 152 78 163 255
0.1470143 -0.20438574 1.2550001 152 78 163 255
0.14940478 -0.20438574 1.2550001 152 78 163 255
0.15179525 -0.20438574 1.2550001 152 78 163 255
0.15357143 -0.20357142 1.25 152 78 163 255
0.15595238 -0.20357142 1.25 152 78 163 255
0.15833333 -0.20357142 1.25 152 78 163 255
0.16071428 -0.20357142 1.25 152 78 163 255
0.16192096 -0.20210573 1.2410001 152 78 163 255
0.16362287 -0.20129144 1.2360001 152 78 163 255
0.16597714 -0.20129144 1.2360001 152 78 163 255
0.16778667 -0.20064001 1.2320001 152 78 163 255
0.16944288 -0.19982573 1.2270001 152 78 163 255
0.17066 -0.19852288 1.2190001 152 78 163 255
0.17170477 -0.19705714 1.21 152 78 163 255
0.17285904 -0.19575429 1.202 152 78 163 255
0.17442 -0.19494002 1.197 152 78 163 255
0.17610954 -0.19428858 1.1930001 152 78 163 255
0.17838192 -0.19428858 1.1930001 152 78 163 255
0.098809525 -0.20119047 1.25 152 78 163 255
0.10119048 -0.20119047 1.25 152 78 163 255
0.14940478 -0.20199525 1.2550001 152 78 163 255
0.15179525 -0.20199525 1.2550001 152 78 163 255
0.15418573 -0.20199525 1.2550001 152 78 163 255
0.1565762 -0.20199525 1.2550001 152 78 163 255
0.15833333 -0.20119047 1.25 152 78 163 255
0.16071428 -0.20119047 1.25 152 78 163 255
0.16309524 -0.20119047 1.25 152 78 163 255
0.16362287 -0.19893715 1.2360001 152 78 163 255
0.16597714 -0.19893715 1.2360001 152 78 163 255
0.16778667 -0.19829336 1.2320001 152 78 163 255
0.16944288 -0.19748859 1.2270001 152 78 163 255
0.17122 -0.19684477 1.223 152 78 163 255
0.1722724 -0.1953962 1.2140001 152 78 163 255
0.17285904 -0.19346476 1.202 152 78 163 255
0.17442 -0.19266 1.197 152 78 163 255
0.1767 -0.19266 1.197 152 78 163 255
0.098809525 -0.19880952 1.25 152 78 163 255
0.10119048 -0.19880952 1.25 152 78 163 255
0.10357143 -0.19880952 1.25 152 78 163 255
0.15896668 -0.19960478 1.2550001 152 78 163 255
0.16135716 -0.19960478 1.2550001 152 78 163 255
0.16309524 -0.19880952 1.25 152 78 163 255
0.16428477 -0.1973781 1.2410001 152 78 163 255
0.16597714 -0.19658287 1.2360001 152 78 163 255
0.16778667 -0.19594668 1.2320001 152 78 163 255
0.17013335 -0.19594668 1.2320001 152 78 163 255
0.17178002 -0.19515145 1.2270001 152 78 163 255
0.17298192 -0.19387905 1.2190001 152 78 163 255
0.17530382 -0.19387905 1.2190001 152 78 163 255
0.17762573 -0.19387905 1.2190001 152 78 163 255
0.16309524 -0.19642857 1.25 152 78 163 255
0.16428477 -0.1950143 1.2410001 152 78 163 255
0.16664857 -0.1950143 1.2410001 152 78 163 255
0.16833144 -0.19422857 1.2360001 152 78 163 255
0.17013335 -0.19360001 1.2320001 152 78 163 255
0.17248002 -0.19360001 1.2320001 152 78 163 255
0.17539428 -0.19422857 1.2360001 152 78 163 255
0.17774859 -0.19422857 1.2360001 152 78 163 255
0.16309524 -0.19404761 1.25 152 78 163 255
0.16481429 -0.19327143 1.245 152 78 163 255
0.16664857 -0.19265048 1.2410001 152 78 163 255
0.16833144 -0.1918743 1.2360001 152 78 163 255
0.17068571 -0.1918743 1.2360001 152 78 163 255
0.17304002 -0.1918743 1.2360001 152 78 163 255
0.17539428 -0.1918743 1.2360001 152 78 163 255
0.17774859 -0.1918743 1.2360001 152 78 163 255
0.16309524 -0.19166666 1.25 152 78 163 255
0.16481429 -0.1909 1.245 152 78 163 255
0.16718571 -0.1909 1.245 152 78 163 255
0.1690124 -0.19028668 1.2410001 152 78 163 255
0.1713762 -0.19028668 1.2410001 152 78 163 255
0.17374 -0.19028668 1.2410001 152 78 163 255
0.17610382 -0.19028668 1.2410001 152 78 163 255
0.17846762 -0.19028668 1.2410001 152 78 163 255
0.16309524 -0.18928571 1.25 152 78 163 255
0.16481429 -0.18852857 1.245 152 78 163 255
0.16718571 -0.18852857 1.245 152 78 163 255
0.1690124 -0.18792287 1.2410001 152 78 163 255
0.1713762 -0.18792287 1.2410001 152 78 163 255
0.17374 -0.18792287 1.2410001 152 78 163 255
0.17610382 -0.18792287 1.2410001 152 78 163 255
0.16309524 -0.18690476 1.25 152 78 163 255
0.16481429 -0.18615714 1.245 152 78 163 255
0.16718571 -0.18615714 1.245 152 78 163 255
0.1690124 -0.18555905 1.2410001 152 78 163 255
0.1713762 -0.18555905 1.2410001 152 78 163 255
0.17374 -0.18555905 1.2410001 152 78 163 255
0.16071428 -0.18452381 1.25 152 78 163 255
0.16309524 -0.18452381 1.25 152 78 163 255
0.16547619 -0.18452381 1.25 152 78 163 255
0.16718571 -0.18378572 1.245 152 78 163 255
0.1690124 -0.18319525 1.2410001 152 78 163 255
0.1713762 -0.18319525 1.2410001 152 78 163 255
0.16071428 -0.18214285 1.25 152 78 163 255
0.16309524 -0.18214285 1.25 152 78 163 255
0.16547619 -0.18214285 1.25 152 78 163 255
0.16785714 -0.18214285 1.25 152 78 163 255
0.16955714 -0.18141429 1.245 152 78 163 255
0.17192857 -0.18141429 1.245 152 78 163 255
0.15833333 -0.1797619 1.25 152 78 163 255
0.16071428 -0.1797619 1.25 152 78 163 255
0.16309524 -0.1797619 1.25 152 78 163 255
0.16547619 -0.1797619 1.25 152 78 163 255
0.16785714 -0.1797619 1.25 152 78 163 255
0.16955714 -0.17904285 1.245 152 78 163 255
0.17192857 -0.17904285 1.245 152 78 163 255
0.15595238 -0.17738095 1.25 152 78 163 255
0.15833333 -0.17738095 1.25 152 78 163 255
0.15955715 -0.17610382 1.2410001 152 78 163 255
0.16192096 -0.17610382 1.2410001 152 78 163 255
0.16547619 -0.17738095 1.25 152 78 163 255
0.16785714 -0.17738095 1.25 152 78 163 255
0.17023809 -0.17738095 1.25 152 78 163 255
0.15595238 -0.175 1.25 152 78 163 255
0.15833333 -0.175 1.25 152 78 163 255
0.15955715 -0.17374 1.2410001 152 78 163 255
0.16192096 -0.17374 1.2410001 152 78 163 255
0.16428477 -0.17374 1.2410001 152 78 163 255
0 0 0 1 0 0 0 1 0 0 0 1 0 0 0 0 0 774 1 0 0
