ply
format ascii 1.0
comment PCL generated
element vertex 850
property float x
property float y
property float z
property uchar red
property uchar green
property uchar blue
property uchar alpha
element camera 1
property float view_px
property float view_py
property float view_pz
property float x_axisx
property float x_axisy
property float x_axisz
property float y_axisx
property float y_axisy
property float y_axisz
property float z_axisx
property float z_axisy
property float z_axisz
property float focal
property float scalex
property float scaley
property float centerx
property float centery
property int viewportx
property int viewporty
property float k1
property float k2
end_header
-0.27014953 -0.31722951 1.177 55 126 184 255
-0.26790762 -0.31722951 1.177 55 126 184 255
-0.26566571 -0.31722951 1.177 55 126 184 255
-0.2634238 -0.31722951 1.177 55 126 184 255
-0.26029429 -0.31615144 1.1730001 55 126 184 255
-0.25718001 -0.31507331 1.169 55 126 184 255
-0.25495335 -0.31507331 1.169 55 126 184 255
-0.27239144 -0.31498763 1.177 55 126 184 255
-0.27014953 -0.31498763 1.177 55 126 184 255
-0.26790762 -0.31498763 1.177 55 126 184 255
-0.26566571 -0.31498763 1.177 55 126 184 255
-0.2634238 -0.31498763 1.177 55 126 184 255
-0.26029429 -0.31391716 1.1730001 55 126 184 255
-0.25718001 -0.31284669 1.169 55 126 184 255
-0.25495335 -0.31284669 1.169 55 126 184 255
-0.25272667 -0.31284669 1.169 55 126 184 255
-0.25049999 -0.31284669 1.169 55 126 184 255
-0.24827334 -0.31284669 1.169 55 126 184 255
-0.24604666 -0.31284669 1.169 55 126 184 255
-0.24465431 -0.31391716 1.1730001 55 126 184 255
-0.27239144 -0.31274575 1.177 55 126 184 255
-0.27014953 -0.31274575 1.177 55 126 184 255
-0.26790762 -0.31274575 1.177 55 126 184 255
-0.26566571 -0.31274575 1.177 55 126 184 255
-0.2634238 -0.31274575 1.177 55 126 184 255
-0.26029429 -0.31168288 1.1730001 55 126 184 255
-0.25806001 -0.31168288 1.1730001 55 126 184 255
-0.25582576 -0.31168288 1.1730001 55 126 184 255
-0.25272667 -0.31062001 1.169 55 126 184 255
-0.25049999 -0.31062001 1.169 55 126 184 255
-0.24827334 -0.31062001 1.169 55 126 184 255
-0.24604666 -0.31062001 1.169 55 126 184 255
-0.24465431 -0.31168288 1.1730001 55 126 184 255
-0.24324667 -0.31274575 1.177 55 126 184 255
-0.24018574 -0.31168288 1.1730001 55 126 184 255
-0.23795144 -0.31168288 1.1730001 55 126 184 255
-0.27239144 -0.31050384 1.177 55 126 184 255
-0.27014953 -0.31050384 1.177 55 126 184 255
-0.26790762 -0.31050384 1.177 55 126 184 255
-0.26566571 -0.31050384 1.177 55 126 184 255
-0.2634238 -0.31050384 1.177 55 126 184 255
-0.26118189 -0.31050384 1.177 55 126 184 255
-0.25806001 -0.3094486 1.1730001 55 126 184 255
-0.25582576 -0.3094486 1.1730001 55 126 184 255
-0.25359145 -0.3094486 1.1730001 55 126 184 255
-0.25049999 -0.30839336 1.169 55 126 184 255
-0.24827334 -0.30839336 1.169 55 126 184 255
-0.24604666 -0.30839336 1.169 55 126 184 255
-0.24548857 -0.31050384 1.177 55 126 184 255
-0.24324667 -0.31050384 1.177 55 126 184 255
-0.24018574 -0.3094486 1.1730001 55 126 184 255
-0.23795144 -0.3094486 1.1730001 55 126 184 255
-0.23652096 -0.31050384 1.177 55 126 184 255
-0.27463335 -0.30826193 1.177 55 126 184 255
-0.27239144 -0.30826193 1.177 55 126 184 255
-0.27014953 -0.30826193 1.177 55 126 184 255
-0.26790762 -0.30826193 1.177 55 126 184 255
-0.26566571 -0.30826193 1.177 55 126 184 255
-0.2634238 -0.30826193 1.177 55 126 184 255
-0.26118189 -0.30826193 1.177 55 126 184 255
-0.25982004 -0.30930954 1.1810001 55 126 184 255
-0.25757051 -0.30930954 1.1810001 55 126 184 255
-0.25359145 -0.30721429 1.1730001 55 126 184 255
-0.25049999 -0.30616668 1.169 55 126 184 255
-0.24827334 -0.30616668 1.169 55 126 184 255
-0.24604666 -0.30616668 1.169 55 126 184 255
-0.24548857 -0.30826193 1.177 55 126 184 255
-0.24324667 -0.30826193 1.177 55 126 184 255
-0.24100477 -0.30826193 1.177 55 126 184 255
-0.23876286 -0.30826193 1.177 55 126 184 255
-0.23652096 -0.30826193 1.177 55 126 184 255
-0.23427905 -0.30826193 1.177 55 126 184 255
-0.23203714 -0.30826193 1.177 55 126 184 255
-0.28263715 -0.30498004 1.1730001 55 126 184 255
-0.2804029 -0.30498004 1.1730001 55 126 184 255
-0.27816859 -0.30498004 1.1730001 55 126 184 255
-0.27593431 -0.30498004 1.1730001 55 126 184 255
-0.2737 -0.30498004 1.1730001 55 126 184 255
-0.27239144 -0.30602002 1.177 55 126 184 255
-0.27014953 -0.30602002 1.177 55 126 184 255
-0.26790762 -0.30602002 1.177 55 126 184 255
-0.26566571 -0.30602002 1.177 55 126 184 255
-0.26431909 -0.30706003 1.1810001 55 126 184 255
-0.26206955 -0.30706003 1.1810001 55 126 184 255
-0.26070002 -0.30810001 1.1850001 55 126 184 255
-0.25931525 -0.30914 1.189 55 126 184 255
-0.25618574 -0.30810001 1.1850001 55 126 184 255
-0.25049999 -0.30394 1.169 55 126 184 255
-0.24827334 -0.30394 1.169 55 126 184 255
-0.24941429 -0.30810001 1.1850001 55 126 184 255
-0.24715716 -0.30810001 1.1850001 55 126 184 255
-0.24407336 -0.30706003 1.1810001 55 126 184 255
-0.24100477 -0.30602002 1.177 55 126 184 255
-0.23876286 -0.30602002 1.177 55 126 184 255
-0.23652096 -0.30602002 1.177 55 126 184 255
-0.23427905 -0.30602002 1.177 55 126 184 255
-0.23203714 -0.30602002 1.177 55 126 184 255
-0.28263715 -0.30274573 1.1730001 55 126 184 255
-0.2804029 -0.30274573 1.1730001 55 126 184 255
-0.27816859 -0.30274573 1.1730001 55 126 184 255
-0.27593431 -0.30274573 1.1730001 55 126 184 255
-0.2737 -0.30274573 1.1730001 55 126 184 255
-0.27239144 -0.30377811 1.177 55 126 184 255
-0.27014953 -0.30377811 1.177 55 126 184 255
-0.26881811 -0.30481049 1.1810001 55 126 184 255
-0.2665686 -0.30481049 1.1810001 55 126 184 255
-0.26521429 -0.30584288 1.1850001 55 126 184 255
-0.26295716 -0.30584288 1.1850001 55 126 184 255
-0.26245999 -0.30790761 1.1930001 55 126 184 255
-0.26018763 -0.30790761 1.1930001 55 126 184 255
-0.25791523 -0.30790761 1.1930001 55 126 184 255
-0.25478572 -0.30687523 1.189 55 126 184 255
-0.25252095 -0.30687523 1.189 55 126 184 255
-0.25025621 -0.30687523 1.189 55 126 184 255
-0.24715716 -0.30584288 1.1850001 55 126 184 255
-0.24407336 -0.30481049 1.1810001 55 126 184 255
-0.24182382 -0.30481049 1.1810001 55 126 184 255
-0.23957431 -0.30481049 1.1810001 55 126 184 255
-0.23652096 -0.30377811 1.177 55 126 184 255
-0.23427905 -0.30377811 1.177 55 126 184 255
-0.23203714 -0.30377811 1.177 55 126 184 255
-0.28487146 -0.30051145 1.1730001 55 126 184 255
-0.28263715 -0.30051145 1.1730001 55 126 184 255
-0.28135905 -0.3015362 1.177 55 126 184 255
-0.27911714 -0.3015362 1.177 55 126 184 255
-0.27687526 -0.3015362 1.177 55 126 184 255
-0.27463335 -0.3015362 1.177 55 126 184 255
-0.27239144 -0.3015362 1.177 55 126 184 255
-0.27014953 -0.3015362 1.177 55 126 184 255
-0.2697286 -0.30358574 1.1850001 55 126 184 255
-0.26747143 -0.30358574 1.1850001 55 126 184 255
-0.26700476 -0.30563524 1.1930001 55 126 184 255
-0.26473239 -0.30563524 1.1930001 55 126 184 255
-0.26334003 -0.30666 1.197 55 126 184 255
-0.26106 -0.30666 1.197 55 126 184 255
-0.25878 -0.30666 1.197 55 126 184 255
-0.25650001 -0.30666 1.197 55 126 184 255
-0.25422001 -0.30666 1.197 55 126 184 255
-0.2510981 -0.30563524 1.1930001 55 126 184 255
-0.24882574 -0.30563524 1.1930001 55 126 184 255
-0.24572666 -0.30461049 1.189 55 126 184 255
-0.24264286 -0.30358574 1.1850001 55 126 184 255
-0.24038573 -0.30358574 1.1850001 55 126 184 255
-0.23732479 -0.30256099 1.1810001 55 126 184 255
-0.23427905 -0.3015362 1.177 55 126 184 255
-0.23203714 -0.3015362 1.177 55 126 184 255
-0.23057622 -0.30256099 1.1810001 55 126 184 255
-0.22832669 -0.30256099 1.1810001 55 126 184 255
-0.28487146 -0.29827717 1.1730001 55 126 184 255
-0.28263715 -0.29827717 1.1730001 55 126 184 255
-0.28135905 -0.29929429 1.177 55 126 184 255
-0.27911714 -0.29929429 1.177 55 126 184 255
-0.27687526 -0.29929429 1.177 55 126 184 255
-0.27463335 -0.29929429 1.177 55 126 184 255
-0.27331716 -0.30031145 1.1810001 55 126 184 255
-0.27106765 -0.30031145 1.1810001 55 126 184 255
-0.27063903 -0.30234572 1.189 55 126 184 255
-0.26927716 -0.30336285 1.1930001 55 126 184 255
-0.26700476 -0.30336285 1.1930001 55 126 184 255
-0.26561999 -0.30438 1.197 55 126 184 255
-0.26444 -0.30565146 1.202 55 126 184 255
-0.26215047 -0.30565146 1.202 55 126 184 255
-0.25986096 -0.30565146 1.202 55 126 184 255
-0.25757143 -0.30565146 1.202 55 126 184 255
-0.2552819 -0.30565146 1.202 55 126 184 255
-0.25194001 -0.30438 1.197 55 126 184 255
-0.24966 -0.30438 1.197 55 126 184 255
-0.24655335 -0.30336285 1.1930001 55 126 184 255
-0.24428098 -0.30336285 1.1930001 55 126 184 255
-0.24119714 -0.30234572 1.189 55 126 184 255
-0.23732479 -0.30031145 1.1810001 55 126 184 255
-0.23507527 -0.30031145 1.1810001 55 126 184 255
-0.23282574 -0.30031145 1.1810001 55 126 184 255
-0.23057622 -0.30031145 1.1810001 55 126 184 255
-0.22832669 -0.30031145 1.1810001 55 126 184 255
-0.28835332 -0.29503334 1.169 55 126 184 255
-0.28612667 -0.29503334 1.169 55 126 184 255
-0.28389999 -0.29503334 1.169 55 126 184 255
-0.28263715 -0.29604289 1.1730001 55 126 184 255
-0.28135905 -0.29705238 1.177 55 126 184 255
-0.27911714 -0.29705238 1.177 55 126 184 255
-0.27781621 -0.29806194 1.1810001 55 126 184 255
-0.2755667 -0.29806194 1.1810001 55 126 184 255
-0.27424288 -0.29907146 1.1850001 55 126 184 255
-0.27198574 -0.29907146 1.1850001 55 126 184 255
-0.27154952 -0.30109048 1.1930001 55 126 184 255
-0.26927716 -0.30109048 1.1930001 55 126 184 255
-0.26790002 -0.3021 1.197 55 126 184 255
-0.26672953 -0.30336189 1.202 55 126 184 255
-0.26444 -0.30336189 1.202 55 126 184 255
-0.26215047 -0.30336189 1.202 55 126 184 255
-0.26072574 -0.30437145 1.2060001 55 126 184 255
-0.25842857 -0.30437145 1.2060001 55 126 184 255
-0.2552819 -0.30336189 1.202 55 126 184 255
-0.25299236 -0.30336189 1.202 55 126 184 255
-0.25070286 -0.30336189 1.202 55 126 184 255
-0.24841334 -0.30336189 1.202 55 126 184 255
-0.24510001 -0.3021 1.197 55 126 184 255
-0.24281999 -0.3021 1.197 55 126 184 255
-0.23973621 -0.30109048 1.1930001 55 126 184 255
-0.23746383 -0.30109048 1.1930001 55 126 184 255
-0.2336143 -0.29907146 1.1850001 55 126 184 255
-0.23135716 -0.29907146 1.1850001 55 126 184 255
-0.2291 -0.29907146 1.1850001 55 126 184 255
-0.22684287 -0.29907146 1.1850001 55 126 184 255
-0.28835332 -0.29280668 1.169 55 126 184 255
-0.28612667 -0.29280668 1.169 55 126 184 255
-0.28389999 -0.29280668 1.169 55 126 184 255
-0.28263715 -0.29380858 1.1730001 55 126 184 255
-0.28135905 -0.2948105 1.177 55 126 184 255
-0.28006575 -0.2958124 1.1810001 55 126 184 255
-0.27781621 -0.2958124 1.1810001 55 126 184 255
-0.27650002 -0.29681432 1.1850001 55 126 184 255
-0.27424288 -0.29681432 1.1850001 55 126 184 255
-0.27382192 -0.29881811 1.1930001 55 126 184 255
-0.27154952 -0.29881811 1.1930001 55 126 184 255
-0.27017999 -0.29982001 1.197 55 126 184 255
-0.26901904 -0.30107239 1.202 55 126 184 255
-0.26672953 -0.30107239 1.202 55 126 184 255
-0.26444 -0.30107239 1.202 55 126 184 255
-0.26302287 -0.30207428 1.2060001 55 126 184 255
-0.26072574 -0.30207428 1.2060001 55 126 184 255
-0.25842857 -0.30207428 1.2060001 55 126 184 255
-0.25613144 -0.30207428 1.2060001 55 126 184 255
-0.25383431 -0.30207428 1.2060001 55 126 184 255
-0.25070286 -0.30107239 1.202 55 126 184 255
-0.24841334 -0.30107239 1.202 55 126 184 255
-0.24612381 -0.30107239 1.202 55 126 184 255
-0.24383429 -0.30107239 1.202 55 126 184 255
-0.24154477 -0.30107239 1.202 55 126 184 255
-0.23826 -0.29982001 1.197 55 126 184 255
-0.23598 -0.29982001 1.197 55 126 184 255
-0.23213808 -0.29781619 1.189 55 126 184 255
-0.2291 -0.29681432 1.1850001 55 126 184 255
-0.22684287 -0.29681432 1.1850001 55 126 184 255
-0.22534381 -0.29781619 1.189 55 126 184 255
-0.28835332 -0.29058 1.169 55 126 184 255
-0.28612667 -0.29058 1.169 55 126 184 255
-0.28487146 -0.2915743 1.1730001 55 126 184 255
-0.28263715 -0.2915743 1.1730001 55 126 184 255
-0.28135905 -0.29256859 1.177 55 126 184 255
-0.28006575 -0.29356289 1.1810001 55 126 184 255
-0.27781621 -0.29356289 1.1810001 55 126 184 255
-0.27650002 -0.29455715 1.1850001 55 126 184 255
-0.27516857 -0.29555145 1.189 55 126 184 255
-0.27474001 -0.29753998 1.197 55 126 184 255
-0.27246001 -0.29753998 1.197 55 126 184 255
-0.27017999 -0.29753998 1.197 55 126 184 255
-0.26901904 -0.29878286 1.202 55 126 184 255
-0.26672953 -0.29878286 1.202 55 126 184 255
-0.26532003 -0.29977715 1.2060001 55 126 184 255
-0.26302287 -0.29977715 1.2060001 55 126 184 255
-0.26159048 -0.30077142 1.21 55 126 184 255
-0.25928572 -0.30077142 1.21 55 126 184 255
-0.25698096 -0.30077142 1.21 55 126 184 255
-0.25467619 -0.30077142 1.21 55 126 184 255
-0.25153714 -0.29977715 1.2060001 55 126 184 255
-0.24924003 -0.29977715 1.2060001 55 126 184 255
-0.24694286 -0.29977715 1.2060001 55 126 184 255
-0.24464573 -0.29977715 1.2060001 55 126 184 255
-0.24054 -0.29753998 1.197 55 126 184 255
-0.23826 -0.29753998 1.197 55 126 184 255
-0.23598 -0.29753998 1.197 55 126 184 255
-0.23370001 -0.29753998 1.197 55 126 184 255
-0.23142001 -0.29753998 1.197 55 126 184 255
-0.22760856 -0.29555145 1.189 55 126 184 255
-0.22534381 -0.29555145 1.189 55 126 184 255
-0.29058 -0.28835332 1.169 55 126 184 255
-0.28835332 -0.28835332 1.169 55 126 184 255
-0.28612667 -0.28835332 1.169 55 126 184 255
-0.28584287 -0.29032668 1.177 55 126 184 255
-0.28360096 -0.29032668 1.177 55 126 184 255
-0.28135905 -0.29032668 1.177 55 126 184 255
-0.28006575 -0.29131335 1.1810001 55 126 184 255
-0.27875715 -0.29230002 1.1850001 55 126 184 255
-0.27743334 -0.29328665 1.189 55 126 184 255
-0.27516857 -0.29328665 1.189 55 126 184 255
-0.27474001 -0.29526001 1.197 55 126 184 255
-0.27246001 -0.29526001 1.197 55 126 184 255
-0.27130857 -0.29649332 1.202 55 126 184 255
-0.26901904 -0.29649332 1.202 55 126 184 255
-0.26761717 -0.29748002 1.2060001 55 126 184 255
-0.26532003 -0.29748002 1.2060001 55 126 184 255
-0.26389524 -0.29846668 1.21 55 126 184 255
-0.26159048 -0.29846668 1.21 55 126 184 255
-0.25928572 -0.29846668 1.21 55 126 184 255
-0.25698096 -0.29846668 1.21 55 126 184 255
-0.25467619 -0.29846668 1.21 55 126 184 255
-0.25237146 -0.29846668 1.21 55 126 184 255
-0.25006667 -0.29846668 1.21 55 126 184 255
-0.24776189 -0.29846668 1.21 55 126 184 255
-0.24545716 -0.29846668 1.21 55 126 184 255
-0.24054 -0.29526001 1.197 55 126 184 255
-0.23826 -0.29526001 1.197 55 126 184 255
-0.23696572 -0.29649332 1.202 55 126 184 255
-0.2346762 -0.29649332 1.202 55 126 184 255
-0.23142001 -0.29526001 1.197 55 126 184 255
-0.22760856 -0.29328665 1.189 55 126 184 255
-0.22534381 -0.29328665 1.189 55 126 184 255
-0.2915743 -0.28710574 1.1730001 55 126 184 255
-0.28934002 -0.28710574 1.1730001 55 126 184 255
-0.28710574 -0.28710574 1.1730001 55 126 184 255
-0.28584287 -0.28808478 1.177 55 126 184 255
-0.28360096 -0.28808478 1.177 55 126 184 255
-0.28231525 -0.28906384 1.1810001 55 126 184 255
-0.28101429 -0.29004288 1.1850001 55 126 184 255
-0.27875715 -0.29004288 1.1850001 55 126 184 255
-0.27836668 -0.29200095 1.1930001 55 126 184 255
-0.27702001 -0.29297999 1.197 55 126 184 255
-0.27474001 -0.29297999 1.197 55 126 184 255
-0.2735981 -0.29420382 1.202 55 126 184 255
-0.27130857 -0.29420382 1.202 55 126 184 255
-0.26991433 -0.29518288 1.2060001 55 126 184 255
-0.26761717 -0.29518288 1.2060001 55 126 184 255
-0.26532003 -0.29518288 1.2060001 55 126 184 255
-0.26389524 -0.29616189 1.21 55 126 184 255
-0.26245525 -0.29714096 1.2140001 55 126 184 255
-0.26014286 -0.29714096 1.2140001 55 126 184 255
-0.2578305 -0.29714096 1.2140001 55 126 184 255
-0.25657049 -0.29836479 1.2190001 55 126 184 255
-0.25424859 -0.29836479 1.2190001 55 126 184 255
-0.25089335 -0.29714096 1.2140001 55 126 184 255
-0.24858096 -0.29714096 1.2140001 55 126 184 255
-0.2462686 -0.29714096 1.2140001 55 126 184 255
-0.24154477 -0.29420382 1.202 55 126 184 255
-0.23925523 -0.29420382 1.202 55 126 184 255
-0.23696572 -0.29420382 1.202 55 126 184 255
-0.2346762 -0.29420382 1.202 55 126 184 255
-0.23238668 -0.29420382 1.202 55 126 184 255
-0.2283743 -0.29200095 1.1930001 55 126 184 255
-0.22610192 -0.29200095 1.1930001 55 126 184 255
-0.22382954 -0.29200095 1.1930001 55 126 184 255
-0.29301429 -0.28195712 1.161 55 126 184 255
-0.29080287 -0.28195712 1.161 55 126 184 255
-0.28958574 -0.28292859 1.1650001 55 126 184 255
-0.28835332 -0.28389999 1.169 55 126 184 255
-0.28710574 -0.28487146 1.1730001 55 126 184 255
-0.28584287 -0.28584287 1.177 55 126 184 255
-0.28456479 -0.2868143 1.1810001 55 126 184 255
-0.28327146 -0.28778574 1.1850001 55 126 184 255
-0.28291142 -0.28972858 1.1930001 55 126 184 255
-0.28158 -0.29070002 1.197 55 126 184 255
-0.2793 -0.29070002 1.197 55 126 184 255
-0.27702001 -0.29070002 1.197 55 126 184 255
-0.27588761 -0.29191428 1.202 55 126 184 255
-0.2735981 -0.29191428 1.202 55 126 184 255
-0.27221143 -0.29288575 1.2060001 55 126 184 255
-0.26991433 -0.29288575 1.2060001 55 126 184 255
-0.26850477 -0.29385716 1.21 55 126 184 255
-0.26620001 -0.29385716 1.21 55 126 184 255
-0.26476762 -0.29482859 1.2140001 55 126 184 255
-0.26245525 -0.29482859 1.2140001 55 126 184 255
-0.26121432 -0.29604289 1.2190001 55 126 184 255
-0.25889242 -0.29604289 1.2190001 55 126 184 255
-0.2574124 -0.2970143 1.223 55 126 184 255
-0.25508285 -0.2970143 1.223 55 126 184 255
-0.25192666 -0.29604289 1.2190001 55 126 184 255
-0.24858096 -0.29482859 1.2140001 55 126 184 255
-0.2462686 -0.29482859 1.2140001 55 126 184 255
-0.24496096 -0.29604289 1.2190001 55 126 184 255
-0.24164383 -0.29482859 1.2140001 55 126 184 255
-0.2377543 -0.29288575 1.2060001 55 126 184 255
-0.23545715 -0.29288575 1.2060001 55 126 184 255
-0.23316002 -0.29288575 1.2060001 55 126 184 255
-0.2283743 -0.28972858 1.1930001 55 126 184 255
-0.22610192 -0.28972858 1.1930001 55 126 184 255
-0.22382954 -0.28972858 1.1930001 55 126 184 255
-0.29301429 -0.27974573 1.161 55 126 184 255
-0.29080287 -0.27974573 1.161 55 126 184 255
-0.28958574 -0.28070953 1.1650001 55 126 184 255
-0.28835332 -0.28167334 1.169 55 126 184 255
-0.28710574 -0.28263715 1.1730001 55 126 184 255
-0.28584287 -0.28360096 1.177 55 126 184 255
-0.28456479 -0.28456479 1.1810001 55 126 184 255
-0.28518382 -0.28745618 1.1930001 55 126 184 255
-0.28386 -0.28841999 1.197 55 126 184 255
-0.28158 -0.28841999 1.197 55 126 184 255
-0.28046665 -0.28962478 1.202 55 126 184 255
-0.27817714 -0.28962478 1.202 55 126 184 255
-0.27680573 -0.29058859 1.2060001 55 126 184 255
-0.27450857 -0.29058859 1.2060001 55 126 184 255
-0.27221143 -0.29058859 1.2060001 55 126 184 255
-0.27080953 -0.29155239 1.21 55 126 184 255
-0.26850477 -0.29155239 1.21 55 126 184 255
-0.26708001 -0.2925162 1.2140001 55 126 184 255
-0.26585811 -0.29372096 1.2190001 55 126 184 255
-0.26353619 -0.29372096 1.2190001 55 126 184 255
-0.26121432 -0.29372096 1.2190001 55 126 184 255
-0.2597419 -0.29468477 1.223 55 126 184 255
-0.2574124 -0.29468477 1.223 55 126 184 255
-0.25508285 -0.29468477 1.223 55 126 184 255
-0.25192666 -0.29372096 1.2190001 55 126 184 255
-0.24960478 -0.29372096 1.2190001 55 126 184 255
-0.24728289 -0.29372096 1.2190001 55 126 184 255
-0.24496096 -0.29372096 1.2190001 55 126 184 255
-0.24263906 -0.29372096 1.2190001 55 126 184 255
-0.23854285 -0.29155239 1.21 55 126 184 255
-0.23545715 -0.29058859 1.2060001 55 126 184 255
-0.23316002 -0.29058859 1.2060001 55 126 184 255
-0.22914 -0.28841999 1.197 55 126 184 255
-0.22686 -0.28841999 1.197 55 126 184 255
-0.22458 -0.28841999 1.197 55 126 184 255
-0.29402384 -0.27849048 1.1650001 55 126 184 255
-0.29080287 -0.27753431 1.161 55 126 184 255
-0.28859141 -0.27753431 1.161 55 126 184 255
-0.28835332 -0.27944666 1.169 55 126 184 255
-0.28710574 -0.2804029 1.1730001 55 126 184 255
-0.28584287 -0.28135905 1.177 55 126 184 255
-0.2855286 -0.28327146 1.1850001 55 126 184 255
-0.28518382 -0.28518382 1.1930001 55 126 184 255
-0.28386 -0.28614002 1.197 55 126 184 255
-0.28275621 -0.28733522 1.202 55 126 184 255
-0.28046665 -0.28733522 1.202 55 126 184 255
-0.27817714 -0.28733522 1.202 55 126 184 255
-0.27680573 -0.28829145 1.2060001 55 126 184 255
-0.27541906 -0.28924763 1.21 55 126 184 255
-0.27311429 -0.28924763 1.21 55 126 184 255
-0.27080953 -0.28924763 1.21 55 126 184 255
-0.2693924 -0.29020384 1.2140001 55 126 184 255
-0.26708001 -0.29020384 1.2140001 55 126 184 255
-0.26585811 -0.29139906 1.2190001 55 126 184 255
-0.26353619 -0.29139906 1.2190001 55 126 184 255
-0.26207143 -0.29235527 1.223 55 126 184 255
-0.2597419 -0.29235527 1.223 55 126 184 255
-0.2593067 -0.2945067 1.2320001 55 126 184 255
-0.25696 -0.2945067 1.2320001 55 126 184 255
-0.25461334 -0.2945067 1.2320001 55 126 184 255
-0.25124288 -0.29331145 1.2270001 55 126 184 255
-0.24890572 -0.29331145 1.2270001 55 126 184 255
-0.24656861 -0.29331145 1.2270001 55 126 184 255
-0.24423145 -0.29331145 1.2270001 55 126 184 255
-0.24110572 -0.29235527 1.223 55 126 184 255
-0.23701908 -0.29020384 1.2140001 55 126 184 255
-0.23470668 -0.29020384 1.2140001 55 126 184 255
-0.23239431 -0.29020384 1.2140001 55 126 184 255
-0.23425144 -0.29546288 1.2360001 55 126 184 255
-0.31785715 -0.29642856 1.25 55 126 184 255
-0.31547618 -0.29642856 1.25 55 126 184 255
-0.29080287 -0.27532285 1.161 55 126 184 255
-0.28859141 -0.27532285 1.161 55 126 184 255
-0.28736669 -0.27627143 1.1650001 55 126 184 255
-0.28906384 -0.28006575 1.1810001 55 126 184 255
-0.28875715 -0.28196287 1.189 55 126 184 255
-0.28745618 -0.28291142 1.1930001 55 126 184 255
-0.28614002 -0.28386 1.197 55 126 184 255
-0.28504571 -0.28504571 1.202 55 126 184 255
-0.28369716 -0.28599432 1.2060001 55 126 184 255
-0.28140002 -0.28599432 1.2060001 55 126 184 255
-0.2809543 -0.28789148 1.2140001 55 126 184 255
-0.27978954 -0.28907716 1.2190001 55 126 184 255
-0.27632955 -0.28789148 1.2140001 55 126 184 255
-0.27401716 -0.28789148 1.2140001 55 126 184 255
-0.27170479 -0.28789148 1.2140001 55 126 184 255
-0.2693924 -0.28789148 1.2140001 55 126 184 255
-0.26818001 -0.28907716 1.2190001 55 126 184 255
-0.26585811 -0.28907716 1.2190001 55 126 184 255
-0.26526573 -0.29097432 1.2270001 55 126 184 255
-0.264 -0.29216003 1.2320001 55 126 184 255
-0.26165336 -0.29216003 1.2320001 55 126 184 255
-0.26014858 -0.29310858 1.2360001 55 126 184 255
-0.25779429 -0.29310858 1.2360001 55 126 184 255
-0.25544 -0.29310858 1.2360001 55 126 184 255
-0.25124288 -0.29097432 1.2270001 55 126 184 255
-0.24890572 -0.29097432 1.2270001 55 126 184 255
-0.24656861 -0.29097432 1.2270001 55 126 184 255
-0.24423145 -0.29097432 1.2270001 55 126 184 255
-0.24288002 -0.29216003 1.2320001 55 126 184 255
-0.24053335 -0.29216003 1.2320001 55 126 184 255
-0.23818669 -0.29216003 1.2320001 55 126 184 255
-0.23660572 -0.29310858 1.2360001 55 126 184 255
-0.23425144 -0.29310858 1.2360001 55 126 184 255
-0.23189715 -0.29310858 1.2360001 55 126 184 255
-0.31785715 -0.29404762 1.25 55 126 184 255
-0.31547618 -0.29404762 1.25 55 126 184 255
-0.29080287 -0.27311143 1.161 55 126 184 255
-0.28859141 -0.27311143 1.161 55 126 184 255
-0.28736669 -0.27405238 1.1650001 55 126 184 255
-0.28906384 -0.27781621 1.1810001 55 126 184 255
-0.28972858 -0.28063905 1.1930001 55 126 184 255
-0.28841999 -0.28158 1.197 55 126 184 255
-0.28614002 -0.28158 1.197 55 126 184 255
-0.28504571 -0.28275621 1.202 55 126 184 255
-0.28369716 -0.28369716 1.2060001 55 126 184 255
-0.28233334 -0.28463808 1.21 55 126 184 255
-0.28211144 -0.28675526 1.2190001 55 126 184 255
-0.28070763 -0.28769621 1.223 55 126 184 255
-0.2783781 -0.28769621 1.223 55 126 184 255
-0.27514574 -0.28675526 1.2190001 55 126 184 255
-0.27282384 -0.28675526 1.2190001 55 126 184 255
-0.27338669 -0.28981334 1.2320001 55 126 184 255
-0.27192003 -0.29075432 1.2360001 55 126 184 255
-0.2706562 -0.29193047 1.2410001 55 126 184 255
-0.26829237 -0.29193047 1.2410001 55 126 184 255
-0.26678571 -0.29287145 1.245 55 126 184 255
-0.26356477 -0.29193047 1.2410001 55 126 184 255
-0.26120096 -0.29193047 1.2410001 55 126 184 255
-0.25883716 -0.29193047 1.2410001 55 126 184 255
-0.25544 -0.29075432 1.2360001 55 126 184 255
-0.25226671 -0.28981334 1.2320001 55 126 184 255
-0.24992001 -0.28981334 1.2320001 55 126 184 255
-0.24757336 -0.28981334 1.2320001 55 126 184 255
-0.2452267 -0.28981334 1.2320001 55 126 184 255
-0.24288002 -0.28981334 1.2320001 55 126 184 255
-0.24131429 -0.29075432 1.2360001 55 126 184 255
-0.23896001 -0.29075432 1.2360001 55 126 184 255
-0.23660572 -0.29075432 1.2360001 55 126 184 255
-0.23425144 -0.29075432 1.2360001 55 126 184 255
-0.2345238 -0.29404762 1.25 55 126 184 255
-0.31785715 -0.29166666 1.25 55 126 184 255
-0.29503334 -0.27276665 1.169 55 126 184 255
-0.29180479 -0.27183336 1.1650001 55 126 184 255
-0.28958574 -0.27183336 1.1650001 55 126 184 255
-0.28835332 -0.27276665 1.169 55 126 184 255
-0.28906384 -0.2755667 1.1810001 55 126 184 255
-0.28875715 -0.27743334 1.189 55 126 184 255
-0.28841999 -0.2793 1.197 55 126 184 255
-0.28614002 -0.2793 1.197 55 126 184 255
-0.28504571 -0.28046665 1.202 55 126 184 255
-0.28463808 -0.28233334 1.21 55 126 184 255
-0.28326669 -0.28326669 1.2140001 55 126 184 255
-0.28303716 -0.28536668 1.223 55 126 184 255
-0.28162575 -0.2863 1.2270001 55 126 184 255
-0.27928859 -0.2863 1.2270001 55 126 184 255
-0.27695146 -0.2863 1.2270001 55 126 184 255
-0.27573335 -0.28746668 1.2320001 55 126 184 255
-0.27338669 -0.28746668 1.2320001 55 126 184 255
-0.27192003 -0.28839999 1.2360001 55 126 184 255
-0.2706562 -0.28956667 1.2410001 55 126 184 255
-0.26915714 -0.29049999 1.245 55 126 184 255
-0.26678571 -0.29049999 1.245 55 126 184 255
-0.2654762 -0.29166666 1.25 55 126 184 255
-0.26309523 -0.29166666 1.25 55 126 184 255
-0.25883716 -0.28956667 1.2410001 55 126 184 255
-0.25647333 -0.28956667 1.2410001 55 126 184 255
-0.25492856 -0.29049999 1.245 55 126 184 255
-0.25357142 -0.29166666 1.25 55 126 184 255
-0.25119048 -0.29166666 1.25 55 126 184 255
-0.24880952 -0.29166666 1.25 55 126 184 255
-0.24366859 -0.28839999 1.2360001 55 126 184 255
-0.24131429 -0.28839999 1.2360001 55 126 184 255
-0.23992667 -0.28956667 1.2410001 55 126 184 255
-0.23756287 -0.28956667 1.2410001 55 126 184 255
-0.23519906 -0.28956667 1.2410001 55 126 184 255
-0.23358572 -0.29049999 1.245 55 126 184 255
-0.23121427 -0.29049999 1.245 55 126 184 255
-0.31895715 -0.28812858 1.245 55 126 184 255
-0.31785715 -0.28928572 1.25 55 126 184 255
-0.29503334 -0.27054 1.169 55 126 184 255
-0.29280668 -0.27054 1.169 55 126 184 255
-0.29058 -0.27054 1.169 55 126 184 255
-0.28835332 -0.27054 1.169 55 126 184 255
-0.28906384 -0.27331716 1.1810001 55 126 184 255
-0.28875715 -0.27516857 1.189 55 126 184 255
-0.28841999 -0.27702001 1.197 55 126 184 255
-0.28614002 -0.27702001 1.197 55 126 184 255
-0.28504571 -0.27817714 1.202 55 126 184 255
-0.28463808 -0.28002858 1.21 55 126 184 255
-0.28443336 -0.28211144 1.2190001 55 126 184 255
-0.28396291 -0.28396291 1.2270001 55 126 184 255
-0.28162575 -0.28396291 1.2270001 55 126 184 255
-0.28042668 -0.28512004 1.2320001 55 126 184 255
-0.27808005 -0.28512004 1.2320001 55 126 184 255
-0.27662858 -0.28604573 1.2360001 55 126 184 255
-0.27427429 -0.28604573 1.2360001 55 126 184 255
-0.27302003 -0.28720286 1.2410001 55 126 184 255
-0.2706562 -0.28720286 1.2410001 55 126 184 255
-0.26915714 -0.28812858 1.245 55 126 184 255
-0.26678571 -0.28812858 1.245 55 126 184 255
-0.26441428 -0.28812858 1.245 55 126 184 255
-0.26309523 -0.28928572 1.25 55 126 184 255
-0.25883716 -0.28720286 1.2410001 55 126 184 255
-0.25647333 -0.28720286 1.2410001 55 126 184 255
-0.25595239 -0.28928572 1.25 55 126 184 255
-0.25357142 -0.28928572 1.25 55 126 184 255
-0.25119048 -0.28928572 1.25 55 126 184 255
-0.24880952 -0.28928572 1.25 55 126 184 255
-0.24642856 -0.28928572 1.25 55 126 184 255
-0.24404761 -0.28928572 1.25 55 126 184 255
-0.24166666 -0.28928572 1.25 55 126 184 255
-0.23928571 -0.28928572 1.25 55 126 184 255
-0.23690476 -0.28928572 1.25 55 126 184 255
-0.23358572 -0.28812858 1.245 55 126 184 255
-0.23121427 -0.28812858 1.245 55 126 184 255
-0.31895715 -0.28575715 1.245 55 126 184 255
-0.31658572 -0.28575715 1.245 55 126 184 255
-0.29503334 -0.26831335 1.169 55 126 184 255
-0.29280668 -0.26831335 1.169 55 126 184 255
-0.29058 -0.26831335 1.169 55 126 184 255
-0.28835332 -0.26831335 1.169 55 126 184 255
-0.28906384 -0.27106765 1.1810001 55 126 184 255
-0.28875715 -0.27290383 1.189 55 126 184 255
-0.28841999 -0.27474001 1.197 55 126 184 255
-0.28733522 -0.27588761 1.202 55 126 184 255
-0.28599432 -0.27680573 1.2060001 55 126 184 255
-0.28557909 -0.27864194 1.2140001 55 126 184 255
-0.28443336 -0.27978954 1.2190001 55 126 184 255
-0.28396291 -0.28162575 1.2270001 55 126 184 255
-0.28277335 -0.28277335 1.2320001 55 126 184 255
-0.28042668 -0.28277335 1.2320001 55 126 184 255
-0.27898285 -0.28369144 1.2360001 55 126 184 255
-0.27662858 -0.28369144 1.2360001 55 126 184 255
-0.27427429 -0.28369144 1.2360001 55 126 184 255
-0.27302003 -0.28483906 1.2410001 55 126 184 255
-0.2706562 -0.28483906 1.2410001 55 126 184 255
-0.26915714 -0.28575715 1.245 55 126 184 255
-0.26678571 -0.28575715 1.245 55 126 184 255
-0.26441428 -0.28575715 1.245 55 126 184 255
-0.26309523 -0.28690475 1.25 55 126 184 255
-0.26071429 -0.28690475 1.25 55 126 184 255
-0.25833333 -0.28690475 1.25 55 126 184 255
-0.24880952 -0.28690475 1.25 55 126 184 255
-0.24642856 -0.28690475 1.25 55 126 184 255
-0.24404761 -0.28690475 1.25 55 126 184 255
-0.24166666 -0.28690475 1.25 55 126 184 255
-0.23928571 -0.28690475 1.25 55 126 184 255
-0.23690476 -0.28690475 1.25 55 126 184 255
-0.23358572 -0.28575715 1.245 55 126 184 255
-0.23121427 -0.28575715 1.245 55 126 184 255
-0.31895715 -0.28338569 1.245 55 126 184 255
-0.31658572 -0.28338569 1.245 55 126 184 255
-0.31421426 -0.28338569 1.245 55 126 184 255
-0.2958124 -0.26881811 1.1810001 55 126 184 255
-0.29356289 -0.26881811 1.1810001 55 126 184 255
-0.29131335 -0.26881811 1.1810001 55 126 184 255
-0.29004288 -0.2697286 1.1850001 55 126 184 255
-0.28972858 -0.27154952 1.1930001 55 126 184 255
-0.28841999 -0.27246001 1.197 55 126 184 255
-0.28733522 -0.2735981 1.202 55 126 184 255
-0.28599432 -0.27450857 1.2060001 55 126 184 255
-0.28463808 -0.27541906 1.21 55 126 184 255
-0.28443336 -0.27746764 1.2190001 55 126 184 255
-0.28396291 -0.27928859 1.2270001 55 126 184 255
-0.28277335 -0.28042668 1.2320001 55 126 184 255
-0.28133717 -0.28133717 1.2360001 55 126 184 255
-0.27898285 -0.28133717 1.2360001 55 126 184 255
-0.27662858 -0.28133717 1.2360001 55 126 184 255
-0.27538383 -0.28247523 1.2410001 55 126 184 255
-0.27302003 -0.28247523 1.2410001 55 126 184 255
-0.27152857 -0.28338569 1.245 55 126 184 255
-0.26915714 -0.28338569 1.245 55 126 184 255
-0.26678571 -0.28338569 1.245 55 126 184 255
-0.26441428 -0.28338569 1.245 55 126 184 255
-0.26309523 -0.28452381 1.25 55 126 184 255
-0.26071429 -0.28452381 1.25 55 126 184 255
-0.25833333 -0.28452381 1.25 55 126 184 255
-0.24166666 -0.28452381 1.25 55 126 184 255
-0.23928571 -0.28452381 1.25 55 126 184 255
-0.23690476 -0.28452381 1.25 55 126 184 255
-0.2345238 -0.28452381 1.25 55 126 184 255
-0.23214285 -0.28452381 1.25 55 126 184 255
-0.2958124 -0.2665686 1.1810001 55 126 184 255
-0.29356289 -0.2665686 1.1810001 55 126 184 255
-0.29131335 -0.2665686 1.1810001 55 126 184 255
-0.29102191 -0.26837429 1.189 55 126 184 255
-0.28972858 -0.26927716 1.1930001 55 126 184 255
-0.28841999 -0.27017999 1.197 55 126 184 255
-0.28733522 -0.27130857 1.202 55 126 184 255
-0.28599432 -0.27221143 1.2060001 55 126 184 255
-0.28463808 -0.27311429 1.21 55 126 184 255
-0.28443336 -0.27514574 1.2190001 55 126 184 255
-0.28396291 -0.27695146 1.2270001 55 126 184 255
-0.28277335 -0.27808005 1.2320001 55 126 184 255
-0.28133717 -0.27898285 1.2360001 55 126 184 255
-0.28011143 -0.28011143 1.2410001 55 126 184 255
-0.27774763 -0.28011143 1.2410001 55 126 184 255
-0.2762714 -0.28101429 1.245 55 126 184 255
-0.2739 -0.28101429 1.245 55 126 184 255
-0.27152857 -0.28101429 1.245 55 126 184 255
-0.26915714 -0.28101429 1.245 55 126 184 255
-0.26678571 -0.28101429 1.245 55 126 184 255
-0.2654762 -0.28214285 1.25 55 126 184 255
-0.26309523 -0.28214285 1.25 55 126 184 255
-0.26071429 -0.28214285 1.25 55 126 184 255
-0.25833333 -0.28214285 1.25 55 126 184 255
-0.23928571 -0.28214285 1.25 55 126 184 255
-0.23690476 -0.28214285 1.25 55 126 184 255
-0.29681432 -0.26521429 1.1850001 55 126 184 255
-0.29455715 -0.26521429 1.1850001 55 126 184 255
-0.29328665 -0.26610953 1.189 55 126 184 255
-0.29102191 -0.26610953 1.189 55 126 184 255
-0.29070002 -0.26790002 1.197 55 126 184 255
-0.28841999 -0.26790002 1.197 55 126 184 255
-0.28733522 -0.26901904 1.202 55 126 184 255
-0.28599432 -0.26991433 1.2060001 55 126 184 255
-0.28557909 -0.27170479 1.2140001 55 126 184 255
-0.28536668 -0.27371904 1.223 55 126 184 255
-0.28512004 -0.27573335 1.2320001 55 126 184 255
-0.28483906 -0.27774763 1.2410001 55 126 184 255
-0.28247523 -0.27774763 1.2410001 55 126 184 255
-0.28011143 -0.27774763 1.2410001 55 126 184 255
-0.27864286 -0.27864286 1.245 55 126 184 255
-0.2762714 -0.27864286 1.245 55 126 184 255
-0.27500001 -0.27976191 1.25 55 126 184 255
-0.27261904 -0.27976191 1.25 55 126 184 255
-0.2702381 -0.27976191 1.25 55 126 184 255
-0.26785713 -0.27976191 1.25 55 126 184 255
-0.2654762 -0.27976191 1.25 55 126 184 255
-0.26309523 -0.27976191 1.25 55 126 184 255
-0.26071429 -0.27976191 1.25 55 126 184 255
-0.25833333 -0.27976191 1.25 55 126 184 255
-0.25595239 -0.27976191 1.25 55 126 184 255
-0.24642856 -0.27976191 1.25 55 126 184 255
-0.24404761 -0.27976191 1.25 55 126 184 255
-0.24166666 -0.27976191 1.25 55 126 184 255
-0.23928571 -0.27976191 1.25 55 126 184 255
-0.23690476 -0.27976191 1.25 55 126 184 255
-0.29681432 -0.26295716 1.1850001 55 126 184 255
-0.29455715 -0.26295716 1.1850001 55 126 184 255
-0.29328665 -0.26384476 1.189 55 126 184 255
-0.29200095 -0.26473239 1.1930001 55 126 184 255
-0.29070002 -0.26561999 1.197 55 126 184 255
-0.28962478 -0.26672953 1.202 55 126 184 255
-0.28829145 -0.26761717 1.2060001 55 126 184 255
-0.28694287 -0.26850477 1.21 55 126 184 255
-0.28675526 -0.27050194 1.2190001 55 126 184 255
-0.28536668 -0.27138954 1.223 55 126 184 255
-0.28604573 -0.27427429 1.2360001 55 126 184 255
-0.28575715 -0.2762714 1.245 55 126 184 255
-0.28338569 -0.2762714 1.245 55 126 184 255
-0.28101429 -0.2762714 1.245 55 126 184 255
-0.27864286 -0.2762714 1.245 55 126 184 255
-0.27500001 -0.27738094 1.25 55 126 184 255
-0.27261904 -0.27738094 1.25 55 126 184 255
-0.2702381 -0.27738094 1.25 55 126 184 255
-0.26785713 -0.27738094 1.25 55 126 184 255
-0.2654762 -0.27738094 1.25 55 126 184 255
-0.26309523 -0.27738094 1.25 55 126 184 255
-0.26071429 -0.27738094 1.25 55 126 184 255
-0.25833333 -0.27738094 1.25 55 126 184 255
-0.25595239 -0.27738094 1.25 55 126 184 255
-0.24642856 -0.27738094 1.25 55 126 184 255
-0.24404761 -0.27738094 1.25 55 126 184 255
-0.24166666 -0.27738094 1.25 55 126 184 255
-0.23928571 -0.27738094 1.25 55 126 184 255
-0.23690476 -0.27738094 1.25 55 126 184 255
-0.2345238 -0.27738094 1.25 55 126 184 255
-0.29753998 -0.26334003 1.197 55 126 184 255
-0.29526001 -0.26334003 1.197 55 126 184 255
-0.29297999 -0.26334003 1.197 55 126 184 255
-0.29191428 -0.26444 1.202 55 126 184 255
-0.28962478 -0.26444 1.202 55 126 184 255
-0.28829145 -0.26532003 1.2060001 55 126 184 255
-0.28694287 -0.26620001 1.21 55 126 184 255
-0.28557909 -0.26708001 1.2140001 55 126 184 255
-0.2863 -0.26994005 1.2270001 55 126 184 255
-0.28604573 -0.27192003 1.2360001 55 126 184 255
-0.28575715 -0.2739 1.245 55 126 184 255
-0.28338569 -0.2739 1.245 55 126 184 255
-0.28101429 -0.2739 1.245 55 126 184 255
-0.27864286 -0.2739 1.245 55 126 184 255
-0.2654762 -0.27500001 1.25 55 126 184 255
-0.26309523 -0.27500001 1.25 55 126 184 255
-0.26071429 -0.27500001 1.25 55 126 184 255
-0.25833333 -0.27500001 1.25 55 126 184 255
-0.25595239 -0.27500001 1.25 55 126 184 255
-0.25119048 -0.27500001 1.25 55 126 184 255
-0.24880952 -0.27500001 1.25 55 126 184 255
-0.24642856 -0.27500001 1.25 55 126 184 255
-0.24404761 -0.27500001 1.25 55 126 184 255
-0.29526001 -0.26106 1.197 55 126 184 255
-0.29297999 -0.26106 1.197 55 126 184 255
-0.29191428 -0.26215047 1.202 55 126 184 255
-0.29058859 -0.26302287 1.2060001 55 126 184 255
-0.28829145 -0.26302287 1.2060001 55 126 184 255
-0.28694287 -0.26389524 1.21 55 126 184 255
-0.28557909 -0.26476762 1.2140001 55 126 184 255
-0.2863 -0.26760289 1.2270001 55 126 184 255
-0.28720286 -0.2706562 1.2410001 55 126 184 255
-0.28575715 -0.27152857 1.245 55 126 184 255
-0.25595239 -0.27261904 1.25 55 126 184 255
-0.25357142 -0.27261904 1.25 55 126 184 255
-0.25119048 -0.27261904 1.25 55 126 184 255
-0.24880952 -0.27261904 1.25 55 126 184 255
-0.24642856 -0.27261904 1.25 55 126 184 255
-0.24404761 -0.27261904 1.25 55 126 184 255
-0.24166666 -0.27261904 1.25 55 126 184 255
-0.23928571 -0.27261904 1.25 55 126 184 255
-0.31184286 -0.26915714 1.245 55 126 184 255
-0.30947143 -0.26915714 1.245 55 126 184 255
-0.29649332 -0.25986096 1.202 55 126 184 255
-0.29420382 -0.25986096 1.202 55 126 184 255
-0.29191428 -0.25986096 1.202 55 126 184 255
-0.29155239 -0.26159048 1.21 55 126 184 255
-0.28924763 -0.26159048 1.21 55 126 184 255
-0.28694287 -0.26159048 1.21 55 126 184 255
-0.28557909 -0.26245525 1.2140001 55 126 184 255
-0.2863 -0.26526573 1.2270001 55 126 184 255
-0.24404761 -0.2702381 1.25 55 126 184 255
-0.24166666 -0.2702381 1.25 55 126 184 255
-0.23928571 -0.2702381 1.25 55 126 184 255
-0.31184286 -0.26678571 1.245 55 126 184 255
-0.30947143 -0.26678571 1.245 55 126 184 255
-0.3071 -0.26678571 1.245 55 126 184 255
-0.30472857 -0.26678571 1.245 55 126 184 255
-0.29385716 -0.25928572 1.21 55 126 184 255
-0.29155239 -0.25928572 1.21 55 126 184 255
-0.28924763 -0.25928572 1.21 55 126 184 255
-0.28694287 -0.25928572 1.21 55 126 184 255
-0.28981334 -0.264 1.2320001 55 126 184 255
-0.28746668 -0.264 1.2320001 55 126 184 255
-0.31421426 -0.26441428 1.245 55 126 184 255
-0.30958858 -0.26250288 1.2360001 55 126 184 255
-0.30723429 -0.26250288 1.2360001 55 126 184 255
-0.30488002 -0.26250288 1.2360001 55 126 184 255
-0.30252573 -0.26250288 1.2360001 55 126 184 255
-0.29998574 -0.26441428 1.245 55 126 184 255
-0.29761428 -0.26441428 1.245 55 126 184 255
-0.29524285 -0.26441428 1.245 55 126 184 255
-0.29287145 -0.26441428 1.245 55 126 184 255
-0.29049999 -0.26441428 1.245 55 126 184 255
-0.28812858 -0.26441428 1.245 55 126 184 255
-0.28575715 -0.26441428 1.245 55 126 184 255
-0.24544285 -0.26441428 1.245 55 126 184 255
-0.24307144 -0.26441428 1.245 55 126 184 255
-0.24069999 -0.26441428 1.245 55 126 184 255
-0.23065524 -0.26929906 1.268 55 126 184 255
-0.31421426 -0.26204285 1.245 55 126 184 255
-0.30958858 -0.26014858 1.2360001 55 126 184 255
-0.30723429 -0.26014858 1.2360001 55 126 184 255
-0.30488002 -0.26014858 1.2360001 55 126 184 255
-0.30252573 -0.26014858 1.2360001 55 126 184 255
-0.30235714 -0.26204285 1.245 55 126 184 255
-0.2942943 -0.26120096 1.2410001 55 126 184 255
-0.29193047 -0.26120096 1.2410001 55 126 184 255
-0.28956667 -0.26120096 1.2410001 55 126 184 255
-0.28812858 -0.26204285 1.245 55 126 184 255
-0.28575715 -0.26204285 1.245 55 126 184 255
-0.25018573 -0.26204285 1.245 55 126 184 255
-0.24781427 -0.26204285 1.245 55 126 184 255
-0.24544285 -0.26204285 1.245 55 126 184 255
-0.24307144 -0.26204285 1.245 55 126 184 255
-0.24069999 -0.26204285 1.245 55 126 184 255
-0.23065524 -0.26688379 1.268 55 126 184 255
-0.31084096 -0.25883716 1.2410001 55 126 184 255
-0.30723429 -0.25779429 1.2360001 55 126 184 255
-0.30488002 -0.25779429 1.2360001 55 126 184 255
-0.30472857 -0.25967142 1.245 55 126 184 255
-0.30235714 -0.25967142 1.245 55 126 184 255
-0.2942943 -0.25883716 1.2410001 55 126 184 255
-0.29193047 -0.25883716 1.2410001 55 126 184 255
-0.28956667 -0.25883716 1.2410001 55 126 184 255
-0.25018573 -0.25967142 1.245 55 126 184 255
-0.24781427 -0.25967142 1.245 55 126 184 255
-0.24544285 -0.25967142 1.245 55 126 184 255
-0.24307144 -0.25967142 1.245 55 126 184 255
-0.23307048 -0.26446858 1.268 55 126 184 255
-0.30847713 -0.25647333 1.2410001 55 126 184 255
-0.30611333 -0.25647333 1.2410001 55 126 184 255
-0.23307048 -0.26205334 1.268 55 126 184 255
-0.2395581 -0.24678098 1.2640001 55 126 184 255
0 0 0 1 0 0 0 1 0 0 0 1 0 0 0 0 0 850 1 0 0
