ply
format ascii 1.0
comment PCL generated
element vertex 103
property float x
property float y
property float z
property uchar red
property uchar green
property uchar blue
property uchar alpha
element camera 1
property float view_px
property float view_py
property float view_pz
property float x_axisx
property float x_axisy
property float x_axisz
property float y_axisx
property float y_axisy
property float y_axisz
property float z_axisx
property float z_axisy
property float z_axisz
property float focal
property float scalex
property float scaley
property float centerx
property float centery
property int viewportx
property int viewporty
property float k1
property float k2
end_header
0.020177143 0.037297145 0.64200002 0 101 255 255
0.021400001 0.037297145 0.64200002 0 101 255 255
0.020145716 0.038460001 0.64100003 0 101 255 255
0.021366667 0.038460001 0.64100003 0 101 255 255
0.020145716 0.039680954 0.64100003 0 101 255 255
0.021366667 0.039680954 0.64100003 0 101 255 255
0.020145716 0.040901907 0.64100003 0 101 255 255
0.021366667 0.040901907 0.64100003 0 101 255 255
0.020019999 0.041860003 0.63700002 0 101 255 255
0.021233333 0.041860003 0.63700002 0 101 255 255
0.022446666 0.041860003 0.63700002 0 101 255 255
0.02366 0.041860003 0.63700002 0 101 255 255
0.019988572 0.043005716 0.63600004 0 101 255 255
0.021200001 0.043005716 0.63600004 0 101 255 255
0.022446666 0.043073334 0.63700002 0 101 255 255
0.02366 0.043073334 0.63700002 0 101 255 255
0.024873333 0.043073334 0.63700002 0 101 255 255
0.026250478 0.043343812 0.64100003 0 101 255 255
0.027557142 0.043479048 0.64300001 0 101 255 255
0.028916191 0.043681905 0.64600003 0 101 255 255
0.030193334 0.043749522 0.64700001 0 101 255 255
0.031522859 0.043884765 0.64900005 0 101 255 255
0.032910477 0.044087619 0.65200001 0 101 255 255
0.034152381 0.044087619 0.65200001 0 101 255 255
0.035394285 0.044087619 0.65200001 0 101 255 255
0.036692385 0.04415524 0.65300006 0 101 255 255
0.01874762 0.044147622 0.63500005 0 101 255 255
0.019957144 0.044147622 0.63500005 0 101 255 255
0.021166669 0.044147622 0.63500005 0 101 255 255
0.022376193 0.044147622 0.63500005 0 101 255 255
0.023622857 0.044217143 0.63600004 0 101 255 255
0.024873333 0.044286668 0.63700002 0 101 255 255
0.026250478 0.044564765 0.64100003 0 101 255 255
0.027557142 0.044703808 0.64300001 0 101 255 255
0.028826667 0.044773336 0.64400005 0 101 255 255
0.030146668 0.044912383 0.64600003 0 101 255 255
0.031522859 0.045120955 0.64900005 0 101 255 255
0.032759052 0.045120955 0.64900005 0 101 255 255
0.034152381 0.045329522 0.65200001 0 101 255 255
0.035394285 0.045329522 0.65200001 0 101 255 255
0.036692385 0.045399051 0.65300006 0 101 255 255
0.018659048 0.045142859 0.63200003 0 101 255 255
0.019862859 0.045142859 0.63200003 0 101 255 255
0.021066668 0.045142859 0.63200003 0 101 255 255
0.022340951 0.045285713 0.634 0 101 255 255
0.023585714 0.045357145 0.63500005 0 101 255 255
0.024912382 0.045571432 0.63800001 0 101 255 255
0.026250478 0.045785714 0.64100003 0 101 255 255
0.027557142 0.045928571 0.64300001 0 101 255 255
0.028826667 0.046000004 0.64400005 0 101 255 255
0.030146668 0.046142858 0.64600003 0 101 255 255
0.031425714 0.046214286 0.64700001 0 101 255 255
0.032759052 0.046357144 0.64900005 0 101 255 255
0.034047622 0.046428576 0.65000004 0 101 255 255
0.035448574 0.046642862 0.65300006 0 101 255 255
0.018659048 0.046346668 0.63200003 0 101 255 255
0.019862859 0.046346668 0.63200003 0 101 255 255
0.021066668 0.046346668 0.63200003 0 101 255 255
0.022270476 0.046346668 0.63200003 0 101 255 255
0.023548571 0.046493333 0.634 0 101 255 255
0.024912382 0.046786666 0.63800001 0 101 255 255
0.026209526 0.046933334 0.64000005 0 101 255 255
0.027514286 0.047080003 0.64200002 0 101 255 255
0.028826667 0.047226671 0.64400005 0 101 255 255
0.030146668 0.047373332 0.64600003 0 101 255 255
0.031425714 0.047446668 0.64700001 0 101 255 255
0.032708574 0.04752 0.648 0 101 255 255
0.034047622 0.047666669 0.65000004 0 101 255 255
0.035394285 0.047813334 0.65200001 0 101 255 255
0.036692385 0.047886673 0.65300006 0 101 255 255
0.018659048 0.047550477 0.63200003 0 101 255 255
0.019862859 0.047550477 0.63200003 0 101 255 255
0.021066668 0.047550477 0.63200003 0 101 255 255
0.022270476 0.047550477 0.63200003 0 101 255 255
0.023548571 0.047700949 0.634 0 101 255 255
0.024912382 0.048001904 0.63800001 0 101 255 255
0.02612762 0.048001904 0.63800001 0 101 255 255
0.027471429 0.048227623 0.64100003 0 101 255 255
0.028781906 0.048378095 0.64300001 0 101 255 255
0.030053336 0.048453335 0.64400005 0 101 255 255
0.031425714 0.04867905 0.64700001 0 101 255 255
0.032708574 0.048754286 0.648 0 101 255 255
0.034047622 0.048904765 0.65000004 0 101 255 255
0.035394285 0.049055237 0.65200001 0 101 255 255
0.036692385 0.049130481 0.65300006 0 101 255 255
0.01742762 0.048677146 0.63100004 0 101 255 255
0.018629525 0.048677146 0.63100004 0 101 255 255
0.019862859 0.048754286 0.63200003 0 101 255 255
0.021066668 0.048754286 0.63200003 0 101 255 255
0.022270476 0.048754286 0.63200003 0 101 255 255
0.023548571 0.048908573 0.634 0 101 255 255
0.024873333 0.049139999 0.63700002 0 101 255 255
0.026086668 0.049139999 0.63700002 0 101 255 255
0.027428573 0.049371433 0.64000005 0 101 255 255
0.028737145 0.049525715 0.64200002 0 101 255 255
0.030053336 0.049680006 0.64400005 0 101 255 255
0.031425714 0.049911428 0.64700001 0 101 255 255
0.032708574 0.049988572 0.648 0 101 255 255
0.01742762 0.049879052 0.63100004 0 101 255 255
0.018629525 0.049879052 0.63100004 0 101 255 255
0.019862859 0.049958095 0.63200003 0 101 255 255
0.021066668 0.049958095 0.63200003 0 101 255 255
0.022270476 0.049958095 0.63200003 0 101 255 255
0 0 0 1 0 0 0 1 0 0 0 1 0 0 0 0 0 103 1 0 0
