ply
format ascii 1.0
comment PCL generated
element vertex 967
property float x
property float y
property float z
property uchar red
property uchar green
property uchar blue
property uchar alpha
element camera 0
property float view_px
property float view_py
property float view_pz
property float x_axisx
property float x_axisy
property float x_axisz
property float y_axisx
property float y_axisy
property float y_axisz
property float z_axisx
property float z_axisy
property float z_axisz
property float focal
property float scalex
property float scaley
property float centerx
property float centery
property int viewportx
property int viewporty
property float k1
property float k2
end_header
0.07531143 -0.023936192 0.61300004 77 175 74 255
0.076479048 -0.023936192 0.61300004 77 175 74 255
0.077646673 -0.023936192 0.61300004 77 175 74 255
0.07881429 -0.023936192 0.61300004 77 175 74 255
0.079981908 -0.023936192 0.61300004 77 175 74 255
0.081149533 -0.023936192 0.61300004 77 175 74 255
0.082317151 -0.023936192 0.61300004 77 175 74 255
0.083484761 -0.023936192 0.61300004 77 175 74 255
0.084652379 -0.023936192 0.61300004 77 175 74 255
0.085820004 -0.023936192 0.61300004 77 175 74 255
0.086987622 -0.023936192 0.61300004 77 175 74 255
0.08815524 -0.023936192 0.61300004 77 175 74 255
0.089322865 -0.023936192 0.61300004 77 175 74 255
0.090490483 -0.023936192 0.61300004 77 175 74 255
0.091807619 -0.02397524 0.61400002 77 175 74 255
0.093128577 -0.024014285 0.61500001 77 175 74 255
0.094300002 -0.024014285 0.61500001 77 175 74 255
0.095471427 -0.024014285 0.61500001 77 175 74 255
0.096642852 -0.024014285 0.61500001 77 175 74 255
0.097973339 -0.024053335 0.61600006 77 175 74 255
0.099468574 -0.02413143 0.61800003 77 175 74 255
0.10064572 -0.02413143 0.61800003 77 175 74 255
0.10182286 -0.02413143 0.61800003 77 175 74 255
0.10300001 -0.02413143 0.61800003 77 175 74 255
0.10417714 -0.02413143 0.61800003 77 175 74 255
0.10552476 -0.024170477 0.61900002 77 175 74 255
0.10670381 -0.024170477 0.61900002 77 175 74 255
0.10788286 -0.024170477 0.61900002 77 175 74 255
0.10906191 -0.024170477 0.61900002 77 175 74 255
0.11024096 -0.024170477 0.61900002 77 175 74 255
0.11142001 -0.024170477 0.61900002 77 175 74 255
0.11259905 -0.024170477 0.61900002 77 175 74 255
0.1137781 -0.024170477 0.61900002 77 175 74 255
0.11514286 -0.024209524 0.62 77 175 74 255
0.11632381 -0.024209524 0.62 77 175 74 255
0.1176943 -0.024248574 0.62100005 77 175 74 255
0.11906858 -0.024287619 0.62200004 77 175 74 255
0.12025334 -0.024287619 0.62200004 77 175 74 255
0.038257144 -0.022954287 0.61800003 77 175 74 255
0.039434288 -0.022954287 0.61800003 77 175 74 255
0.040611431 -0.022954287 0.61800003 77 175 74 255
0.041788574 -0.022954287 0.61800003 77 175 74 255
0.042826667 -0.022880001 0.61600006 77 175 74 255
0.043928571 -0.022842858 0.61500001 77 175 74 255
0.0451 -0.022842858 0.61500001 77 175 74 255
0.046196189 -0.022805715 0.61400002 77 175 74 255
0.047288574 -0.022768572 0.61300004 77 175 74 255
0.048456192 -0.022768572 0.61300004 77 175 74 255
0.049542859 -0.022731431 0.61200005 77 175 74 255
0.050542857 -0.022657143 0.61000001 77 175 74 255
0.051704761 -0.022657143 0.61000001 77 175 74 255
0.052866668 -0.022657143 0.61000001 77 175 74 255
0.054028571 -0.022657143 0.61000001 77 175 74 255
0.055190478 -0.022657143 0.61000001 77 175 74 255
0.056537148 -0.022731431 0.61200005 77 175 74 255
0.057891432 -0.022805715 0.61400002 77 175 74 255
0.059060954 -0.022805715 0.61400002 77 175 74 255
0.060230475 -0.022805715 0.61400002 77 175 74 255
0.0614 -0.022805715 0.61400002 77 175 74 255
0.062569529 -0.022805715 0.61400002 77 175 74 255
0.063739046 -0.022805715 0.61400002 77 175 74 255
0.065014288 -0.022842858 0.61500001 77 175 74 255
0.066078097 -0.022805715 0.61400002 77 175 74 255
0.067247622 -0.022805715 0.61400002 77 175 74 255
0.068417147 -0.022805715 0.61400002 77 175 74 255
0.069586664 -0.022805715 0.61400002 77 175 74 255
0.070756197 -0.022805715 0.61400002 77 175 74 255
0.071925715 -0.022805715 0.61400002 77 175 74 255
0.07309524 -0.022805715 0.61400002 77 175 74 255
0.074143812 -0.022768572 0.61300004 77 175 74 255
0.07531143 -0.022768572 0.61300004 77 175 74 255
0.076479048 -0.022768572 0.61300004 77 175 74 255
0.077646673 -0.022768572 0.61300004 77 175 74 255
0.07881429 -0.022768572 0.61300004 77 175 74 255
0.079981908 -0.022768572 0.61300004 77 175 74 255
0.081149533 -0.022768572 0.61300004 77 175 74 255
0.082317151 -0.022768572 0.61300004 77 175 74 255
0.083484761 -0.022768572 0.61300004 77 175 74 255
0.084652379 -0.022768572 0.61300004 77 175 74 255
0.085820004 -0.022768572 0.61300004 77 175 74 255
0.086987622 -0.022768572 0.61300004 77 175 74 255
0.08815524 -0.022768572 0.61300004 77 175 74 255
0.089177154 -0.022731431 0.61200005 77 175 74 255
0.090342864 -0.022731431 0.61200005 77 175 74 255
0.0916581 -0.022768572 0.61300004 77 175 74 255
0.092977151 -0.022805715 0.61400002 77 175 74 255
0.094146669 -0.022805715 0.61400002 77 175 74 255
0.095471427 -0.022842858 0.61500001 77 175 74 255
0.096642852 -0.022842858 0.61500001 77 175 74 255
0.097814284 -0.022842858 0.61500001 77 175 74 255
0.099146679 -0.022880001 0.61600006 77 175 74 255
0.10032 -0.022880001 0.61600006 77 175 74 255
0.10149334 -0.022880001 0.61600006 77 175 74 255
0.10266668 -0.022880001 0.61600006 77 175 74 255
0.10417714 -0.022954287 0.61800003 77 175 74 255
0.10535429 -0.022954287 0.61800003 77 175 74 255
0.10653143 -0.022954287 0.61800003 77 175 74 255
0.10770858 -0.022954287 0.61800003 77 175 74 255
0.10888571 -0.022954287 0.61800003 77 175 74 255
0.11006287 -0.022954287 0.61800003 77 175 74 255
0.11124 -0.022954287 0.61800003 77 175 74 255
0.11259905 -0.022991428 0.61900002 77 175 74 255
0.1137781 -0.022991428 0.61900002 77 175 74 255
0.11514286 -0.023028571 0.62 77 175 74 255
0.11632381 -0.023028571 0.62 77 175 74 255
0.1176943 -0.023065716 0.62100005 77 175 74 255
0.11906858 -0.023102859 0.62200004 77 175 74 255
0.12025334 -0.023102859 0.62200004 77 175 74 255
0.1214381 -0.023102859 0.62200004 77 175 74 255
0.038257144 -0.021777144 0.61800003 77 175 74 255
0.039434288 -0.021777144 0.61800003 77 175 74 255
0.040611431 -0.021777144 0.61800003 77 175 74 255
0.041653335 -0.021706669 0.61600006 77 175 74 255
0.042757142 -0.021671429 0.61500001 77 175 74 255
0.043857146 -0.02163619 0.61400002 77 175 74 255
0.045026667 -0.02163619 0.61400002 77 175 74 255
0.046120953 -0.021600954 0.61300004 77 175 74 255
0.047288574 -0.021600954 0.61300004 77 175 74 255
0.048377149 -0.021565715 0.61200005 77 175 74 255
0.049380954 -0.021495238 0.61000001 77 175 74 255
0.050542857 -0.021495238 0.61000001 77 175 74 255
0.051620003 -0.02146 0.60900003 77 175 74 255
0.052780002 -0.02146 0.60900003 77 175 74 255
0.053940002 -0.02146 0.60900003 77 175 74 255
0.055100001 -0.02146 0.60900003 77 175 74 255
0.056352381 -0.021495238 0.61000001 77 175 74 255
0.057797145 -0.021600954 0.61300004 77 175 74 255
0.059060954 -0.02163619 0.61400002 77 175 74 255
0.060230475 -0.02163619 0.61400002 77 175 74 255
0.0614 -0.02163619 0.61400002 77 175 74 255
0.062569529 -0.02163619 0.61400002 77 175 74 255
0.063739046 -0.02163619 0.61400002 77 175 74 255
0.064908572 -0.02163619 0.61400002 77 175 74 255
0.06597048 -0.021600954 0.61300004 77 175 74 255
0.067138098 -0.021600954 0.61300004 77 175 74 255
0.068305716 -0.021600954 0.61300004 77 175 74 255
0.069586664 -0.02163619 0.61400002 77 175 74 255
0.070756197 -0.02163619 0.61400002 77 175 74 255
0.071808569 -0.021600954 0.61300004 77 175 74 255
0.072976194 -0.021600954 0.61300004 77 175 74 255
0.074143812 -0.021600954 0.61300004 77 175 74 255
0.07531143 -0.021600954 0.61300004 77 175 74 255
0.076479048 -0.021600954 0.61300004 77 175 74 255
0.077646673 -0.021600954 0.61300004 77 175 74 255
0.07881429 -0.021600954 0.61300004 77 175 74 255
0.079981908 -0.021600954 0.61300004 77 175 74 255
0.081149533 -0.021600954 0.61300004 77 175 74 255
0.082317151 -0.021600954 0.61300004 77 175 74 255
0.083484761 -0.021600954 0.61300004 77 175 74 255
0.084652379 -0.021600954 0.61300004 77 175 74 255
0.085820004 -0.021600954 0.61300004 77 175 74 255
0.086987622 -0.021600954 0.61300004 77 175 74 255
0.08815524 -0.021600954 0.61300004 77 175 74 255
0.089177154 -0.021565715 0.61200005 77 175 74 255
0.090342864 -0.021565715 0.61200005 77 175 74 255
0.0916581 -0.021600954 0.61300004 77 175 74 255
0.092977151 -0.02163619 0.61400002 77 175 74 255
0.094146669 -0.02163619 0.61400002 77 175 74 255
0.095316187 -0.02163619 0.61400002 77 175 74 255
0.096485719 -0.02163619 0.61400002 77 175 74 255
0.097814284 -0.021671429 0.61500001 77 175 74 255
0.098985717 -0.021671429 0.61500001 77 175 74 255
0.10032 -0.021706669 0.61600006 77 175 74 255
0.10132857 -0.021671429 0.61500001 77 175 74 255
0.1025 -0.021671429 0.61500001 77 175 74 255
0.10384001 -0.021706669 0.61600006 77 175 74 255
0.10501334 -0.021706669 0.61600006 77 175 74 255
0.10618667 -0.021706669 0.61600006 77 175 74 255
0.10736001 -0.021706669 0.61600006 77 175 74 255
0.10853334 -0.021706669 0.61600006 77 175 74 255
0.10970668 -0.021706669 0.61600006 77 175 74 255
0.11124 -0.021777144 0.61800003 77 175 74 255
0.11241715 -0.021777144 0.61800003 77 175 74 255
0.11359429 -0.021777144 0.61800003 77 175 74 255
0.11477143 -0.021777144 0.61800003 77 175 74 255
0.11613619 -0.021812381 0.61900002 77 175 74 255
0.11750476 -0.021847619 0.62 77 175 74 255
0.11887715 -0.021882858 0.62100005 77 175 74 255
0.12006001 -0.021882858 0.62100005 77 175 74 255
0.1214381 -0.021918098 0.62200004 77 175 74 255
0.038133338 -0.020533334 0.61600006 77 175 74 255
0.03924286 -0.020499999 0.61500001 77 175 74 255
0.040414285 -0.020499999 0.61500001 77 175 74 255
0.041585714 -0.020499999 0.61500001 77 175 74 255
0.042687621 -0.020466669 0.61400002 77 175 74 255
0.043857146 -0.020466669 0.61400002 77 175 74 255
0.044953335 -0.020433335 0.61300004 77 175 74 255
0.046120953 -0.020433335 0.61300004 77 175 74 255
0.047211431 -0.020400003 0.61200005 77 175 74 255
0.048219047 -0.020333333 0.61000001 77 175 74 255
0.049380954 -0.020333333 0.61000001 77 175 74 255
0.050542857 -0.020333333 0.61000001 77 175 74 255
0.051620003 -0.020300001 0.60900003 77 175 74 255
0.052780002 -0.020300001 0.60900003 77 175 74 255
0.053940002 -0.020300001 0.60900003 77 175 74 255
0.055100001 -0.020300001 0.60900003 77 175 74 255
0.056260001 -0.020300001 0.60900003 77 175 74 255
0.057702862 -0.020400003 0.61200005 77 175 74 255
0.058964763 -0.020433335 0.61300004 77 175 74 255
0.060132384 -0.020433335 0.61300004 77 175 74 255
0.061300006 -0.020433335 0.61300004 77 175 74 255
0.062569529 -0.020466669 0.61400002 77 175 74 255
0.063739046 -0.020466669 0.61400002 77 175 74 255
0.064908572 -0.020466669 0.61400002 77 175 74 255
0.06597048 -0.020433335 0.61300004 77 175 74 255
0.067138098 -0.020433335 0.61300004 77 175 74 255
0.068305716 -0.020433335 0.61300004 77 175 74 255
0.069586664 -0.020466669 0.61400002 77 175 74 255
0.070756197 -0.020466669 0.61400002 77 175 74 255
0.071808569 -0.020433335 0.61300004 77 175 74 255
0.072976194 -0.020433335 0.61300004 77 175 74 255
0.074143812 -0.020433335 0.61300004 77 175 74 255
0.07531143 -0.020433335 0.61300004 77 175 74 255
0.076479048 -0.020433335 0.61300004 77 175 74 255
0.077646673 -0.020433335 0.61300004 77 175 74 255
0.07881429 -0.020433335 0.61300004 77 175 74 255
0.079981908 -0.020433335 0.61300004 77 175 74 255
0.081149533 -0.020433335 0.61300004 77 175 74 255
0.082317151 -0.020433335 0.61300004 77 175 74 255
0.083484761 -0.020433335 0.61300004 77 175 74 255
0.084652379 -0.020433335 0.61300004 77 175 74 255
0.085820004 -0.020433335 0.61300004 77 175 74 255
0.086987622 -0.020433335 0.61300004 77 175 74 255
0.088011436 -0.020400003 0.61200005 77 175 74 255
0.089177154 -0.020400003 0.61200005 77 175 74 255
0.090342864 -0.020400003 0.61200005 77 175 74 255
0.0916581 -0.020433335 0.61300004 77 175 74 255
0.092977151 -0.020466669 0.61400002 77 175 74 255
0.094146669 -0.020466669 0.61400002 77 175 74 255
0.095316187 -0.020466669 0.61400002 77 175 74 255
0.096485719 -0.020466669 0.61400002 77 175 74 255
0.097655237 -0.020466669 0.61400002 77 175 74 255
0.098824769 -0.020466669 0.61400002 77 175 74 255
0.099994287 -0.020466669 0.61400002 77 175 74 255
0.10116381 -0.020466669 0.61400002 77 175 74 255
0.10233334 -0.020466669 0.61400002 77 175 74 255
0.10367143 -0.020499999 0.61500001 77 175 74 255
0.10501334 -0.020533334 0.61600006 77 175 74 255
0.10618667 -0.020533334 0.61600006 77 175 74 255
0.10736001 -0.020533334 0.61600006 77 175 74 255
0.10853334 -0.020533334 0.61600006 77 175 74 255
0.10970668 -0.020533334 0.61600006 77 175 74 255
0.11124 -0.0206 0.61800003 77 175 74 255
0.11241715 -0.0206 0.61800003 77 175 74 255
0.11359429 -0.0206 0.61800003 77 175 74 255
0.11477143 -0.0206 0.61800003 77 175 74 255
0.11613619 -0.020633334 0.61900002 77 175 74 255
0.11731524 -0.020633334 0.61900002 77 175 74 255
0.11849429 -0.020633334 0.61900002 77 175 74 255
0.11967333 -0.020633334 0.61900002 77 175 74 255
0.036960002 -0.01936 0.61600006 77 175 74 255
0.038071431 -0.019328572 0.61500001 77 175 74 255
0.03924286 -0.019328572 0.61500001 77 175 74 255
0.040414285 -0.019328572 0.61500001 77 175 74 255
0.041518096 -0.019297143 0.61400002 77 175 74 255
0.042687621 -0.019297143 0.61400002 77 175 74 255
0.043785717 -0.019265717 0.61300004 77 175 74 255
0.044953335 -0.019265717 0.61300004 77 175 74 255
0.046045717 -0.019234287 0.61200005 77 175 74 255
0.047057141 -0.01917143 0.61000001 77 175 74 255
0.048219047 -0.01917143 0.61000001 77 175 74 255
0.049300004 -0.01914 0.60900003 77 175 74 255
0.05046 -0.01914 0.60900003 77 175 74 255
0.051620003 -0.01914 0.60900003 77 175 74 255
0.052780002 -0.01914 0.60900003 77 175 74 255
0.053940002 -0.01914 0.60900003 77 175 74 255
0.055100001 -0.01914 0.60900003 77 175 74 255
0.056260001 -0.01914 0.60900003 77 175 74 255
0.057702862 -0.019234287 0.61200005 77 175 74 255
0.058964763 -0.019265717 0.61300004 77 175 74 255
0.060132384 -0.019265717 0.61300004 77 175 74 255
0.061300006 -0.019265717 0.61300004 77 175 74 255
0.06246762 -0.019265717 0.61300004 77 175 74 255
0.063635238 -0.019265717 0.61300004 77 175 74 255
0.064908572 -0.019297143 0.61400002 77 175 74 255
0.06597048 -0.019265717 0.61300004 77 175 74 255
0.067138098 -0.019265717 0.61300004 77 175 74 255
0.068305716 -0.019265717 0.61300004 77 175 74 255
0.069473341 -0.019265717 0.61300004 77 175 74 255
0.070640959 -0.019265717 0.61300004 77 175 74 255
0.071808569 -0.019265717 0.61300004 77 175 74 255
0.072976194 -0.019265717 0.61300004 77 175 74 255
0.074143812 -0.019265717 0.61300004 77 175 74 255
0.07531143 -0.019265717 0.61300004 77 175 74 255
0.076479048 -0.019265717 0.61300004 77 175 74 255
0.077520005 -0.019234287 0.61200005 77 175 74 255
0.078685716 -0.019234287 0.61200005 77 175 74 255
0.079981908 -0.019265717 0.61300004 77 175 74 255
0.081149533 -0.019265717 0.61300004 77 175 74 255
0.082317151 -0.019265717 0.61300004 77 175 74 255
0.083484761 -0.019265717 0.61300004 77 175 74 255
0.084652379 -0.019265717 0.61300004 77 175 74 255
0.085820004 -0.019265717 0.61300004 77 175 74 255
0.086987622 -0.019265717 0.61300004 77 175 74 255
0.087867618 -0.019202856 0.611 77 175 74 255
0.089031428 -0.019202856 0.611 77 175 74 255
0.090342864 -0.019234287 0.61200005 77 175 74 255
0.0916581 -0.019265717 0.61300004 77 175 74 255
0.092825718 -0.019265717 0.61300004 77 175 74 255
0.093993343 -0.019265717 0.61300004 77 175 74 255
0.095160954 -0.019265717 0.61300004 77 175 74 255
0.096328571 -0.019265717 0.61300004 77 175 74 255
0.097655237 -0.019297143 0.61400002 77 175 74 255
0.098824769 -0.019297143 0.61400002 77 175 74 255
0.099994287 -0.019297143 0.61400002 77 175 74 255
0.10116381 -0.019297143 0.61400002 77 175 74 255
0.10233334 -0.019297143 0.61400002 77 175 74 255
0.10367143 -0.019328572 0.61500001 77 175 74 255
0.10501334 -0.01936 0.61600006 77 175 74 255
0.10618667 -0.01936 0.61600006 77 175 74 255
0.10736001 -0.01936 0.61600006 77 175 74 255
0.10853334 -0.01936 0.61600006 77 175 74 255
0.10970668 -0.01936 0.61600006 77 175 74 255
0.11088001 -0.01936 0.61600006 77 175 74 255
0.11241715 -0.019422857 0.61800003 77 175 74 255
0.11359429 -0.019422857 0.61800003 77 175 74 255
0.11477143 -0.019422857 0.61800003 77 175 74 255
0.11594857 -0.019422857 0.61800003 77 175 74 255
0.11712572 -0.019422857 0.61800003 77 175 74 255
0.11830286 -0.019422857 0.61800003 77 175 74 255
0.11948001 -0.019422857 0.61800003 77 175 74 255
0.036899999 -0.018157143 0.61500001 77 175 74 255
0.038071431 -0.018157143 0.61500001 77 175 74 255
0.039179049 -0.018127618 0.61400002 77 175 74 255
0.040348571 -0.018127618 0.61400002 77 175 74 255
0.041518096 -0.018127618 0.61400002 77 175 74 255
0.0426181 -0.018098095 0.61300004 77 175 74 255
0.043785717 -0.018098095 0.61300004 77 175 74 255
0.044880003 -0.018068573 0.61200005 77 175 74 255
0.045895241 -0.018009523 0.61000001 77 175 74 255
0.046980001 -0.017980002 0.60900003 77 175 74 255
0.048140001 -0.017980002 0.60900003 77 175 74 255
0.04921905 -0.017950477 0.60800004 77 175 74 255
0.050377145 -0.017950477 0.60800004 77 175 74 255
0.051535241 -0.017950477 0.60800004 77 175 74 255
0.052693337 -0.017950477 0.60800004 77 175 74 255
0.053851429 -0.017950477 0.60800004 77 175 74 255
0.055009525 -0.017950477 0.60800004 77 175 74 255
0.056260001 -0.017980002 0.60900003 77 175 74 255
0.057702862 -0.018068573 0.61200005 77 175 74 255
0.058868576 -0.018068573 0.61200005 77 175 74 255
0.060132384 -0.018098095 0.61300004 77 175 74 255
0.061300006 -0.018098095 0.61300004 77 175 74 255
0.06246762 -0.018098095 0.61300004 77 175 74 255
0.063635238 -0.018098095 0.61300004 77 175 74 255
0.064802863 -0.018098095 0.61300004 77 175 74 255
0.06597048 -0.018098095 0.61300004 77 175 74 255
0.067138098 -0.018098095 0.61300004 77 175 74 255
0.068305716 -0.018098095 0.61300004 77 175 74 255
0.069473341 -0.018098095 0.61300004 77 175 74 255
0.070640959 -0.018098095 0.61300004 77 175 74 255
0.071808569 -0.018098095 0.61300004 77 175 74 255
0.072857149 -0.018068573 0.61200005 77 175 74 255
0.074022859 -0.018068573 0.61200005 77 175 74 255
0.075188577 -0.018068573 0.61200005 77 175 74 255
0.076354288 -0.018068573 0.61200005 77 175 74 255
0.077393331 -0.018039048 0.611 77 175 74 255
0.078557141 -0.018039048 0.611 77 175 74 255
0.079851434 -0.018068573 0.61200005 77 175 74 255
0.081149533 -0.018098095 0.61300004 77 175 74 255
0.082317151 -0.018098095 0.61300004 77 175 74 255
0.08334858 -0.018068573 0.61200005 77 175 74 255
0.08451429 -0.018068573 0.61200005 77 175 74 255
0.085820004 -0.018098095 0.61300004 77 175 74 255
0.086987622 -0.018098095 0.61300004 77 175 74 255
0.087867618 -0.018039048 0.611 77 175 74 255
0.089031428 -0.018039048 0.611 77 175 74 255
0.090342864 -0.018068573 0.61200005 77 175 74 255
0.0916581 -0.018098095 0.61300004 77 175 74 255
0.092825718 -0.018098095 0.61300004 77 175 74 255
0.093993343 -0.018098095 0.61300004 77 175 74 255
0.095160954 -0.018098095 0.61300004 77 175 74 255
0.096328571 -0.018098095 0.61300004 77 175 74 255
0.097655237 -0.018127618 0.61400002 77 175 74 255
0.098824769 -0.018127618 0.61400002 77 175 74 255
0.099994287 -0.018127618 0.61400002 77 175 74 255
0.10116381 -0.018127618 0.61400002 77 175 74 255
0.10233334 -0.018127618 0.61400002 77 175 74 255
0.10367143 -0.018157143 0.61500001 77 175 74 255
0.10484286 -0.018157143 0.61500001 77 175 74 255
0.10601429 -0.018157143 0.61500001 77 175 74 255
0.10736001 -0.01818667 0.61600006 77 175 74 255
0.10835715 -0.018157143 0.61500001 77 175 74 255
0.10952857 -0.018157143 0.61500001 77 175 74 255
0.11088001 -0.01818667 0.61600006 77 175 74 255
0.11205334 -0.01818667 0.61600006 77 175 74 255
0.11322667 -0.01818667 0.61600006 77 175 74 255
0.11440001 -0.01818667 0.61600006 77 175 74 255
0.11594857 -0.018245716 0.61800003 77 175 74 255
0.11712572 -0.018245716 0.61800003 77 175 74 255
0.11830286 -0.018245716 0.61800003 77 175 74 255
0.11948001 -0.018245716 0.61800003 77 175 74 255
0.036899999 -0.016985714 0.61500001 77 175 74 255
0.038071431 -0.016985714 0.61500001 77 175 74 255
0.039179049 -0.016958095 0.61400002 77 175 74 255
0.040282857 -0.016930476 0.61300004 77 175 74 255
0.041450478 -0.016930476 0.61300004 77 175 74 255
0.0426181 -0.016930476 0.61300004 77 175 74 255
0.043714289 -0.016902858 0.61200005 77 175 74 255
0.044733334 -0.01684762 0.61000001 77 175 74 255
0.045895241 -0.01684762 0.61000001 77 175 74 255
0.046980001 -0.01682 0.60900003 77 175 74 255
0.048140001 -0.01682 0.60900003 77 175 74 255
0.04921905 -0.016792383 0.60800004 77 175 74 255
0.050377145 -0.016792383 0.60800004 77 175 74 255
0.051535241 -0.016792383 0.60800004 77 175 74 255
0.052693337 -0.016792383 0.60800004 77 175 74 255
0.053851429 -0.016792383 0.60800004 77 175 74 255
0.055009525 -0.016792383 0.60800004 77 175 74 255
0.056260001 -0.01682 0.60900003 77 175 74 255
0.057514288 -0.01684762 0.61000001 77 175 74 255
0.058868576 -0.016902858 0.61200005 77 175 74 255
0.060034286 -0.016902858 0.61200005 77 175 74 255
0.0612 -0.016902858 0.61200005 77 175 74 255
0.062365722 -0.016902858 0.61200005 77 175 74 255
0.063635238 -0.016930476 0.61300004 77 175 74 255
0.064802863 -0.016930476 0.61300004 77 175 74 255
0.06597048 -0.016930476 0.61300004 77 175 74 255
0.067138098 -0.016930476 0.61300004 77 175 74 255
0.068305716 -0.016930476 0.61300004 77 175 74 255
0.069473341 -0.016930476 0.61300004 77 175 74 255
0.070640959 -0.016930476 0.61300004 77 175 74 255
0.071808569 -0.016930476 0.61300004 77 175 74 255
0.072857149 -0.016902858 0.61200005 77 175 74 255
0.074022859 -0.016902858 0.61200005 77 175 74 255
0.075065717 -0.016875237 0.611 77 175 74 255
0.07622952 -0.016875237 0.611 77 175 74 255
0.077393331 -0.016875237 0.611 77 175 74 255
0.078557141 -0.016875237 0.611 77 175 74 255
0.079720952 -0.016875237 0.611 77 175 74 255
0.081017151 -0.016902858 0.61200005 77 175 74 255
0.082182862 -0.016902858 0.61200005 77 175 74 255
0.08334858 -0.016902858 0.61200005 77 175 74 255
0.08451429 -0.016902858 0.61200005 77 175 74 255
0.085820004 -0.016930476 0.61300004 77 175 74 255
0.086987622 -0.016930476 0.61300004 77 175 74 255
0.087867618 -0.016875237 0.611 77 175 74 255
0.089031428 -0.016875237 0.611 77 175 74 255
0.090342864 -0.016902858 0.61200005 77 175 74 255
0.0916581 -0.016930476 0.61300004 77 175 74 255
0.092825718 -0.016930476 0.61300004 77 175 74 255
0.093993343 -0.016930476 0.61300004 77 175 74 255
0.095160954 -0.016930476 0.61300004 77 175 74 255
0.096328571 -0.016930476 0.61300004 77 175 74 255
0.097655237 -0.016958095 0.61400002 77 175 74 255
0.098824769 -0.016958095 0.61400002 77 175 74 255
0.099994287 -0.016958095 0.61400002 77 175 74 255
0.10116381 -0.016958095 0.61400002 77 175 74 255
0.10233334 -0.016958095 0.61400002 77 175 74 255
0.10367143 -0.016985714 0.61500001 77 175 74 255
0.10484286 -0.016985714 0.61500001 77 175 74 255
0.10601429 -0.016985714 0.61500001 77 175 74 255
0.10718571 -0.016985714 0.61500001 77 175 74 255
0.10835715 -0.016985714 0.61500001 77 175 74 255
0.10952857 -0.016985714 0.61500001 77 175 74 255
0.1107 -0.016985714 0.61500001 77 175 74 255
0.11187143 -0.016985714 0.61500001 77 175 74 255
0.11304285 -0.016985714 0.61500001 77 175 74 255
0.11421429 -0.016985714 0.61500001 77 175 74 255
0.11557335 -0.017013336 0.61600006 77 175 74 255
0.11655714 -0.016985714 0.61500001 77 175 74 255
0.11772858 -0.016985714 0.61500001 77 175 74 255
0.11948001 -0.017068572 0.61800003 77 175 74 255
0.036960002 -0.015840001 0.61600006 77 175 74 255
0.038071431 -0.015814286 0.61500001 77 175 74 255
0.039179049 -0.015788572 0.61400002 77 175 74 255
0.040282857 -0.015762858 0.61300004 77 175 74 255
0.041450478 -0.015762858 0.61300004 77 175 74 255
0.042548575 -0.015737144 0.61200005 77 175 74 255
0.043714289 -0.015737144 0.61200005 77 175 74 255
0.044733334 -0.015685715 0.61000001 77 175 74 255
0.045820002 -0.015660001 0.60900003 77 175 74 255
0.046980001 -0.015660001 0.60900003 77 175 74 255
0.048060957 -0.015634285 0.60800004 77 175 74 255
0.049138099 -0.015608573 0.60700005 77 175 74 255
0.050294291 -0.015608573 0.60700005 77 175 74 255
0.051535241 -0.015634285 0.60800004 77 175 74 255
0.052693337 -0.015634285 0.60800004 77 175 74 255
0.053851429 -0.015634285 0.60800004 77 175 74 255
0.055009525 -0.015634285 0.60800004 77 175 74 255
0.056260001 -0.015660001 0.60900003 77 175 74 255
0.057514288 -0.015685715 0.61000001 77 175 74 255
0.058868576 -0.015737144 0.61200005 77 175 74 255
0.060034286 -0.015737144 0.61200005 77 175 74 255
0.0612 -0.015737144 0.61200005 77 175 74 255
0.062365722 -0.015737144 0.61200005 77 175 74 255
0.063635238 -0.015762858 0.61300004 77 175 74 255
0.064802863 -0.015762858 0.61300004 77 175 74 255
0.06597048 -0.015762858 0.61300004 77 175 74 255
0.067138098 -0.015762858 0.61300004 77 175 74 255
0.068305716 -0.015762858 0.61300004 77 175 74 255
0.069473341 -0.015762858 0.61300004 77 175 74 255
0.070640959 -0.015762858 0.61300004 77 175 74 255
0.071808569 -0.015762858 0.61300004 77 175 74 255
0.072857149 -0.015737144 0.61200005 77 175 74 255
0.074022859 -0.015737144 0.61200005 77 175 74 255
0.075065717 -0.015711429 0.611 77 175 74 255
0.076104768 -0.015685715 0.61000001 77 175 74 255
0.077266671 -0.015685715 0.61000001 77 175 74 255
0.078428566 -0.015685715 0.61000001 77 175 74 255
0.079720952 -0.015711429 0.611 77 175 74 255
0.080884762 -0.015711429 0.611 77 175 74 255
0.082048573 -0.015711429 0.611 77 175 74 255
0.08334858 -0.015737144 0.61200005 77 175 74 255
0.08451429 -0.015737144 0.61200005 77 175 74 255
0.08568 -0.015737144 0.61200005 77 175 74 255
0.086845718 -0.015737144 0.61200005 77 175 74 255
0.087867618 -0.015711429 0.611 77 175 74 255
0.089031428 -0.015711429 0.611 77 175 74 255
0.090342864 -0.015737144 0.61200005 77 175 74 255
0.091508575 -0.015737144 0.61200005 77 175 74 255
0.092674293 -0.015737144 0.61200005 77 175 74 255
0.093840003 -0.015737144 0.61200005 77 175 74 255
0.095160954 -0.015762858 0.61300004 77 175 74 255
0.096328571 -0.015762858 0.61300004 77 175 74 255
0.097496189 -0.015762858 0.61300004 77 175 74 255
0.098663814 -0.015762858 0.61300004 77 175 74 255
0.099831432 -0.015762858 0.61300004 77 175 74 255
0.10099905 -0.015762858 0.61300004 77 175 74 255
0.10216668 -0.015762858 0.61300004 77 175 74 255
0.10350285 -0.015788572 0.61400002 77 175 74 255
0.10467239 -0.015788572 0.61400002 77 175 74 255
0.1058419 -0.015788572 0.61400002 77 175 74 255
0.10701144 -0.015788572 0.61400002 77 175 74 255
0.10818096 -0.015788572 0.61400002 77 175 74 255
0.10935047 -0.015788572 0.61400002 77 175 74 255
0.11052001 -0.015788572 0.61400002 77 175 74 255
0.11168952 -0.015788572 0.61400002 77 175 74 255
0.11285906 -0.015788572 0.61400002 77 175 74 255
0.11402857 -0.015788572 0.61400002 77 175 74 255
0.11538571 -0.015814286 0.61500001 77 175 74 255
0.11655714 -0.015814286 0.61500001 77 175 74 255
0.11772858 -0.015814286 0.61500001 77 175 74 255
0.11948001 -0.015891429 0.61800003 77 175 74 255
0.036899999 -0.014642857 0.61500001 77 175 74 255
0.038009524 -0.014619048 0.61400002 77 175 74 255
0.039179049 -0.014619048 0.61400002 77 175 74 255
0.040282857 -0.014595238 0.61300004 77 175 74 255
0.04138286 -0.014571429 0.61200005 77 175 74 255
0.042479049 -0.014547618 0.611 77 175 74 255
0.043642856 -0.014547618 0.611 77 175 74 255
0.044660002 -0.014500001 0.60900003 77 175 74 255
0.045820002 -0.014500001 0.60900003 77 175 74 255
0.046902861 -0.014476191 0.60800004 77 175 74 255
0.047981907 -0.014452382 0.60700005 77 175 74 255
0.049138099 -0.014452382 0.60700005 77 175 74 255
0.050294291 -0.014452382 0.60700005 77 175 74 255
0.051450484 -0.014452382 0.60700005 77 175 74 255
0.052693337 -0.014476191 0.60800004 77 175 74 255
0.053851429 -0.014476191 0.60800004 77 175 74 255
0.055100001 -0.014500001 0.60900003 77 175 74 255
0.056260001 -0.014500001 0.60900003 77 175 74 255
0.057514288 -0.01452381 0.61000001 77 175 74 255
0.058868576 -0.014571429 0.61200005 77 175 74 255
0.060034286 -0.014571429 0.61200005 77 175 74 255
0.0612 -0.014571429 0.61200005 77 175 74 255
0.062365722 -0.014571429 0.61200005 77 175 74 255
0.063531436 -0.014571429 0.61200005 77 175 74 255
0.064802863 -0.014595238 0.61300004 77 175 74 255
0.06597048 -0.014595238 0.61300004 77 175 74 255
0.067138098 -0.014595238 0.61300004 77 175 74 255
0.068305716 -0.014595238 0.61300004 77 175 74 255
0.069473341 -0.014595238 0.61300004 77 175 74 255
0.070640959 -0.014595238 0.61300004 77 175 74 255
0.071691439 -0.014571429 0.61200005 77 175 74 255
0.072857149 -0.014571429 0.61200005 77 175 74 255
0.073901907 -0.014547618 0.611 77 175 74 255
0.075065717 -0.014547618 0.611 77 175 74 255
0.076104768 -0.01452381 0.61000001 77 175 74 255
0.077266671 -0.01452381 0.61000001 77 175 74 255
0.078428566 -0.01452381 0.61000001 77 175 74 255
0.079590477 -0.01452381 0.61000001 77 175 74 255
0.080884762 -0.014547618 0.611 77 175 74 255
0.082048573 -0.014547618 0.611 77 175 74 255
0.083212383 -0.014547618 0.611 77 175 74 255
0.084376194 -0.014547618 0.611 77 175 74 255
0.08568 -0.014571429 0.61200005 77 175 74 255
0.086845718 -0.014571429 0.61200005 77 175 74 255
0.087867618 -0.014547618 0.611 77 175 74 255
0.089031428 -0.014547618 0.611 77 175 74 255
0.090195239 -0.014547618 0.611 77 175 74 255
0.091508575 -0.014571429 0.61200005 77 175 74 255
0.092674293 -0.014571429 0.61200005 77 175 74 255
0.093840003 -0.014571429 0.61200005 77 175 74 255
0.095005721 -0.014571429 0.61200005 77 175 74 255
0.096171439 -0.014571429 0.61200005 77 175 74 255
0.097496189 -0.014595238 0.61300004 77 175 74 255
0.098663814 -0.014595238 0.61300004 77 175 74 255
0.099831432 -0.014595238 0.61300004 77 175 74 255
0.10099905 -0.014595238 0.61300004 77 175 74 255
0.10216668 -0.014595238 0.61300004 77 175 74 255
0.10350285 -0.014619048 0.61400002 77 175 74 255
0.10467239 -0.014619048 0.61400002 77 175 74 255
0.1058419 -0.014619048 0.61400002 77 175 74 255
0.10701144 -0.014619048 0.61400002 77 175 74 255
0.10818096 -0.014619048 0.61400002 77 175 74 255
0.10935047 -0.014619048 0.61400002 77 175 74 255
0.11052001 -0.014619048 0.61400002 77 175 74 255
0.11168952 -0.014619048 0.61400002 77 175 74 255
0.11285906 -0.014619048 0.61400002 77 175 74 255
0.11402857 -0.014619048 0.61400002 77 175 74 255
0.1151981 -0.014619048 0.61400002 77 175 74 255
0.11636762 -0.014619048 0.61400002 77 175 74 255
0.11772858 -0.014642857 0.61500001 77 175 74 255
0.11948001 -0.014714287 0.61800003 77 175 74 255
0.12065715 -0.014714287 0.61800003 77 175 74 255
0.12242573 -0.014785715 0.62100005 77 175 74 255
0.12360859 -0.014785715 0.62100005 77 175 74 255
0.036899999 -0.013471429 0.61500001 77 175 74 255
0.038009524 -0.013449525 0.61400002 77 175 74 255
0.039179049 -0.013449525 0.61400002 77 175 74 255
0.040282857 -0.01342762 0.61300004 77 175 74 255
0.04138286 -0.013405715 0.61200005 77 175 74 255
0.042409524 -0.013361906 0.61000001 77 175 74 255
0.043571427 -0.013361906 0.61000001 77 175 74 255
0.04458667 -0.013318096 0.60800004 77 175 74 255
0.045669526 -0.013296192 0.60700005 77 175 74 255
0.046825718 -0.013296192 0.60700005 77 175 74 255
0.047981907 -0.013296192 0.60700005 77 175 74 255
0.049138099 -0.013296192 0.60700005 77 175 74 255
0.050294291 -0.013296192 0.60700005 77 175 74 255
0.051450484 -0.013296192 0.60700005 77 175 74 255
0.052606668 -0.013296192 0.60700005 77 175 74 255
0.053851429 -0.013318096 0.60800004 77 175 74 255
0.055100001 -0.013340001 0.60900003 77 175 74 255
0.056352381 -0.013361906 0.61000001 77 175 74 255
0.057514288 -0.013361906 0.61000001 77 175 74 255
0.058868576 -0.013405715 0.61200005 77 175 74 255
0.060034286 -0.013405715 0.61200005 77 175 74 255
0.0612 -0.013405715 0.61200005 77 175 74 255
0.062365722 -0.013405715 0.61200005 77 175 74 255
0.063531436 -0.013405715 0.61200005 77 175 74 255
0.064802863 -0.01342762 0.61300004 77 175 74 255
0.06597048 -0.01342762 0.61300004 77 175 74 255
0.067138098 -0.01342762 0.61300004 77 175 74 255
0.068305716 -0.01342762 0.61300004 77 175 74 255
0.069473341 -0.01342762 0.61300004 77 175 74 255
0.070640959 -0.01342762 0.61300004 77 175 74 255
0.071691439 -0.013405715 0.61200005 77 175 74 255
0.072738096 -0.013383809 0.611 77 175 74 255
0.073901907 -0.013383809 0.611 77 175 74 255
0.074942857 -0.013361906 0.61000001 77 175 74 255
0.076104768 -0.013361906 0.61000001 77 175 74 255
0.077266671 -0.013361906 0.61000001 77 175 74 255
0.078428566 -0.013361906 0.61000001 77 175 74 255
0.079590477 -0.013361906 0.61000001 77 175 74 255
0.08075238 -0.013361906 0.61000001 77 175 74 255
0.081914283 -0.013361906 0.61000001 77 175 74 255
0.083212383 -0.013383809 0.611 77 175 74 255
0.084376194 -0.013383809 0.611 77 175 74 255
0.085540004 -0.013383809 0.611 77 175 74 255
0.086703807 -0.013383809 0.611 77 175 74 255
0.087723807 -0.013361906 0.61000001 77 175 74 255
0.088885717 -0.013361906 0.61000001 77 175 74 255
0.09004762 -0.013361906 0.61000001 77 175 74 255
0.091359049 -0.013383809 0.611 77 175 74 255
0.09252286 -0.013383809 0.611 77 175 74 255
0.09368667 -0.013383809 0.611 77 175 74 255
0.095005721 -0.013405715 0.61200005 77 175 74 255
0.096171439 -0.013405715 0.61200005 77 175 74 255
0.097496189 -0.01342762 0.61300004 77 175 74 255
0.098663814 -0.01342762 0.61300004 77 175 74 255
0.099831432 -0.01342762 0.61300004 77 175 74 255
0.10099905 -0.01342762 0.61300004 77 175 74 255
0.10233334 -0.013449525 0.61400002 77 175 74 255
0.10350285 -0.013449525 0.61400002 77 175 74 255
0.10467239 -0.013449525 0.61400002 77 175 74 255
0.1058419 -0.013449525 0.61400002 77 175 74 255
0.10701144 -0.013449525 0.61400002 77 175 74 255
0.10818096 -0.013449525 0.61400002 77 175 74 255
0.10935047 -0.013449525 0.61400002 77 175 74 255
0.11052001 -0.013449525 0.61400002 77 175 74 255
0.11168952 -0.013449525 0.61400002 77 175 74 255
0.11285906 -0.013449525 0.61400002 77 175 74 255
0.11402857 -0.013449525 0.61400002 77 175 74 255
0.1151981 -0.013449525 0.61400002 77 175 74 255
0.11636762 -0.013449525 0.61400002 77 175 74 255
0.11792001 -0.013493334 0.61600006 77 175 74 255
0.11948001 -0.013537143 0.61800003 77 175 74 255
0.12065715 -0.013537143 0.61800003 77 175 74 255
0.12222857 -0.013580953 0.62 77 175 74 255
0.12360859 -0.013602857 0.62100005 77 175 74 255
0.12479144 -0.013602857 0.62100005 77 175 74 255
0.036960002 -0.012320001 0.61600006 77 175 74 255
0.038071431 -0.0123 0.61500001 77 175 74 255
0.039115239 -0.012260001 0.61300004 77 175 74 255
0.040217146 -0.012240001 0.61200005 77 175 74 255
0.041315239 -0.01222 0.611 77 175 74 255
0.042409524 -0.012200001 0.61000001 77 175 74 255
0.043500002 -0.012180001 0.60900003 77 175 74 255
0.044513334 -0.01214 0.60700005 77 175 74 255
0.045594286 -0.01212 0.60600001 77 175 74 255
0.046748575 -0.01212 0.60600001 77 175 74 255
0.047744766 -0.012080001 0.60400003 77 175 74 255
0.04889524 -0.012080001 0.60400003 77 175 74 255
0.050045718 -0.012080001 0.60400003 77 175 74 255
0.051196195 -0.012080001 0.60400003 77 175 74 255
0.052346669 -0.012080001 0.60400003 77 175 74 255
0.053408574 -0.012060001 0.60300004 77 175 74 255
0.054557145 -0.012060001 0.60300004 77 175 74 255
0.056167625 -0.01216 0.60800004 77 175 74 255
0.057514288 -0.012200001 0.61000001 77 175 74 255
0.058772378 -0.01222 0.611 77 175 74 255
0.060034286 -0.012240001 0.61200005 77 175 74 255
0.0612 -0.012240001 0.61200005 77 175 74 255
0.062365722 -0.012240001 0.61200005 77 175 74 255
0.063531436 -0.012240001 0.61200005 77 175 74 255
0.064802863 -0.012260001 0.61300004 77 175 74 255
0.06597048 -0.012260001 0.61300004 77 175 74 255
0.067138098 -0.012260001 0.61300004 77 175 74 255
0.068305716 -0.012260001 0.61300004 77 175 74 255
0.069473341 -0.012260001 0.61300004 77 175 74 255
0.070640959 -0.012260001 0.61300004 77 175 74 255
0.071691439 -0.012240001 0.61200005 77 175 74 255
0.072738096 -0.01222 0.611 77 175 74 255
0.073901907 -0.01222 0.611 77 175 74 255
0.074942857 -0.012200001 0.61000001 77 175 74 255
0.076104768 -0.012200001 0.61000001 77 175 74 255
0.077266671 -0.012200001 0.61000001 77 175 74 255
0.078428566 -0.012200001 0.61000001 77 175 74 255
0.079590477 -0.012200001 0.61000001 77 175 74 255
0.08075238 -0.012200001 0.61000001 77 175 74 255
0.081914283 -0.012200001 0.61000001 77 175 74 255
0.083212383 -0.01222 0.611 77 175 74 255
0.084376194 -0.01222 0.611 77 175 74 255
0.085540004 -0.01222 0.611 77 175 74 255
0.086703807 -0.01222 0.611 77 175 74 255
0.087723807 -0.012200001 0.61000001 77 175 74 255
0.088885717 -0.012200001 0.61000001 77 175 74 255
0.09004762 -0.012200001 0.61000001 77 175 74 255
0.091359049 -0.01222 0.611 77 175 74 255
0.09252286 -0.01222 0.611 77 175 74 255
0.09368667 -0.01222 0.611 77 175 74 255
0.095005721 -0.012240001 0.61200005 77 175 74 255
0.096171439 -0.012240001 0.61200005 77 175 74 255
0.097496189 -0.012260001 0.61300004 77 175 74 255
0.098663814 -0.012260001 0.61300004 77 175 74 255
0.099831432 -0.012260001 0.61300004 77 175 74 255
0.10099905 -0.012260001 0.61300004 77 175 74 255
0.10233334 -0.01228 0.61400002 77 175 74 255
0.10350285 -0.01228 0.61400002 77 175 74 255
0.10467239 -0.01228 0.61400002 77 175 74 255
0.1058419 -0.01228 0.61400002 77 175 74 255
0.10701144 -0.01228 0.61400002 77 175 74 255
0.10818096 -0.01228 0.61400002 77 175 74 255
0.10935047 -0.01228 0.61400002 77 175 74 255
0.11052001 -0.01228 0.61400002 77 175 74 255
0.11168952 -0.01228 0.61400002 77 175 74 255
0.11285906 -0.01228 0.61400002 77 175 74 255
0.11402857 -0.01228 0.61400002 77 175 74 255
0.1151981 -0.01228 0.61400002 77 175 74 255
0.11674668 -0.012320001 0.61600006 77 175 74 255
0.11792001 -0.012320001 0.61600006 77 175 74 255
0.11948001 -0.01236 0.61800003 77 175 74 255
0.12065715 -0.01236 0.61800003 77 175 74 255
0.12222857 -0.0124 0.62 77 175 74 255
0.12360859 -0.012420001 0.62100005 77 175 74 255
0.12479144 -0.012420001 0.62100005 77 175 74 255
0.12638 -0.01246 0.62300003 77 175 74 255
0.12756667 -0.01246 0.62300003 77 175 74 255
0.036960002 -0.011146668 0.61600006 77 175 74 255
0.038071431 -0.011128572 0.61500001 77 175 74 255
0.039115239 -0.011092382 0.61300004 77 175 74 255
0.040151428 -0.01105619 0.611 77 175 74 255
0.041247621 -0.011038096 0.61000001 77 175 74 255
0.042339999 -0.01102 0.60900003 77 175 74 255
0.043428574 -0.011001905 0.60800004 77 175 74 255
0.044513334 -0.010983811 0.60700005 77 175 74 255
0.045594286 -0.010965714 0.60600001 77 175 74 255
0.046748575 -0.010965714 0.60600001 77 175 74 255
0.047744766 -0.010929525 0.60400003 77 175 74 255
0.04889524 -0.010929525 0.60400003 77 175 74 255
0.050045718 -0.010929525 0.60400003 77 175 74 255
0.05111143 -0.010911429 0.60300004 77 175 74 255
0.052260004 -0.010911429 0.60300004 77 175 74 255
0.053408574 -0.010911429 0.60300004 77 175 74 255
0.054557145 -0.010911429 0.60300004 77 175 74 255
0.056167625 -0.011001905 0.60800004 77 175 74 255
0.057514288 -0.011038096 0.61000001 77 175 74 255
0.058676191 -0.011038096 0.61000001 77 175 74 255
0.059838098 -0.011038096 0.61000001 77 175 74 255
0.061099999 -0.01105619 0.611 77 175 74 255
0.062263809 -0.01105619 0.611 77 175 74 255
0.063531436 -0.011074287 0.61200005 77 175 74 255
0.064697146 -0.011074287 0.61200005 77 175 74 255
0.065862864 -0.011074287 0.61200005 77 175 74 255
0.067138098 -0.011092382 0.61300004 77 175 74 255
0.068305716 -0.011092382 0.61300004 77 175 74 255
0.069360003 -0.011074287 0.61200005 77 175 74 255
0.070525721 -0.011074287 0.61200005 77 175 74 255
0.071574286 -0.01105619 0.611 77 175 74 255
0.072738096 -0.01105619 0.611 77 175 74 255
0.073780954 -0.011038096 0.61000001 77 175 74 255
0.074942857 -0.011038096 0.61000001 77 175 74 255
0.076104768 -0.011038096 0.61000001 77 175 74 255
0.077266671 -0.011038096 0.61000001 77 175 74 255
0.078428566 -0.011038096 0.61000001 77 175 74 255
0.079590477 -0.011038096 0.61000001 77 175 74 255
0.08075238 -0.011038096 0.61000001 77 175 74 255
0.081914283 -0.011038096 0.61000001 77 175 74 255
0.083076194 -0.011038096 0.61000001 77 175 74 255
0.084238097 -0.011038096 0.61000001 77 175 74 255
0.085400008 -0.011038096 0.61000001 77 175 74 255
0.086561903 -0.011038096 0.61000001 77 175 74 255
0.087723807 -0.011038096 0.61000001 77 175 74 255
0.088885717 -0.011038096 0.61000001 77 175 74 255
0.090195239 -0.01105619 0.611 77 175 74 255
0.091359049 -0.01105619 0.611 77 175 74 255
0.09252286 -0.01105619 0.611 77 175 74 255
0.09368667 -0.01105619 0.611 77 175 74 255
0.095005721 -0.011074287 0.61200005 77 175 74 255
0.096328571 -0.011092382 0.61300004 77 175 74 255
0.097496189 -0.011092382 0.61300004 77 175 74 255
0.098663814 -0.011092382 0.61300004 77 175 74 255
0.099831432 -0.011092382 0.61300004 77 175 74 255
0.10116381 -0.011110476 0.61400002 77 175 74 255
0.10233334 -0.011110476 0.61400002 77 175 74 255
0.10350285 -0.011110476 0.61400002 77 175 74 255
0.10467239 -0.011110476 0.61400002 77 175 74 255
0.1058419 -0.011110476 0.61400002 77 175 74 255
0.10701144 -0.011110476 0.61400002 77 175 74 255
0.10818096 -0.011110476 0.61400002 77 175 74 255
0.10935047 -0.011110476 0.61400002 77 175 74 255
0.11052001 -0.011110476 0.61400002 77 175 74 255
0.11168952 -0.011110476 0.61400002 77 175 74 255
0.11285906 -0.011110476 0.61400002 77 175 74 255
0.11402857 -0.011110476 0.61400002 77 175 74 255
0.1151981 -0.011110476 0.61400002 77 175 74 255
0.11674668 -0.011146668 0.61600006 77 175 74 255
0.11830286 -0.011182858 0.61800003 77 175 74 255
0.11948001 -0.011182858 0.61800003 77 175 74 255
0.12085238 -0.011200953 0.61900002 77 175 74 255
0.12203144 -0.011200953 0.61900002 77 175 74 255
0.12340952 -0.011219047 0.62 77 175 74 255
0.12459048 -0.011219047 0.62 77 175 74 255
0.1259743 -0.011237144 0.62100005 77 175 74 255
0.12756667 -0.011273334 0.62300003 77 175 74 255
0.035960954 -0.010021905 0.61900002 77 175 74 255
0.036960002 -0.0099733341 0.61600006 77 175 74 255
0.038071431 -0.0099571431 0.61500001 77 175 74 255
0.039115239 -0.009924762 0.61300004 77 175 74 255
0.040151428 -0.0098923808 0.611 77 175 74 255
0.041247621 -0.0098761907 0.61000001 77 175 74 255
0.042339999 -0.0098600006 0.60900003 77 175 74 255
0.043357149 -0.0098276203 0.60700005 77 175 74 255
0.044439998 -0.0098114284 0.60600001 77 175 74 255
0.045443811 -0.0097790482 0.60400003 77 175 74 255
0.046594288 -0.0097790482 0.60400003 77 175 74 255
0.047665719 -0.0097628571 0.60300004 77 175 74 255
0.048814289 -0.0097628571 0.60300004 77 175 74 255
0.04996286 -0.0097628571 0.60300004 77 175 74 255
0.050941907 -0.009730476 0.60100001 77 175 74 255
0.052086666 -0.009730476 0.60100001 77 175 74 255
0.053231429 -0.009730476 0.60100001 77 175 74 255
0.054376192 -0.009730476 0.60100001 77 175 74 255
0.055613339 -0.0097466679 0.60200006 77 175 74 255
0.057514288 -0.0098761907 0.61000001 77 175 74 255
0.058676191 -0.0098761907 0.61000001 77 175 74 255
0.059838098 -0.0098761907 0.61000001 77 175 74 255
0.061000001 -0.0098761907 0.61000001 77 175 74 255
0.062263809 -0.0098923808 0.611 77 175 74 255
0.06342762 -0.0098923808 0.611 77 175 74 255
0.06459143 -0.0098923808 0.611 77 175 74 255
0.065755233 -0.0098923808 0.611 77 175 74 255
0.067028575 -0.0099085728 0.61200005 77 175 74 255
0.068194285 -0.0099085728 0.61200005 77 175 74 255
0.069360003 -0.0099085728 0.61200005 77 175 74 255
0.070525721 -0.0099085728 0.61200005 77 175 74 255
0.071574286 -0.0098923808 0.611 77 175 74 255
0.072738096 -0.0098923808 0.611 77 175 74 255
0.073780954 -0.0098761907 0.61000001 77 175 74 255
0.074942857 -0.0098761907 0.61000001 77 175 74 255
0.076104768 -0.0098761907 0.61000001 77 175 74 255
0.077266671 -0.0098761907 0.61000001 77 175 74 255
0.078428566 -0.0098761907 0.61000001 77 175 74 255
0.079590477 -0.0098761907 0.61000001 77 175 74 255
0.08075238 -0.0098761907 0.61000001 77 175 74 255
0.081914283 -0.0098761907 0.61000001 77 175 74 255
0.083076194 -0.0098761907 0.61000001 77 175 74 255
0.084238097 -0.0098761907 0.61000001 77 175 74 255
0.085400008 -0.0098761907 0.61000001 77 175 74 255
0.086561903 -0.0098761907 0.61000001 77 175 74 255
0.087723807 -0.0098761907 0.61000001 77 175 74 255
0.088885717 -0.0098761907 0.61000001 77 175 74 255
0.090195239 -0.0098923808 0.611 77 175 74 255
0.091359049 -0.0098923808 0.611 77 175 74 255
0.09252286 -0.0098923808 0.611 77 175 74 255
0.09368667 -0.0098923808 0.611 77 175 74 255
0.095005721 -0.0099085728 0.61200005 77 175 74 255
0.096328571 -0.009924762 0.61300004 77 175 74 255
0.097496189 -0.009924762 0.61300004 77 175 74 255
0.098663814 -0.009924762 0.61300004 77 175 74 255
0.099831432 -0.009924762 0.61300004 77 175 74 255
0.10099905 -0.009924762 0.61300004 77 175 74 255
0.10233334 -0.009940953 0.61400002 77 175 74 255
0.10350285 -0.009940953 0.61400002 77 175 74 255
0.10467239 -0.009940953 0.61400002 77 175 74 255
0.1058419 -0.009940953 0.61400002 77 175 74 255
0.10701144 -0.009940953 0.61400002 77 175 74 255
0.10818096 -0.009940953 0.61400002 77 175 74 255
0.10935047 -0.009940953 0.61400002 77 175 74 255
0.11052001 -0.009940953 0.61400002 77 175 74 255
0.11168952 -0.009940953 0.61400002 77 175 74 255
0.11285906 -0.009940953 0.61400002 77 175 74 255
0.11421429 -0.0099571431 0.61500001 77 175 74 255
0.11557335 -0.0099733341 0.61600006 77 175 74 255
0.11674668 -0.0099733341 0.61600006 77 175 74 255
0.11792001 -0.0099733341 0.61600006 77 175 74 255
0.11948001 -0.010005714 0.61800003 77 175 74 255
0.12065715 -0.010005714 0.61800003 77 175 74 255
0.12203144 -0.010021905 0.61900002 77 175 74 255
0.12340952 -0.010038096 0.62 77 175 74 255
0.12459048 -0.010038096 0.62 77 175 74 255
0.1259743 -0.010054287 0.62100005 77 175 74 255
0.035902858 -0.008828572 0.61800003 77 175 74 255
0.036960002 -0.0088000009 0.61600006 77 175 74 255
0.038071431 -0.0087857144 0.61500001 77 175 74 255
0.039115239 -0.0087571433 0.61300004 77 175 74 255
0.040151428 -0.0087285712 0.611 77 175 74 255
0.041247621 -0.0087142866 0.61000001 77 175 74 255
0.042339999 -0.0087000001 0.60900003 77 175 74 255
0.043285716 -0.0086571425 0.60600001 77 175 74 255
0.044293337 -0.0086285714 0.60400003 77 175 74 255
0.045443811 -0.0086285714 0.60400003 77 175 74 255
0.046517145 -0.0086142868 0.60300004 77 175 74 255
0.047586668 -0.0086000003 0.60200006 77 175 74 255
0.048733339 -0.0086000003 0.60200006 77 175 74 255
0.049797144 -0.0085857147 0.60100001 77 175 74 255
0.050941907 -0.0085857147 0.60100001 77 175 74 255
0.052086666 -0.0085857147 0.60100001 77 175 74 255
0.053231429 -0.0085857147 0.60100001 77 175 74 255
0.054376192 -0.0085857147 0.60100001 77 175 74 255
0.055520952 -0.0085857147 0.60100001 77 175 74 255
0.056665715 -0.0085857147 0.60100001 77 175 74 255
0.058676191 -0.0087142866 0.61000001 77 175 74 255
0.059838098 -0.0087142866 0.61000001 77 175 74 255
0.061000001 -0.0087142866 0.61000001 77 175 74 255
0.062263809 -0.0087285712 0.611 77 175 74 255
0.06342762 -0.0087285712 0.611 77 175 74 255
0.06459143 -0.0087285712 0.611 77 175 74 255
0.065755233 -0.0087285712 0.611 77 175 74 255
0.067028575 -0.0087428577 0.61200005 77 175 74 255
0.068194285 -0.0087428577 0.61200005 77 175 74 255
0.069360003 -0.0087428577 0.61200005 77 175 74 255
0.070525721 -0.0087428577 0.61200005 77 175 74 255
0.071574286 -0.0087285712 0.611 77 175 74 255
0.072738096 -0.0087285712 0.611 77 175 74 255
0.073780954 -0.0087142866 0.61000001 77 175 74 255
0.074942857 -0.0087142866 0.61000001 77 175 74 255
0.076104768 -0.0087142866 0.61000001 77 175 74 255
0.077266671 -0.0087142866 0.61000001 77 175 74 255
0.078428566 -0.0087142866 0.61000001 77 175 74 255
0.079590477 -0.0087142866 0.61000001 77 175 74 255
0.08075238 -0.0087142866 0.61000001 77 175 74 255
0.081914283 -0.0087142866 0.61000001 77 175 74 255
0.083076194 -0.0087142866 0.61000001 77 175 74 255
0.084238097 -0.0087142866 0.61000001 77 175 74 255
0.085400008 -0.0087142866 0.61000001 77 175 74 255
0.086561903 -0.0087142866 0.61000001 77 175 74 255
0.087723807 -0.0087142866 0.61000001 77 175 74 255
0.088885717 -0.0087142866 0.61000001 77 175 74 255
0.090195239 -0.0087285712 0.611 77 175 74 255
0.091359049 -0.0087285712 0.611 77 175 74 255
0.092674293 -0.0087428577 0.61200005 77 175 74 255
0.093840003 -0.0087428577 0.61200005 77 175 74 255
0.095160954 -0.0087571433 0.61300004 77 175 74 255
0.096328571 -0.0087571433 0.61300004 77 175 74 255
