ply
format ascii 1.0
comment PCL generated
element vertex 187
property float x
property float y
property float z
property uchar red
property uchar green
property uchar blue
property uchar alpha
element camera 1
property float view_px
property float view_py
property float view_pz
property float x_axisx
property float x_axisy
property float x_axisz
property float y_axisx
property float y_axisy
property float y_axisz
property float z_axisx
property float z_axisy
property float z_axisz
property float focal
property float scalex
property float scaley
property float centerx
property float centery
property int viewportx
property int viewporty
property float k1
property float k2
end_header
0.27573144 -0.52250475 1.322 153 153 153 255
0.27824953 -0.52250475 1.322 153 153 153 255
0.28076762 -0.52250475 1.322 153 153 153 255
0.28457144 -0.52487624 1.3280001 153 153 153 255
0.27573144 -0.51998669 1.322 153 153 153 255
0.27824953 -0.51998669 1.322 153 153 153 255
0.28076762 -0.51998669 1.322 153 153 153 255
0.28457144 -0.52234674 1.3280001 153 153 153 255
0.27573144 -0.51746863 1.322 153 153 153 255
0.27824953 -0.51746863 1.322 153 153 153 255
0.28076762 -0.51746863 1.322 153 153 153 255
0.27573144 -0.51495045 1.322 153 153 153 255
0.27824953 -0.51495045 1.322 153 153 153 255
0.28076762 -0.51495045 1.322 153 153 153 255
0.27499527 -0.52057236 1.3430001 153 153 153 255
0.27652001 -0.51863432 1.3380001 153 153 153 255
0.27573144 -0.5124324 1.322 153 153 153 255
0.27824953 -0.5124324 1.322 153 153 153 255
0.28076762 -0.5124324 1.322 153 153 153 255
0.28564286 -0.51669621 1.3330001 153 153 153 255
0.2881819 -0.51669621 1.3330001 153 153 153 255
0.29181144 -0.51863432 1.3380001 153 153 153 255
0.3070581 -0.52289814 1.3490001 153 153 153 255
0.30962762 -0.52289814 1.3490001 153 153 153 255
0.31219718 -0.52289814 1.3490001 153 153 153 255
0.31476671 -0.52289814 1.3490001 153 153 153 255
0.27499527 -0.51801431 1.3430001 153 153 153 255
0.27652001 -0.51608574 1.3380001 153 153 153 255
0.27906856 -0.51608574 1.3380001 153 153 153 255
0.28056479 -0.51415718 1.3330001 153 153 153 255
0.28310382 -0.51415718 1.3330001 153 153 153 255
0.28564286 -0.51415718 1.3330001 153 153 153 255
0.28926286 -0.51608574 1.3380001 153 153 153 255
0.29181144 -0.51608574 1.3380001 153 153 153 255
0.29545999 -0.51801431 1.3430001 153 153 153 255
0.29934955 -0.52032858 1.3490001 153 153 153 255
0.30191907 -0.52032858 1.3490001 153 153 153 255
0.30448857 -0.52032858 1.3490001 153 153 153 255
0.3070581 -0.52032858 1.3490001 153 153 153 255
0.30962762 -0.52032858 1.3490001 153 153 153 255
0.31219718 -0.52032858 1.3490001 153 153 153 255
0.31476671 -0.52032858 1.3490001 153 153 153 255
0.27499527 -0.5154562 1.3430001 153 153 153 255
0.27652001 -0.51353717 1.3380001 153 153 153 255
0.27906856 -0.51353717 1.3380001 153 153 153 255
0.28161713 -0.51353717 1.3380001 153 153 153 255
0.28416574 -0.51353717 1.3380001 153 153 153 255
0.28671429 -0.51353717 1.3380001 153 153 153 255
0.28926286 -0.51353717 1.3380001 153 153 153 255
0.29290193 -0.5154562 1.3430001 153 153 153 255
0.29545999 -0.5154562 1.3430001 153 153 153 255
0.30962762 -0.51775908 1.3490001 153 153 153 255
0.31219718 -0.51775908 1.3490001 153 153 153 255
0.31476671 -0.51775908 1.3490001 153 153 153 255
0.31733623 -0.51775908 1.3490001 153 153 153 255
0.31990573 -0.51775908 1.3490001 153 153 153 255
0.32247525 -0.51775908 1.3490001 153 153 153 255
0.32504478 -0.51775908 1.3490001 153 153 153 255
0.32761431 -0.51775908 1.3490001 153 153 153 255
0.33018383 -0.51775908 1.3490001 153 153 153 255
0.33275336 -0.51775908 1.3490001 153 153 153 255
0.3712962 -0.51775908 1.3490001 153 153 153 255
0.37386572 -0.51775908 1.3490001 153 153 153 255
0.37643525 -0.51775908 1.3490001 153 153 153 255
0.27755332 -0.51289815 1.3430001 153 153 153 255
0.28011143 -0.51289815 1.3430001 153 153 153 255
0.28778574 -0.51289815 1.3430001 153 153 153 255
0.29034382 -0.51289815 1.3430001 153 153 153 255
0.29290193 -0.51289815 1.3430001 153 153 153 255
0.29545999 -0.51289815 1.3430001 153 153 153 255
0.31733623 -0.51518953 1.3490001 153 153 153 255
0.31990573 -0.51518953 1.3490001 153 153 153 255
0.32247525 -0.51518953 1.3490001 153 153 153 255
0.32504478 -0.51518953 1.3490001 153 153 153 255
0.32615715 -0.51289815 1.3430001 153 153 153 255
0.32871523 -0.51289815 1.3430001 153 153 153 255
0.33127335 -0.51289815 1.3430001 153 153 153 255
0.33532289 -0.51518953 1.3490001 153 153 153 255
0.33789238 -0.51518953 1.3490001 153 153 153 255
0.3712962 -0.51518953 1.3490001 153 153 153 255
0.37386572 -0.51518953 1.3490001 153 153 153 255
0.37643525 -0.51518953 1.3490001 153 153 153 255
0.37900478 -0.51518953 1.3490001 153 153 153 255
0.3815743 -0.51518953 1.3490001 153 153 153 255
0.3933048 -0.51709908 1.3540001 153 153 153 255
0.39588383 -0.51709908 1.3540001 153 153 153 255
0.39846286 -0.51709908 1.3540001 153 153 153 255
0.32615715 -0.51033998 1.3430001 153 153 153 255
0.32871523 -0.51033998 1.3430001 153 153 153 255
0.33127335 -0.51033998 1.3430001 153 153 153 255
0.33532289 -0.51262003 1.3490001 153 153 153 255
0.33789238 -0.51262003 1.3490001 153 153 153 255
0.34046191 -0.51262003 1.3490001 153 153 153 255
0.3712962 -0.51262003 1.3490001 153 153 153 255
0.37386572 -0.51262003 1.3490001 153 153 153 255
0.37643525 -0.51262003 1.3490001 153 153 153 255
0.37731907 -0.51033998 1.3430001 153 153 153 255
0.37987715 -0.51033998 1.3430001 153 153 153 255
0.38243523 -0.51033998 1.3430001 153 153 153 255
0.38499334 -0.51033998 1.3430001 153 153 153 255
0.38755143 -0.51033998 1.3430001 153 153 153 255
0.39185241 -0.51262003 1.3490001 153 153 153 255
0.33789238 -0.51005054 1.3490001 153 153 153 255
0.34046191 -0.51005054 1.3490001 153 153 153 255
0.3712962 -0.51005054 1.3490001 153 153 153 255
0.37386572 -0.51005054 1.3490001 153 153 153 255
0.37643525 -0.51005054 1.3490001 153 153 153 255
0.37731907 -0.50778192 1.3430001 153 153 153 255
0.37987715 -0.50778192 1.3430001 153 153 153 255
0.38243523 -0.50778192 1.3430001 153 153 153 255
0.38499334 -0.50778192 1.3430001 153 153 153 255
0.38755143 -0.50778192 1.3430001 153 153 153 255
0.39185241 -0.51005054 1.3490001 153 153 153 255
0.28011143 -0.50522387 1.3430001 153 153 153 255
0.28266954 -0.50522387 1.3430001 153 153 153 255
0.34560096 -0.50748098 1.3490001 153 153 153 255
0.3712962 -0.50748098 1.3490001 153 153 153 255
0.37386572 -0.50748098 1.3490001 153 153 153 255
0.37643525 -0.50748098 1.3490001 153 153 153 255
0.37900478 -0.50748098 1.3490001 153 153 153 255
0.3815743 -0.50748098 1.3490001 153 153 153 255
0.38414386 -0.50748098 1.3490001 153 153 153 255
0.38671336 -0.50748098 1.3490001 153 153 153 255
0.38928288 -0.50748098 1.3490001 153 153 153 255
0.39185241 -0.50748098 1.3490001 153 153 153 255
0.27755332 -0.5026657 1.3430001 153 153 153 255
0.28011143 -0.5026657 1.3430001 153 153 153 255
0.28266954 -0.5026657 1.3430001 153 153 153 255
0.28522763 -0.5026657 1.3430001 153 153 153 255
0.28778574 -0.5026657 1.3430001 153 153 153 255
0.35587907 -0.50491148 1.3490001 153 153 153 255
0.3712962 -0.50491148 1.3490001 153 153 153 255
0.37386572 -0.50491148 1.3490001 153 153 153 255
0.37643525 -0.50491148 1.3490001 153 153 153 255
0.37900478 -0.50491148 1.3490001 153 153 153 255
0.3815743 -0.50491148 1.3490001 153 153 153 255
0.38414386 -0.50491148 1.3490001 153 153 153 255
0.38671336 -0.50491148 1.3490001 153 153 153 255
0.38928288 -0.50491148 1.3490001 153 153 153 255
0.39185241 -0.50491148 1.3490001 153 153 153 255
0.39442194 -0.50491148 1.3490001 153 153 153 255
0.39699146 -0.50491148 1.3490001 153 153 153 255
0.27755332 -0.50010765 1.3430001 153 153 153 255
0.28011143 -0.50010765 1.3430001 153 153 153 255
0.28266954 -0.50010765 1.3430001 153 153 153 255
0.28522763 -0.50010765 1.3430001 153 153 153 255
0.28778574 -0.50010765 1.3430001 153 153 153 255
0.37643525 -0.50234193 1.3490001 153 153 153 255
0.37900478 -0.50234193 1.3490001 153 153 153 255
0.3815743 -0.50234193 1.3490001 153 153 153 255
0.38414386 -0.50234193 1.3490001 153 153 153 255
0.38671336 -0.50234193 1.3490001 153 153 153 255
0.38928288 -0.50234193 1.3490001 153 153 153 255
0.39185241 -0.50234193 1.3490001 153 153 153 255
0.39442194 -0.50234193 1.3490001 153 153 153 255
0.39699146 -0.50234193 1.3490001 153 153 153 255
0.28266954 -0.49754953 1.3430001 153 153 153 255
0.28522763 -0.49754953 1.3430001 153 153 153 255
0.28778574 -0.49754953 1.3430001 153 153 153 255
0.37643525 -0.49977243 1.3490001 153 153 153 255
0.37900478 -0.49977243 1.3490001 153 153 153 255
0.3815743 -0.49977243 1.3490001 153 153 153 255
0.38414386 -0.49977243 1.3490001 153 153 153 255
0.38671336 -0.49977243 1.3490001 153 153 153 255
0.38928288 -0.49977243 1.3490001 153 153 153 255
0.39185241 -0.49977243 1.3490001 153 153 153 255
0.39442194 -0.49977243 1.3490001 153 153 153 255
0.39699146 -0.49977243 1.3490001 153 153 153 255
0.39956099 -0.49977243 1.3490001 153 153 153 255
0.29545999 -0.49499145 1.3430001 153 153 153 255
0.2980181 -0.49499145 1.3430001 153 153 153 255
0.3056924 -0.49499145 1.3430001 153 153 153 255
0.30825049 -0.49499145 1.3430001 153 153 153 255
0.31080857 -0.49499145 1.3430001 153 153 153 255
0.38414386 -0.4972029 1.3490001 153 153 153 255
0.38671336 -0.4972029 1.3490001 153 153 153 255
0.38928288 -0.4972029 1.3490001 153 153 153 255
0.39185241 -0.4972029 1.3490001 153 153 153 255
0.39442194 -0.4972029 1.3490001 153 153 153 255
0.39699146 -0.4972029 1.3490001 153 153 153 255
0.39956099 -0.4972029 1.3490001 153 153 153 255
0.3056924 -0.49243331 1.3430001 153 153 153 255
0.30825049 -0.49243331 1.3430001 153 153 153 255
0.31080857 -0.49243331 1.3430001 153 153 153 255
0.39442194 -0.49463338 1.3490001 153 153 153 255
0.39699146 -0.49463338 1.3490001 153 153 153 255
0.39956099 -0.49463338 1.3490001 153 153 153 255
0 0 0 1 0 0 0 1 0 0 0 1 0 0 0 0 0 187 1 0 0
