ply
format ascii 1.0
comment PCL generated
element vertex 971
property float x
property float y
property float z
property uchar red
property uchar green
property uchar blue
property uchar alpha
element camera 0
property float view_px
property float view_py
property float view_pz
property float x_axisx
property float x_axisy
property float x_axisz
property float y_axisx
property float y_axisy
property float y_axisz
property float z_axisx
property float z_axisy
property float z_axisz
property float focal
property float scalex
property float scaley
property float centerx
property float centery
property int viewportx
property int viewporty
property float k1
property float k2
end_header
0.19742666 -0.093800001 0.93800002 228 26 28 255
0.1996381 -0.094000004 0.94000006 228 26 28 255
0.20142858 -0.094000004 0.94000006 228 26 28 255
0.20321907 -0.094000004 0.94000006 228 26 28 255
0.20500953 -0.094000004 0.94000006 228 26 28 255
0.20680001 -0.094000004 0.94000006 228 26 28 255
0.20859049 -0.094000004 0.94000006 228 26 28 255
0.21038096 -0.094000004 0.94000006 228 26 28 255
0.21217144 -0.094000004 0.94000006 228 26 28 255
0.21350667 -0.093800001 0.93800002 228 26 28 255
0.21529333 -0.093800001 0.93800002 228 26 28 255
0.21708 -0.093800001 0.93800002 228 26 28 255
0.21886668 -0.093800001 0.93800002 228 26 28 255
0.22065334 -0.093800001 0.93800002 228 26 28 255
0.22172859 -0.093500003 0.93500006 228 26 28 255
0.22350954 -0.093500003 0.93500006 228 26 28 255
0.22480857 -0.0933 0.93300003 228 26 28 255
0.22658572 -0.0933 0.93300003 228 26 28 255
0.22762857 -0.09300001 0.93000007 228 26 28 255
0.22940001 -0.09300001 0.93000007 228 26 28 255
0.18076667 -0.091719054 0.93500006 228 26 28 255
0.18215714 -0.091522865 0.93300003 228 26 28 255
0.1839343 -0.091522865 0.93300003 228 26 28 255
0.18610953 -0.091719054 0.93500006 228 26 28 255
0.18789048 -0.091719054 0.93500006 228 26 28 255
0.19028001 -0.092013337 0.93800002 228 26 28 255
0.19206667 -0.092013337 0.93800002 228 26 28 255
0.19426668 -0.092209533 0.94000006 228 26 28 255
0.19605716 -0.092209533 0.94000006 228 26 28 255
0.19784762 -0.092209533 0.94000006 228 26 28 255
0.1996381 -0.092209533 0.94000006 228 26 28 255
0.20207143 -0.092503816 0.94300002 228 26 28 255
0.20386761 -0.092503816 0.94300002 228 26 28 255
0.20566382 -0.092503816 0.94300002 228 26 28 255
0.20746 -0.092503816 0.94300002 228 26 28 255
0.2092562 -0.092503816 0.94300002 228 26 28 255
0.21105239 -0.092503816 0.94300002 228 26 28 255
0.21284857 -0.092503816 0.94300002 228 26 28 255
0.21396191 -0.092209533 0.94000006 228 26 28 255
0.21575239 -0.092209533 0.94000006 228 26 28 255
0.21708 -0.092013337 0.93800002 228 26 28 255
0.21886668 -0.092013337 0.93800002 228 26 28 255
0.22065334 -0.092013337 0.93800002 228 26 28 255
0.22172859 -0.091719054 0.93500006 228 26 28 255
0.22350954 -0.091719054 0.93500006 228 26 28 255
0.22408573 -0.091228582 0.93000007 228 26 28 255
0.22585717 -0.091228582 0.93000007 228 26 28 255
0.22762857 -0.091228582 0.93000007 228 26 28 255
0.22890668 -0.091032378 0.92800003 228 26 28 255
0.2306743 -0.091032378 0.92800003 228 26 28 255
0.18076667 -0.089938097 0.93500006 228 26 28 255
0.18215714 -0.089745715 0.93300003 228 26 28 255
0.1839343 -0.089745715 0.93300003 228 26 28 255
0.18571143 -0.089745715 0.93300003 228 26 28 255
0.18789048 -0.089938097 0.93500006 228 26 28 255
0.19028001 -0.090226665 0.93800002 228 26 28 255
0.1924762 -0.090419047 0.94000006 228 26 28 255
0.19426668 -0.090419047 0.94000006 228 26 28 255
0.19605716 -0.090419047 0.94000006 228 26 28 255
0.19784762 -0.090419047 0.94000006 228 26 28 255
0.20027524 -0.090707622 0.94300002 228 26 28 255
0.20271429 -0.090996191 0.94600004 228 26 28 255
0.20451619 -0.090996191 0.94600004 228 26 28 255
0.2063181 -0.090996191 0.94600004 228 26 28 255
0.20856002 -0.09118858 0.94800007 228 26 28 255
0.20992191 -0.090996191 0.94600004 228 26 28 255
0.21172382 -0.090996191 0.94600004 228 26 28 255
0.21352573 -0.090996191 0.94600004 228 26 28 255
0.21464476 -0.090707622 0.94300002 228 26 28 255
0.21644095 -0.090707622 0.94300002 228 26 28 255
0.21754287 -0.090419047 0.94000006 228 26 28 255
0.21886668 -0.090226665 0.93800002 228 26 28 255
0.22065334 -0.090226665 0.93800002 228 26 28 255
0.22172859 -0.089938097 0.93500006 228 26 28 255
0.22350954 -0.089938097 0.93500006 228 26 28 255
0.22408573 -0.089457147 0.93000007 228 26 28 255
0.22585717 -0.089457147 0.93000007 228 26 28 255
0.22762857 -0.089457147 0.93000007 228 26 28 255
0.22890668 -0.089264765 0.92800003 228 26 28 255
0.2306743 -0.089264765 0.92800003 228 26 28 255
0.23244192 -0.089264765 0.92800003 228 26 28 255
0.17341429 -0.086271428 0.91500002 228 26 28 255
0.17515714 -0.086271428 0.91500002 228 26 28 255
0.17844667 -0.087025717 0.92300004 228 26 28 255
0.18157144 -0.087685719 0.93000007 228 26 28 255
0.18334286 -0.087685719 0.93000007 228 26 28 255
0.18571143 -0.087968573 0.93300003 228 26 28 255
0.18748857 -0.087968573 0.93300003 228 26 28 255
0.19028001 -0.088440001 0.93800002 228 26 28 255
0.1924762 -0.088628575 0.94000006 228 26 28 255
0.19426668 -0.088628575 0.94000006 228 26 28 255
0.19605716 -0.088628575 0.94000006 228 26 28 255
0.19847904 -0.088911429 0.94300002 228 26 28 255
0.20091239 -0.08919429 0.94600004 228 26 28 255
0.20314287 -0.089382865 0.94800007 228 26 28 255
0.20494859 -0.089382865 0.94800007 228 26 28 255
0.20740858 -0.089665718 0.95100003 228 26 28 255
0.20922001 -0.089665718 0.95100003 228 26 28 255
0.21103144 -0.089665718 0.95100003 228 26 28 255
0.21172382 -0.08919429 0.94600004 228 26 28 255
0.21352573 -0.08919429 0.94600004 228 26 28 255
0.21464476 -0.088911429 0.94300002 228 26 28 255
0.21644095 -0.088911429 0.94300002 228 26 28 255
0.21754287 -0.088628575 0.94000006 228 26 28 255
0.21886668 -0.088440001 0.93800002 228 26 28 255
0.22065334 -0.088440001 0.93800002 228 26 28 255
0.22244 -0.088440001 0.93800002 228 26 28 255
0.22350954 -0.088157147 0.93500006 228 26 28 255
0.22408573 -0.087685719 0.93000007 228 26 28 255
0.22585717 -0.087685719 0.93000007 228 26 28 255
0.22713904 -0.087497145 0.92800003 228 26 28 255
0.22890668 -0.087497145 0.92800003 228 26 28 255
0.2306743 -0.087497145 0.92800003 228 26 28 255
0.23244192 -0.087497145 0.92800003 228 26 28 255
0.23420954 -0.087497145 0.92800003 228 26 28 255
0.17341429 -0.084528573 0.91500002 228 26 28 255
0.17515714 -0.084528573 0.91500002 228 26 28 255
0.17748 -0.08480572 0.91800004 228 26 28 255
0.17961904 -0.084990472 0.92000002 228 26 28 255
0.18196286 -0.085267626 0.92300004 228 26 28 255
0.18511429 -0.085914291 0.93000007 228 26 28 255
0.18748857 -0.086191431 0.93300003 228 26 28 255
0.19028001 -0.086653329 0.93800002 228 26 28 255
0.1924762 -0.086838104 0.94000006 228 26 28 255
0.19488665 -0.087115236 0.94300002 228 26 28 255
0.19668286 -0.087115236 0.94300002 228 26 28 255
0.19911048 -0.087392382 0.94600004 228 26 28 255
0.20133716 -0.087577149 0.94800007 228 26 28 255
0.20378572 -0.087854289 0.95100003 228 26 28 255
0.20559715 -0.087854289 0.95100003 228 26 28 255
0.20806287 -0.088131428 0.95400006 228 26 28 255
0.20988001 -0.088131428 0.95400006 228 26 28 255
0.21169715 -0.088131428 0.95400006 228 26 28 255
0.21284285 -0.087854289 0.95100003 228 26 28 255
0.21397714 -0.087577149 0.94800007 228 26 28 255
0.21532762 -0.087392382 0.94600004 228 26 28 255
0.21712953 -0.087392382 0.94600004 228 26 28 255
0.21893144 -0.087392382 0.94600004 228 26 28 255
0.21933335 -0.086838104 0.94000006 228 26 28 255
0.22112381 -0.086838104 0.94000006 228 26 28 255
0.22244 -0.086653329 0.93800002 228 26 28 255
0.22350954 -0.086376198 0.93500006 228 26 28 255
0.22408573 -0.085914291 0.93000007 228 26 28 255
0.22585717 -0.085914291 0.93000007 228 26 28 255
0.22713904 -0.085729532 0.92800003 228 26 28 255
0.22890668 -0.085729532 0.92800003 228 26 28 255
0.2306743 -0.085729532 0.92800003 228 26 28 255
0.2316905 -0.085452385 0.92500007 228 26 28 255
0.23345239 -0.085452385 0.92500007 228 26 28 255
0.23521431 -0.085452385 0.92500007 228 26 28 255
0.17398286 -0.08305715 0.91800004 228 26 28 255
0.17573144 -0.08305715 0.91800004 228 26 28 255
0.17748 -0.08305715 0.91800004 228 26 28 255
0.17961904 -0.083238095 0.92000002 228 26 28 255
0.18196286 -0.083509527 0.92300004 228 26 28 255
0.18471619 -0.083961904 0.92800003 228 26 28 255
0.18748857 -0.084414288 0.93300003 228 26 28 255
0.19068573 -0.085047618 0.94000006 228 26 28 255
0.19309048 -0.085319042 0.94300002 228 26 28 255
0.19488665 -0.085319042 0.94300002 228 26 28 255
0.19730859 -0.085590474 0.94600004 228 26 28 255
0.19953144 -0.085771434 0.94800007 228 26 28 255
0.2019743 -0.086042859 0.95100003 228 26 28 255
0.20442858 -0.086314291 0.95400006 228 26 28 255
0.20624572 -0.086314291 0.95400006 228 26 28 255
0.20806287 -0.086314291 0.95400006 228 26 28 255
0.20988001 -0.086314291 0.95400006 228 26 28 255
0.21169715 -0.086314291 0.95400006 228 26 28 255
0.2135143 -0.086314291 0.95400006 228 26 28 255
0.2146543 -0.086042859 0.95100003 228 26 28 255
0.21578288 -0.085771434 0.94800007 228 26 28 255
0.21758859 -0.085771434 0.94800007 228 26 28 255
0.21893144 -0.085590474 0.94600004 228 26 28 255
0.22003333 -0.085319042 0.94300002 228 26 28 255
0.22182953 -0.085319042 0.94300002 228 26 28 255
0.22291429 -0.085047618 0.94000006 228 26 28 255
0.22422667 -0.084866665 0.93800002 228 26 28 255
0.22480857 -0.084414288 0.93300003 228 26 28 255
0.22585717 -0.084142864 0.93000007 228 26 28 255
0.22713904 -0.083961904 0.92800003 228 26 28 255
0.22890668 -0.083961904 0.92800003 228 26 28 255
0.2306743 -0.083961904 0.92800003 228 26 28 255
0.2316905 -0.083690479 0.92500007 228 26 28 255
0.23345239 -0.083690479 0.92500007 228 26 28 255
0.23521431 -0.083690479 0.92500007 228 26 28 255
0.1743619 -0.081485718 0.92000002 228 26 28 255
0.17611428 -0.081485718 0.92000002 228 26 28 255
0.17844667 -0.081751429 0.92300004 228 26 28 255
0.17961904 -0.081485718 0.92000002 228 26 28 255
0.18137144 -0.081485718 0.92000002 228 26 28 255
0.18312381 -0.081485718 0.92000002 228 26 28 255
0.1894981 -0.083522864 0.94300002 228 26 28 255
0.1912943 -0.083522864 0.94300002 228 26 28 255
0.19370477 -0.083788574 0.94600004 228 26 28 255
0.19592002 -0.083965719 0.94800007 228 26 28 255
0.19835144 -0.084231429 0.95100003 228 26 28 255
0.20016286 -0.084231429 0.95100003 228 26 28 255
0.20261145 -0.084497146 0.95400006 228 26 28 255
0.20442858 -0.084497146 0.95400006 228 26 28 255
0.20667811 -0.084674291 0.95600003 228 26 28 255
0.20849906 -0.084674291 0.95600003 228 26 28 255
0.21032001 -0.084674291 0.95600003 228 26 28 255
0.21214095 -0.084674291 0.95600003 228 26 28 255
0.2139619 -0.084674291 0.95600003 228 26 28 255
0.21533144 -0.084497146 0.95400006 228 26 28 255
0.21646571 -0.084231429 0.95100003 228 26 28 255
0.21758859 -0.083965719 0.94800007 228 26 28 255
0.2193943 -0.083965719 0.94800007 228 26 28 255
0.22073333 -0.083788574 0.94600004 228 26 28 255
0.22253524 -0.083788574 0.94600004 228 26 28 255
0.22362572 -0.083522864 0.94300002 228 26 28 255
0.22470477 -0.083257146 0.94000006 228 26 28 255
0.22480857 -0.082637146 0.93300003 228 26 28 255
0.22585717 -0.082371436 0.93000007 228 26 28 255
0.22713904 -0.082194284 0.92800003 228 26 28 255
0.22890668 -0.082194284 0.92800003 228 26 28 255
0.2306743 -0.082194284 0.92800003 228 26 28 255
0.23244192 -0.082194284 0.92800003 228 26 28 255
0.23345239 -0.081928581 0.92500007 228 26 28 255
0.23521431 -0.081928581 0.92500007 228 26 28 255
0.1743619 -0.079733334 0.92000002 228 26 28 255
0.17611428 -0.079733334 0.92000002 228 26 28 255
0.17786667 -0.079733334 0.92000002 228 26 28 255
0.17961904 -0.079733334 0.92000002 228 26 28 255
0.18137144 -0.079733334 0.92000002 228 26 28 255
0.18272573 -0.079560004 0.91800004 228 26 28 255
0.18447429 -0.079560004 0.91800004 228 26 28 255
0.19291714 -0.082419999 0.95100003 228 26 28 255
0.19472858 -0.082419999 0.95100003 228 26 28 255
0.19654 -0.082419999 0.95100003 228 26 28 255
0.19897716 -0.082680002 0.95400006 228 26 28 255
0.20121524 -0.082853332 0.95600003 228 26 28 255
0.20303619 -0.082853332 0.95600003 228 26 28 255
0.20485714 -0.082853332 0.95600003 228 26 28 255
0.20667811 -0.082853332 0.95600003 228 26 28 255
0.20849906 -0.082853332 0.95600003 228 26 28 255
0.21098 -0.083113335 0.95900005 228 26 28 255
0.21280667 -0.083113335 0.95900005 228 26 28 255
0.2139619 -0.082853332 0.95600003 228 26 28 255
0.21578287 -0.082853332 0.95600003 228 26 28 255
0.21714859 -0.082680002 0.95400006 228 26 28 255
0.21827716 -0.082419999 0.95100003 228 26 28 255
0.2193943 -0.082160003 0.94800007 228 26 28 255
0.22073333 -0.081986673 0.94600004 228 26 28 255
0.22253524 -0.081986673 0.94600004 228 26 28 255
0.22362572 -0.08172667 0.94300002 228 26 28 255
0.22542191 -0.08172667 0.94300002 228 26 28 255
0.22601335 -0.081293337 0.93800002 228 26 28 255
0.22585717 -0.080600001 0.93000007 228 26 28 255
0.22713904 -0.080426671 0.92800003 228 26 28 255
0.22890668 -0.080426671 0.92800003 228 26 28 255
0.2306743 -0.080426671 0.92800003 228 26 28 255
0.23244192 -0.080426671 0.92800003 228 26 28 255
0.23345239 -0.080166668 0.92500007 228 26 28 255
0.23521431 -0.080166668 0.92500007 228 26 28 255
0.23697621 -0.080166668 0.92500007 228 26 28 255
0.1743619 -0.077980958 0.92000002 228 26 28 255
0.17611428 -0.077980958 0.92000002 228 26 28 255
0.17786667 -0.077980958 0.92000002 228 26 28 255
0.17961904 -0.077980958 0.92000002 228 26 28 255
0.18137144 -0.077980958 0.92000002 228 26 28 255
0.18272573 -0.077811427 0.91800004 228 26 28 255
0.18447429 -0.077811427 0.91800004 228 26 28 255
0.19291714 -0.080608569 0.95100003 228 26 28 255
0.19472858 -0.080608569 0.95100003 228 26 28 255
0.19757335 -0.08103238 0.95600003 228 26 28 255
0.1993943 -0.08103238 0.95600003 228 26 28 255
0.20184667 -0.081286669 0.95900005 228 26 28 255
0.20367335 -0.081286669 0.95900005 228 26 28 255
0.20550001 -0.081286669 0.95900005 228 26 28 255
0.20732667 -0.081286669 0.95900005 228 26 28 255
0.20915334 -0.081286669 0.95900005 228 26 28 255
0.21098 -0.081286669 0.95900005 228 26 28 255
0.21280667 -0.081286669 0.95900005 228 26 28 255
0.21463333 -0.081286669 0.95900005 228 26 28 255
0.21578287 -0.08103238 0.95600003 228 26 28 255
0.21760382 -0.08103238 0.95600003 228 26 28 255
0.21896572 -0.080862865 0.95400006 228 26 28 255
0.22008857 -0.080608569 0.95100003 228 26 28 255
0.22120002 -0.080354296 0.94800007 228 26 28 255
0.22253524 -0.080184758 0.94600004 228 26 28 255
0.22433716 -0.080184758 0.94600004 228 26 28 255
0.22542191 -0.079930477 0.94300002 228 26 28 255
0.22721811 -0.079930477 0.94300002 228 26 28 255
0.22585717 -0.078828573 0.93000007 228 26 28 255
0.22713904 -0.07865905 0.92800003 228 26 28 255
0.22816667 -0.078404762 0.92500007 228 26 28 255
0.22992858 -0.078404762 0.92500007 228 26 28 255
0.2316905 -0.078404762 0.92500007 228 26 28 255
0.23345239 -0.078404762 0.92500007 228 26 28 255
0.23521431 -0.078404762 0.92500007 228 26 28 255
0.23697621 -0.078404762 0.92500007 228 26 28 255
0.17493048 -0.076477148 0.92300004 228 26 28 255
0.17611428 -0.076228574 0.92000002 228 26 28 255
0.17786667 -0.076228574 0.92000002 228 26 28 255
0.17961904 -0.076228574 0.92000002 228 26 28 255
0.18137144 -0.076228574 0.92000002 228 26 28 255
0.18272573 -0.076062858 0.91800004 228 26 28 255
0.18447429 -0.076062858 0.91800004 228 26 28 255
0.18622287 -0.076062858 0.91800004 228 26 28 255
0.19575238 -0.079211429 0.95600003 228 26 28 255
0.19757335 -0.079211429 0.95600003 228 26 28 255
0.20002002 -0.079460002 0.95900005 228 26 28 255
0.20184667 -0.079460002 0.95900005 228 26 28 255
0.20367335 -0.079460002 0.95900005 228 26 28 255
0.20550001 -0.079460002 0.95900005 228 26 28 255
0.20732667 -0.079460002 0.95900005 228 26 28 255
0.20980763 -0.079708576 0.96200007 228 26 28 255
0.21164002 -0.079708576 0.96200007 228 26 28 255
0.2134724 -0.079708576 0.96200007 228 26 28 255
0.21463333 -0.079460002 0.95900005 228 26 28 255
0.21646 -0.079460002 0.95900005 228 26 28 255
0.21760382 -0.079211429 0.95600003 228 26 28 255
0.21896572 -0.079045713 0.95400006 228 26 28 255
0.22008857 -0.078797139 0.95100003 228 26 28 255
0.22120002 -0.078548573 0.94800007 228 26 28 255
0.22300573 -0.078548573 0.94800007 228 26 28 255
0.22433716 -0.078382857 0.94600004 228 26 28 255
0.22613905 -0.078382857 0.94600004 228 26 28 255
0.22721811 -0.078134283 0.94300002 228 26 28 255
0.22585717 -0.077057146 0.93000007 228 26 28 255
0.22713904 -0.07689143 0.92800003 228 26 28 255
0.22767334 -0.076477148 0.92300004 228 26 28 255
0.22943144 -0.076477148 0.92300004 228 26 28 255
0.2316905 -0.076642863 0.92500007 228 26 28 255
0.23345239 -0.076642863 0.92500007 228 26 28 255
0.23521431 -0.076642863 0.92500007 228 26 28 255
0.23697621 -0.076642863 0.92500007 228 26 28 255
0.17493048 -0.074719049 0.92300004 228 26 28 255
0.17611428 -0.074476197 0.92000002 228 26 28 255
0.17786667 -0.074476197 0.92000002 228 26 28 255
0.17961904 -0.074476197 0.92000002 228 26 28 255
0.18097715 -0.074314289 0.91800004 228 26 28 255
0.18212856 -0.07407143 0.91500002 228 26 28 255
0.18387143 -0.07407143 0.91500002 228 26 28 255
0.18561429 -0.07407143 0.91500002 228 26 28 255
0.19636668 -0.077633336 0.95900005 228 26 28 255
0.19819334 -0.077633336 0.95900005 228 26 28 255
0.20002002 -0.077633336 0.95900005 228 26 28 255
0.20247811 -0.077876195 0.96200007 228 26 28 255
0.20431049 -0.077876195 0.96200007 228 26 28 255
0.20614287 -0.077876195 0.96200007 228 26 28 255
0.20797525 -0.077876195 0.96200007 228 26 28 255
0.20980763 -0.077876195 0.96200007 228 26 28 255
0.21208 -0.078038096 0.96400005 228 26 28 255
0.2139162 -0.078038096 0.96400005 228 26 28 255
0.21530478 -0.077876195 0.96200007 228 26 28 255
0.21713716 -0.077876195 0.96200007 228 26 28 255
0.21828668 -0.077633336 0.95900005 228 26 28 255
0.21942477 -0.077390477 0.95600003 228 26 28 255
0.22078286 -0.077228576 0.95400006 228 26 28 255
0.2219 -0.076985717 0.95100003 228 26 28 255
0.22300573 -0.076742865 0.94800007 228 26 28 255
0.22481145 -0.076742865 0.94800007 228 26 28 255
0.22661716 -0.076742865 0.94800007 228 26 28 255
0.22794096 -0.076580957 0.94600004 228 26 28 255
0.22585717 -0.075285718 0.93000007 228 26 28 255
0.22713904 -0.075123817 0.92800003 228 26 28 255
0.22767334 -0.074719049 0.92300004 228 26 28 255
0.22943144 -0.074719049 0.92300004 228 26 28 255
0.23118953 -0.074719049 0.92300004 228 26 28 255
0.23345239 -0.074880958 0.92500007 228 26 28 255
0.23521431 -0.074880958 0.92500007 228 26 28 255
0.23697621 -0.074880958 0.92500007 228 26 28 255
0.17493048 -0.07296095 0.92300004 228 26 28 255
0.17611428 -0.072723806 0.92000002 228 26 28 255
0.17786667 -0.072723806 0.92000002 228 26 28 255
0.17961904 -0.072723806 0.92000002 228 26 28 255
0.18097715 -0.072565712 0.91800004 228 26 28 255
0.18173049 -0.072170481 0.91300005 228 26 28 255
0.18346953 -0.072170481 0.91300005 228 26 28 255
0.18520857 -0.072170481 0.91300005 228 26 28 255
0.19636668 -0.07580667 0.95900005 228 26 28 255
0.19819334 -0.07580667 0.95900005 228 26 28 255
0.20064571 -0.076043814 0.96200007 228 26 28 255
0.20289905 -0.076201908 0.96400005 228 26 28 255
0.20473525 -0.076201908 0.96400005 228 26 28 255
0.20657143 -0.076201908 0.96400005 228 26 28 255
0.20840763 -0.076201908 0.96400005 228 26 28 255
0.21024382 -0.076201908 0.96400005 228 26 28 255
0.21208 -0.076201908 0.96400005 228 26 28 255
0.2139162 -0.076201908 0.96400005 228 26 28 255
0.21575239 -0.076201908 0.96400005 228 26 28 255
0.21713716 -0.076043814 0.96200007 228 26 28 255
0.21828668 -0.07580667 0.95900005 228 26 28 255
0.21942477 -0.075569525 0.95600003 228 26 28 255
0.22078286 -0.075411431 0.95400006 228 26 28 255
0.22260001 -0.075411431 0.95400006 228 26 28 255
0.22371143 -0.075174294 0.95100003 228 26 28 255
0.22552286 -0.075174294 0.95100003 228 26 28 255
0.22661716 -0.07493715 0.94800007 228 26 28 255
0.22842288 -0.07493715 0.94800007 228 26 28 255
0.22974287 -0.074779049 0.94600004 228 26 28 255
0.22713904 -0.073356189 0.92800003 228 26 28 255
0.22693333 -0.072723806 0.92000002 228 26 28 255
0.22868572 -0.072723806 0.92000002 228 26 28 255
0.23118953 -0.07296095 0.92300004 228 26 28 255
0.23345239 -0.073119059 0.92500007 228 26 28 255
0.23521431 -0.073119059 0.92500007 228 26 28 255
0.23697621 -0.073119059 0.92500007 228 26 28 255
0.17611428 -0.070971429 0.92000002 228 26 28 255
0.17786667 -0.070971429 0.92000002 228 26 28 255
0.17961904 -0.070971429 0.92000002 228 26 28 255
0.18097715 -0.070817143 0.91800004 228 26 28 255
0.18173049 -0.070431434 0.91300005 228 26 28 255
0.18346953 -0.070431434 0.91300005 228 26 28 255
0.18520857 -0.070431434 0.91300005 228 26 28 255
0.19800477 -0.074597143 0.96700007 228 26 28 255
0.19984668 -0.074597143 0.96700007 228 26 28 255
0.20168857 -0.074597143 0.96700007 228 26 28 255
0.20353049 -0.074597143 0.96700007 228 26 28 255
0.20537239 -0.074597143 0.96700007 228 26 28 255
0.2072143 -0.074597143 0.96700007 228 26 28 255
0.2090562 -0.074597143 0.96700007 228 26 28 255
0.2108981 -0.074597143 0.96700007 228 26 28 255
0.21274 -0.074597143 0.96700007 228 26 28 255
0.21458192 -0.074597143 0.96700007 228 26 28 255
0.21642382 -0.074597143 0.96700007 228 26 28 255
0.21758859 -0.07436572 0.96400005 228 26 28 255
0.21896954 -0.074211434 0.96200007 228 26 28 255
0.22011335 -0.073980004 0.95900005 228 26 28 255
0.22124572 -0.073748574 0.95600003 228 26 28 255
0.22260001 -0.073594287 0.95400006 228 26 28 255
0.22441715 -0.073594287 0.95400006 228 26 28 255
0.2262343 -0.073594287 0.95400006 228 26 28 255
0.22733429 -0.073362865 0.95100003 228 26 28 255
0.22842288 -0.073131435 0.94800007 228 26 28 255
0.22974287 -0.072977141 0.94600004 228 26 28 255
0.23154476 -0.072977141 0.94600004 228 26 28 255
0.22644001 -0.070817143 0.91800004 228 26 28 255
0.22818857 -0.070817143 0.91800004 228 26 28 255
0.22993715 -0.070817143 0.91800004 228 26 28 255
0.23294763 -0.071202859 0.92300004 228 26 28 255
0.23521431 -0.071357146 0.92500007 228 26 28 255
0.23774476 -0.071588568 0.92800003 228 26 28 255
0.17611428 -0.069219045 0.92000002 228 26 28 255
0.17786667 -0.069219045 0.92000002 228 26 28 255
0.17961904 -0.069219045 0.92000002 228 26 28 255
0.18097715 -0.069068573 0.91800004 228 26 28 255
0.18173049 -0.068692386 0.91300005 228 26 28 255
0.18346953 -0.068692386 0.91300005 228 26 28 255
0.18520857 -0.068692386 0.91300005 228 26 28 255
0.19800477 -0.07275524 0.96700007 228 26 28 255
0.19984668 -0.07275524 0.96700007 228 26 28 255
0.20231429 -0.072980955 0.97000003 228 26 28 255
0.20416191 -0.072980955 0.97000003 228 26 28 255
0.20537239 -0.07275524 0.96700007 228 26 28 255
0.2072143 -0.07275524 0.96700007 228 26 28 255
0.20970476 -0.072980955 0.97000003 228 26 28 255
0.21155238 -0.072980955 0.97000003 228 26 28 255
0.21340001 -0.072980955 0.97000003 228 26 28 255
0.21524763 -0.072980955 0.97000003 228 26 28 255
0.21642382 -0.07275524 0.96700007 228 26 28 255
0.21826573 -0.07275524 0.96700007 228 26 28 255
0.22010764 -0.07275524 0.96700007 228 26 28 255
0.22080192 -0.072379053 0.96200007 228 26 28 255
0.22194001 -0.072153337 0.95900005 228 26 28 255
0.22376668 -0.072153337 0.95900005 228 26 28 255
0.22488762 -0.071927622 0.95600003 228 26 28 255
0.22670858 -0.071927622 0.95600003 228 26 28 255
0.22805144 -0.07177715 0.95400006 228 26 28 255
0.22914572 -0.071551435 0.95100003 228 26 28 255
0.23095715 -0.071551435 0.95100003 228 26 28 255
0.22469144 -0.069068573 0.91800004 228 26 28 255
0.22569999 -0.068842858 0.91500002 228 26 28 255
0.22744286 -0.068842858 0.91500002 228 26 28 255
0.22993715 -0.069068573 0.91800004 228 26 28 255
0.23219047 -0.069219045 0.92000002 228 26 28 255
0.23394285 -0.069219045 0.92000002 228 26 28 255
0.17961904 -0.067466669 0.92000002 228 26 28 255
0.18097715 -0.067320004 0.91800004 228 26 28 255
0.18212856 -0.067100003 0.91500002 228 26 28 255
0.18387143 -0.067100003 0.91500002 228 26 28 255
0.18561429 -0.067100003 0.91500002 228 26 28 255
0.18735714 -0.067100003 0.91500002 228 26 28 255
0.19984668 -0.070913337 0.96700007 228 26 28 255
0.20231429 -0.071133338 0.97000003 228 26 28 255
0.20416191 -0.071133338 0.97000003 228 26 28 255
0.20537239 -0.070913337 0.96700007 228 26 28 255
0.2072143 -0.070913337 0.96700007 228 26 28 255
0.20970476 -0.071133338 0.97000003 228 26 28 255
0.21155238 -0.071133338 0.97000003 228 26 28 255
0.21340001 -0.071133338 0.97000003 228 26 28 255
0.21524763 -0.071133338 0.97000003 228 26 28 255
0.21709524 -0.071133338 0.97000003 228 26 28 255
0.21826573 -0.070913337 0.96700007 228 26 28 255
0.22010764 -0.070913337 0.96700007 228 26 28 255
0.22194953 -0.070913337 0.96700007 228 26 28 255
0.2226343 -0.070546672 0.96200007 228 26 28 255
0.22376668 -0.070326671 0.95900005 228 26 28 255
0.22559334 -0.070326671 0.95900005 228 26 28 255
0.22670858 -0.070106663 0.95600003 228 26 28 255
0.22805144 -0.069960006 0.95400006 228 26 28 255
0.22986858 -0.069960006 0.95400006 228 26 28 255
0.23168573 -0.069960006 0.95400006 228 26 28 255
0.22469144 -0.067320004 0.91800004 228 26 28 255
0.22569999 -0.067100003 0.91500002 228 26 28 255
0.22744286 -0.067100003 0.91500002 228 26 28 255
0.2304381 -0.067466669 0.92000002 228 26 28 255
0.23219047 -0.067466669 0.92000002 228 26 28 255
0.23394285 -0.067466669 0.92000002 228 26 28 255
0.18137144 -0.065714285 0.92000002 228 26 28 255
0.18272573 -0.065571435 0.91800004 228 26 28 255
0.18387143 -0.065357141 0.91500002 228 26 28 255
0.18561429 -0.065357141 0.91500002 228 26 28 255
0.18735714 -0.065357141 0.91500002 228 26 28 255
0.20046666 -0.069285713 0.97000003 228 26 28 255
0.20231429 -0.069285713 0.97000003 228 26 28 255
0.20416191 -0.069285713 0.97000003 228 26 28 255
0.20537239 -0.069071427 0.96700007 228 26 28 255
0.2072143 -0.069071427 0.96700007 228 26 28 255
0.20970476 -0.069285713 0.97000003 228 26 28 255
0.21155238 -0.069285713 0.97000003 228 26 28 255
0.21340001 -0.069285713 0.97000003 228 26 28 255
0.21524763 -0.069285713 0.97000003 228 26 28 255
0.21709524 -0.069285713 0.97000003 228 26 28 255
0.21894285 -0.069285713 0.97000003 228 26 28 255
0.22079048 -0.069285713 0.97000003 228 26 28 255
0.22194953 -0.069071427 0.96700007 228 26 28 255
0.22309716 -0.068857148 0.96400005 228 26 28 255
0.22493334 -0.068857148 0.96400005 228 26 28 255
0.22676954 -0.068857148 0.96400005 228 26 28 255
0.22742002 -0.068500005 0.95900005 228 26 28 255
0.22852953 -0.068285719 0.95600003 228 26 28 255
0.23035048 -0.068285719 0.95600003 228 26 28 255
0.22294286 -0.065571435 0.91800004 228 26 28 255
0.22469144 -0.065571435 0.91800004 228 26 28 255
0.22569999 -0.065357141 0.91500002 228 26 28 255
0.22744286 -0.065357141 0.91500002 228 26 28 255
0.2304381 -0.065714285 0.92000002 228 26 28 255
0.23219047 -0.065714285 0.92000002 228 26 28 255
0.23470572 -0.065928578 0.92300004 228 26 28 255
0.18272573 -0.063822858 0.91800004 228 26 28 255
0.18447429 -0.063822858 0.91800004 228 26 28 255
0.18561429 -0.063614286 0.91500002 228 26 28 255
0.18735714 -0.063614286 0.91500002 228 26 28 255
0.18910001 -0.063614286 0.91500002 228 26 28 255
0.19084287 -0.063614286 0.91500002 228 26 28 255
0.20416191 -0.067438096 0.97000003 228 26 28 255
0.20600954 -0.067438096 0.97000003 228 26 28 255
0.20785715 -0.067438096 0.97000003 228 26 28 255
0.20970476 -0.067438096 0.97000003 228 26 28 255
0.21155238 -0.067438096 0.97000003 228 26 28 255
0.21406001 -0.067646675 0.97300005 228 26 28 255
0.21591334 -0.067646675 0.97300005 228 26 28 255
0.21776667 -0.067646675 0.97300005 228 26 28 255
0.21894285 -0.067438096 0.97000003 228 26 28 255
0.22079048 -0.067438096 0.97000003 228 26 28 255
0.22194953 -0.067229524 0.96700007 228 26 28 255
0.22379145 -0.067229524 0.96700007 228 26 28 255
0.22563335 -0.067229524 0.96700007 228 26 28 255
0.22747526 -0.067229524 0.96700007 228 26 28 255
0.22860572 -0.067020953 0.96400005 228 26 28 255
0.23044191 -0.067020953 0.96400005 228 26 28 255
0.23227811 -0.067020953 0.96400005 228 26 28 255
0.22294286 -0.063822858 0.91800004 228 26 28 255
0.22395714 -0.063614286 0.91500002 228 26 28 255
0.22569999 -0.063614286 0.91500002 228 26 28 255
0.22744286 -0.063614286 0.91500002 228 26 28 255
0.2304381 -0.063961908 0.92000002 228 26 28 255
0.23219047 -0.063961908 0.92000002 228 26 28 255
0.18432859 -0.063223809 0.93500006 228 26 28 255
0.18272573 -0.062074285 0.91800004 228 26 28 255
0.18447429 -0.062074285 0.91800004 228 26 28 255
0.18561429 -0.061871432 0.91500002 228 26 28 255
0.18735714 -0.061871432 0.91500002 228 26 28 255
0.18910001 -0.061871432 0.91500002 228 26 28 255
0.19084287 -0.061871432 0.91500002 228 26 28 255
0.19258572 -0.061871432 0.91500002 228 26 28 255
0.19432856 -0.061871432 0.91500002 228 26 28 255
0.19564286 -0.061736196 0.91300005 228 26 28 255
0.19738191 -0.061736196 0.91300005 228 26 28 255
0.19846666 -0.061533332 0.91000003 228 26 28 255
0.20020001 -0.061533332 0.91000003 228 26 28 255
0.20193332 -0.061533332 0.91000003 228 26 28 255
0.20366667 -0.061533332 0.91000003 228 26 28 255
0.21894285 -0.065590478 0.97000003 228 26 28 255
0.22079048 -0.065590478 0.97000003 228 26 28 255
0.2226381 -0.065590478 0.97000003 228 26 28 255
0.22379145 -0.065387622 0.96700007 228 26 28 255
0.22563335 -0.065387622 0.96700007 228 26 28 255
0.21359621 -0.061398096 0.90800005 228 26 28 255
0.21532573 -0.061398096 0.90800005 228 26 28 255
0.23115906 -0.065387622 0.96700007 228 26 28 255
0.23300096 -0.065387622 0.96700007 228 26 28 255
0.2222143 -0.061871432 0.91500002 228 26 28 255
0.22395714 -0.061871432 0.91500002 228 26 28 255
0.22569999 -0.061871432 0.91500002 228 26 28 255
0.22818857 -0.062074285 0.91800004 228 26 28 255
0.2304381 -0.062209524 0.92000002 228 26 28 255
0.23219047 -0.062209524 0.92000002 228 26 28 255
0.18352382 -0.06177143 0.94000006 228 26 28 255
0.18432859 -0.061442863 0.93500006 228 26 28 255
0.18571143 -0.061311428 0.93300003 228 26 28 255
0.18688573 -0.061114289 0.93000007 228 26 28 255
0.18622287 -0.060325716 0.91800004 228 26 28 255
0.18797144 -0.060325716 0.91800004 228 26 28 255
0.18910001 -0.060128573 0.91500002 228 26 28 255
0.19084287 -0.060128573 0.91500002 228 26 28 255
0.19258572 -0.060128573 0.91500002 228 26 28 255
0.19432856 -0.060128573 0.91500002 228 26 28 255
0.19564286 -0.059997145 0.91300005 228 26 28 255
0.19738191 -0.059997145 0.91300005 228 26 28 255
0.19846666 -0.059799999 0.91000003 228 26 28 255
0.20020001 -0.059799999 0.91000003 228 26 28 255
0.20193332 -0.059799999 0.91000003 228 26 28 255
0.20366667 -0.059799999 0.91000003 228 26 28 255
0.20607716 -0.059997145 0.91300005 228 26 28 255
0.22079048 -0.063742854 0.97000003 228 26 28 255
0.2226381 -0.063742854 0.97000003 228 26 28 255
0.21175714 -0.060128573 0.91500002 228 26 28 255
0.21350001 -0.060128573 0.91500002 228 26 28 255
0.21359621 -0.059668574 0.90800005 228 26 28 255
0.21532573 -0.059668574 0.90800005 228 26 28 255
0.21872857 -0.060128573 0.91500002 228 26 28 255
0.22047144 -0.060128573 0.91500002 228 26 28 255
0.2222143 -0.060128573 0.91500002 228 26 28 255
0.22395714 -0.060128573 0.91500002 228 26 28 255
0.22569999 -0.060128573 0.91500002 228 26 28 255
0.22818857 -0.060325716 0.91800004 228 26 28 255
0.2304381 -0.06045714 0.92000002 228 26 28 255
0.18313333 -0.059853334 0.93800002 228 26 28 255
0.18432859 -0.05966191 0.93500006 228 26 28 255
0.18571143 -0.059534285 0.93300003 228 26 28 255
0.18688573 -0.059342861 0.93000007 228 26 28 255
0.18764286 -0.059023816 0.92500007 228 26 28 255
0.18838096 -0.05870476 0.92000002 228 26 28 255
0.18910001 -0.058385715 0.91500002 228 26 28 255
0.19084287 -0.058385715 0.91500002 228 26 28 255
0.19258572 -0.058385715 0.91500002 228 26 28 255
0.19432856 -0.058385715 0.91500002 228 26 28 255
0.19564286 -0.058258098 0.91300005 228 26 28 255
0.19738191 -0.058258098 0.91300005 228 26 28 255
0.19912095 -0.058258098 0.91300005 228 26 28 255
0.20086001 -0.058258098 0.91300005 228 26 28 255
0.20259905 -0.058258098 0.91300005 228 26 28 255
0.2043381 -0.058258098 0.91300005 228 26 28 255
0.20607716 -0.058258098 0.91300005 228 26 28 255
0.20827143 -0.058385715 0.91500002 228 26 28 255
0.21001428 -0.058385715 0.91500002 228 26 28 255
0.21175714 -0.058385715 0.91500002 228 26 28 255
0.21350001 -0.058385715 0.91500002 228 26 28 255
0.21477239 -0.058258098 0.91300005 228 26 28 255
0.21651143 -0.058258098 0.91300005 228 26 28 255
0.21872857 -0.058385715 0.91500002 228 26 28 255
0.22047144 -0.058385715 0.91500002 228 26 28 255
0.2222143 -0.058385715 0.91500002 228 26 28 255
0.22395714 -0.058385715 0.91500002 228 26 28 255
0.22644001 -0.058577146 0.91800004 228 26 28 255
0.22818857 -0.058577146 0.91800004 228 26 28 255
0.18313333 -0.058066666 0.93800002 228 26 28 255
0.18432859 -0.057880957 0.93500006 228 26 28 255
0.18610953 -0.057880957 0.93500006 228 26 28 255
0.18748857 -0.057757143 0.93300003 228 26 28 255
0.18865715 -0.057571433 0.93000007 228 26 28 255
0.18940477 -0.057261907 0.92500007 228 26 28 255
0.18972 -0.056828573 0.91800004 228 26 28 255
0.19146858 -0.056828573 0.91800004 228 26 28 255
0.19258572 -0.05664286 0.91500002 228 26 28 255
0.19432856 -0.05664286 0.91500002 228 26 28 255
0.19607143 -0.05664286 0.91500002 228 26 28 255
0.19781429 -0.05664286 0.91500002 228 26 28 255
0.19955714 -0.05664286 0.91500002 228 26 28 255
0.20130001 -0.05664286 0.91500002 228 26 28 255
0.20304286 -0.05664286 0.91500002 228 26 28 255
0.20478572 -0.05664286 0.91500002 228 26 28 255
0.20652857 -0.05664286 0.91500002 228 26 28 255
0.20827143 -0.05664286 0.91500002 228 26 28 255
0.21001428 -0.05664286 0.91500002 228 26 28 255
0.21175714 -0.05664286 0.91500002 228 26 28 255
0.21350001 -0.05664286 0.91500002 228 26 28 255
0.21477239 -0.056519046 0.91300005 228 26 28 255
0.21651143 -0.056519046 0.91300005 228 26 28 255
0.21825048 -0.056519046 0.91300005 228 26 28 255
0.22047144 -0.05664286 0.91500002 228 26 28 255
0.2222143 -0.05664286 0.91500002 228 26 28 255
0.22395714 -0.05664286 0.91500002 228 26 28 255
0.22644001 -0.056828573 0.91800004 228 26 28 255
0.22818857 -0.056828573 0.91800004 228 26 28 255
0.18313333 -0.056280002 0.93800002 228 26 28 255
0.18432859 -0.056100003 0.93500006 228 26 28 255
0.18610953 -0.056100003 0.93500006 228 26 28 255
0.18748857 -0.055980001 0.93300003 228 26 28 255
0.18865715 -0.055800002 0.93000007 228 26 28 255
0.19001906 -0.055679999 0.92800003 228 26 28 255
0.19116668 -0.055500004 0.92500007 228 26 28 255
0.19146858 -0.055080004 0.91800004 228 26 28 255
0.19321714 -0.055080004 0.91800004 228 26 28 255
0.19496572 -0.055080004 0.91800004 228 26 28 255
0.19671428 -0.055080004 0.91800004 228 26 28 255
0.19846287 -0.055080004 0.91800004 228 26 28 255
0.19955714 -0.054899998 0.91500002 228 26 28 255
0.20130001 -0.054899998 0.91500002 228 26 28 255
0.20304286 -0.054899998 0.91500002 228 26 28 255
0.20478572 -0.054899998 0.91500002 228 26 28 255
0.20720573 -0.055080004 0.91800004 228 26 28 255
0.20895429 -0.055080004 0.91800004 228 26 28 255
0.21001428 -0.054899998 0.91500002 228 26 28 255
0.21175714 -0.054899998 0.91500002 228 26 28 255
0.21350001 -0.054899998 0.91500002 228 26 28 255
0.21477239 -0.054780003 0.91300005 228 26 28 255
0.21651143 -0.054780003 0.91300005 228 26 28 255
0.21825048 -0.054780003 0.91300005 228 26 28 255
0.22047144 -0.054899998 0.91500002 228 26 28 255
0.2222143 -0.054899998 0.91500002 228 26 28 255
0.22469144 -0.055080004 0.91800004 228 26 28 255
0.18352382 -0.054609526 0.94000006 228 26 28 255
0.18492 -0.054493334 0.93800002 228 26 28 255
0.18670668 -0.054493334 0.93800002 228 26 28 255
0.18789048 -0.05431905 0.93500006 228 26 28 255
0.18967144 -0.05431905 0.93500006 228 26 28 255
0.19104286 -0.054202858 0.93300003 228 26 28 255
0.19220001 -0.054028574 0.93000007 228 26 28 255
0.1935543 -0.053912383 0.92800003 228 26 28 255
0.1946905 -0.053738099 0.92500007 228 26 28 255
0.19602762 -0.053621907 0.92300004 228 26 28 255
0.19778572 -0.053621907 0.92300004 228 26 28 255
0.19954382 -0.053621907 0.92300004 228 26 28 255
0.2013019 -0.053621907 0.92300004 228 26 28 255
0.20306002 -0.053621907 0.92300004 228 26 28 255
0.2048181 -0.053621907 0.92300004 228 26 28 255
0.20590475 -0.053447623 0.92000002 228 26 28 255
0.20765714 -0.053447623 0.92000002 228 26 28 255
0.20940952 -0.053447623 0.92000002 228 26 28 255
0.2111619 -0.053447623 0.92000002 228 26 28 255
0.21245143 -0.053331427 0.91800004 228 26 28 255
0.2142 -0.053331427 0.91800004 228 26 28 255
0.21594858 -0.053331427 0.91800004 228 26 28 255
0.21769716 -0.053331427 0.91800004 228 26 28 255
0.21944572 -0.053331427 0.91800004 228 26 28 255
0.2211943 -0.053331427 0.91800004 228 26 28 255
0.22294286 -0.053331427 0.91800004 228 26 28 255
0.18410952 -0.05298762 0.94300002 228 26 28 255
0.1853143 -0.052819051 0.94000006 228 26 28 255
0.18670668 -0.05270667 0.93800002 228 26 28 255
0.18849333 -0.05270667 0.93800002 228 26 28 255
0.18967144 -0.052538101 0.93500006 228 26 28 255
0.19145238 -0.052538101 0.93500006 228 26 28 255
0.19282 -0.052425716 0.93300003 228 26 28 255
0.19397144 -0.052257147 0.93000007 228 26 28 255
0.19532192 -0.052144762 0.92800003 228 26 28 255
0.19645239 -0.051976193 0.92500007 228 26 28 255
0.19821429 -0.051976193 0.92500007 228 26 28 255
0.19997621 -0.051976193 0.92500007 228 26 28 255
0.2017381 -0.051976193 0.92500007 228 26 28 255
0.20306002 -0.051863808 0.92300004 228 26 28 255
0.2048181 -0.051863808 0.92300004 228 26 28 255
0.20702383 -0.051976193 0.92500007 228 26 28 255
0.2083343 -0.051863808 0.92300004 228 26 28 255
0.2100924 -0.051863808 0.92300004 228 26 28 255
0.21185048 -0.051863808 0.92300004 228 26 28 255
0.21291429 -0.051695239 0.92000002 228 26 28 255
0.21466668 -0.051695239 0.92000002 228 26 28 255
0.21641906 -0.051695239 0.92000002 228 26 28 255
0.21817143 -0.051695239 0.92000002 228 26 28 255
0.21944572 -0.051582858 0.91800004 228 26 28 255
0.2211943 -0.051582858 0.91800004 228 26 28 255
0.18386 -0.051625714 0.95100003 228 26 28 255
0.18469524 -0.051354285 0.94600004 228 26 28 255
0.1853143 -0.051028572 0.94000006 228 26 28 255
0.18710476 -0.051028572 0.94000006 228 26 28 255
0.18849333 -0.050919998 0.93800002 228 26 28 255
0.19028001 -0.050919998 0.93800002 228 26 28 255
0.19145238 -0.050757144 0.93500006 228 26 28 255
0.19282 -0.05064857 0.93300003 228 26 28 255
0.19397144 -0.050485715 0.93000007 228 26 28 255
0.19532192 -0.050377145 0.92800003 228 26 28 255
0.19708952 -0.050377145 0.92800003 228 26 28 255
0.19821429 -0.050214287 0.92500007 228 26 28 255
0.19997621 -0.050214287 0.92500007 228 26 28 255
0.2017381 -0.050214287 0.92500007 228 26 28 255
0.20350002 -0.050214287 0.92500007 228 26 28 255
0.20526192 -0.050214287 0.92500007 228 26 28 255
0.20702383 -0.050214287 0.92500007 228 26 28 255
0.20878573 -0.050214287 0.92500007 228 26 28 255
0.21054763 -0.050214287 0.92500007 228 26 28 255
0.21230954 -0.050214287 0.92500007 228 26 28 255
0.21407145 -0.050214287 0.92500007 228 26 28 255
0.21583335 -0.050214287 0.92500007 228 26 28 255
0.21759525 -0.050214287 0.92500007 228 26 28 255
0.21935715 -0.050214287 0.92500007 228 26 28 255
0.22111906 -0.050214287 0.92500007 228 26 28 255
0.18386 -0.049814284 0.95100003 228 26 28 255
0.18508573 -0.049657144 0.94800007 228 26 28 255
0.18590571 -0.049395241 0.94300002 228 26 28 255
0.18770191 -0.049395241 0.94300002 228 26 28 255
0.18889524 -0.049238101 0.94000006 228 26 28 255
0.19028001 -0.049133334 0.93800002 228 26 28 255
0.19206667 -0.049133334 0.93800002 228 26 28 255
0.19323336 -0.048976194 0.93500006 228 26 28 255
0.19397144 -0.048714291 0.93000007 228 26 28 255
0.19574288 -0.048714291 0.93000007 228 26 28 255
0.19708952 -0.048609525 0.92800003 228 26 28 255
0.19885714 -0.048609525 0.92800003 228 26 28 255
0.20062476 -0.048609525 0.92800003 228 26 28 255
0.20239238 -0.048609525 0.92800003 228 26 28 255
0.20416 -0.048609525 0.92800003 228 26 28 255
0.20592763 -0.048609525 0.92800003 228 26 28 255
0.20769523 -0.048609525 0.92800003 228 26 28 255
0.20946287 -0.048609525 0.92800003 228 26 28 255
0.21123049 -0.048609525 0.92800003 228 26 28 255
0.21299811 -0.048609525 0.92800003 228 26 28 255
0.21476573 -0.048609525 0.92800003 228 26 28 255
0.21653333 -0.048609525 0.92800003 228 26 28 255
0.21830095 -0.048609525 0.92800003 228 26 28 255
0.21935715 -0.048452385 0.92500007 228 26 28 255
0.22111906 -0.048452385 0.92500007 228 26 28 255
0.18482667 -0.048255239 0.95600003 228 26 28 255
0.18508573 -0.047851432 0.94800007 228 26 28 255
0.18649715 -0.047750477 0.94600004 228 26 28 255
0.18770191 -0.047599047 0.94300002 228 26 28 255
0.18889524 -0.047447622 0.94000006 228 26 28 255
0.19028001 -0.047346666 0.93800002 228 26 28 255
0.19206667 -0.047346666 0.93800002 228 26 28 255
0.19323336 -0.047195241 0.93500006 228 26 28 255
0.19459715 -0.047094285 0.93300003 228 26 28 255
0.19574288 -0.04694286 0.93000007 228 26 28 255
0.1975143 -0.04694286 0.93000007 228 26 28 255
0.19885714 -0.046841905 0.92800003 228 26 28 255
0.20062476 -0.046841905 0.92800003 228 26 28 255
0.20239238 -0.046841905 0.92800003 228 26 28 255
0.20416 -0.046841905 0.92800003 228 26 28 255
0.20637144 -0.04694286 0.93000007 228 26 28 255
0.20814288 -0.04694286 0.93000007 228 26 28 255
0.2099143 -0.04694286 0.93000007 228 26 28 255
0.21168573 -0.04694286 0.93000007 228 26 28 255
0.21345717 -0.04694286 0.93000007 228 26 28 255
0.21522859 -0.04694286 0.93000007 228 26 28 255
0.21700002 -0.04694286 0.93000007 228 26 28 255
0.21830095 -0.046841905 0.92800003 228 26 28 255
0.22006857 -0.046841905 0.92800003 228 26 28 255
0.18598667 -0.046725716 0.96200007 228 26 28 255
0.18567143 -0.046191432 0.95100003 228 26 28 255
0.18689144 -0.046045717 0.94800007 228 26 28 255
0.18829904 -0.045948572 0.94600004 228 26 28 255
0.1894981 -0.045802858 0.94300002 228 26 28 255
0.1912943 -0.045802858 0.94300002 228 26 28 255
0.1924762 -0.045657143 0.94000006 228 26 28 255
0.19385333 -0.045560002 0.93800002 228 26 28 255
0.19459715 -0.045317143 0.93300003 228 26 28 255
0.1963743 -0.045317143 0.93300003 228 26 28 255
0.19815142 -0.045317143 0.93300003 228 26 28 255
0.19928573 -0.045171432 0.93000007 228 26 28 255
0.20105715 -0.045171432 0.93000007 228 26 28 255
0.20282859 -0.045171432 0.93000007 228 26 28 255
0.20460002 -0.045171432 0.93000007 228 26 28 255
0.20703715 -0.045317143 0.93300003 228 26 28 255
0.20881429 -0.045317143 0.93300003 228 26 28 255
0.21059144 -0.045317143 0.93300003 228 26 28 255
0.21236856 -0.045317143 0.93300003 228 26 28 255
0.21414572 -0.045317143 0.93300003 228 26 28 255
0.21522859 -0.045171432 0.93000007 228 26 28 255
0.21700002 -0.045171432 0.93000007 228 26 28 255
0.21877144 -0.045171432 0.93000007 228 26 28 255
0.22054288 -0.045171432 0.93000007 228 26 28 255
0.18723334 -0.044753335 0.95900005 228 26 28 255
0.18748286 -0.044380002 0.95100003 228 26 28 255
0.18869716 -0.044240002 0.94800007 228 26 28 255
0.19010095 -0.044146664 0.94600004 228 26 28 255
0.1912943 -0.044006668 0.94300002 228 26 28 255
0.1924762 -0.043866668 0.94000006 228 26 28 255
0.19385333 -0.043773334 0.93800002 228 26 28 255
0.1950143 -0.043633334 0.93500006 228 26 28 255
0.19679524 -0.043633334 0.93500006 228 26 28 255
0.19857621 -0.043633334 0.93500006 228 26 28 255
0.20035715 -0.043633334 0.93500006 228 26 28 255
0.2021381 -0.043633334 0.93500006 228 26 28 255
0.20391907 -0.043633334 0.93500006 228 26 28 255
0.20570001 -0.043633334 0.93500006 228 26 28 255
0.20814666 -0.043773334 0.93800002 228 26 28 255
0.20993334 -0.043773334 0.93800002 228 26 28 255
0.21172 -0.043773334 0.93800002 228 26 28 255
0.21282382 -0.043633334 0.93500006 228 26 28 255
0.21345717 -0.043400005 0.93000007 228 26 28 255
0.21522859 -0.043400005 0.93000007 228 26 28 255
0.2177 -0.043540001 0.93300003 228 26 28 255
0.21947715 -0.043540001 0.93300003 228 26 28 255
0.18723334 -0.042926669 0.95900005 228 26 28 255
0.18807429 -0.042702857 0.95400006 228 26 28 255
0.18869716 -0.04243429 0.94800007 228 26 28 255
0.19050287 -0.04243429 0.94800007 228 26 28 255
0.19230857 -0.04243429 0.94800007 228 26 28 255
0.19370477 -0.042344764 0.94600004 228 26 28 255
0.19426668 -0.042076193 0.94000006 228 26 28 255
0.19564001 -0.041986667 0.93800002 228 26 28 255
0.19679524 -0.041852385 0.93500006 228 26 28 255
0.19857621 -0.041852385 0.93500006 228 26 28 255
0.20035715 -0.041852385 0.93500006 228 26 28 255
0.2021381 -0.041852385 0.93500006 228 26 28 255
0.20391907 -0.041852385 0.93500006 228 26 28 255
0.20636001 -0.041986667 0.93800002 228 26 28 255
0.20814666 -0.041986667 0.93800002 228 26 28 255
0.20993334 -0.041986667 0.93800002 228 26 28 255
0.21172 -0.041986667 0.93800002 228 26 28 255
0.21282382 -0.041852385 0.93500006 228 26 28 255
0.21345717 -0.041628573 0.93000007 228 26 28 255
0.21522859 -0.041628573 0.93000007 228 26 28 255
0.21700002 -0.041628573 0.93000007 228 26 28 255
0.18723334 -0.041100003 0.95900005 228 26 28 255
0.18846858 -0.040971428 0.95600003 228 26 28 255
0.19028953 -0.040971428 0.95600003 228 26 28 255
0.19050287 -0.040628575 0.94800007 228 26 28 255
0.19230857 -0.040628575 0.94800007 228 26 28 255
0.19411431 -0.040628575 0.94800007 228 26 28 255
0.19550668 -0.04054286 0.94600004 228 26 28 255
0.19605716 -0.040285718 0.94000006 228 26 28 255
0.19784762 -0.040285718 0.94000006 228 26 28 255
0.19921334 -0.040200002 0.93800002 228 26 28 255
0.20100001 -0.040200002 0.93800002 228 26 28 255
0.20321907 -0.040285718 0.94000006 228 26 28 255
0.20457333 -0.040200002 0.93800002 228 26 28 255
0.20636001 -0.040200002 0.93800002 228 26 28 255
0.20859049 -0.040285718 0.94000006 228 26 28 255
0.21038096 -0.040285718 0.94000006 228 26 28 255
0.21217144 -0.040285718 0.94000006 228 26 28 255
0.21350667 -0.040200002 0.93800002 228 26 28 255
0.21414572 -0.039985713 0.93300003 228 26 28 255
0.21592286 -0.039985713 0.93300003 228 26 28 255
0.2177 -0.039985713 0.93300003 228 26 28 255
0.18965144 -0.039396197 0.96200007 228 26 28 255
0.19088668 -0.039273337 0.95900005 228 26 28 255
0.19170858 -0.039068572 0.95400006 228 26 28 255
0.19291714 -0.038945716 0.95100003 228 26 28 255
0.19472858 -0.038945716 0.95100003 228 26 28 255
0.19592002 -0.03882286 0.94800007 228 26 28 255
0.19772573 -0.03882286 0.94800007 228 26 28 255
0.19953144 -0.03882286 0.94800007 228 26 28 255
0.20133716 -0.03882286 0.94800007 228 26 28 255
0.20271429 -0.038740952 0.94600004 228 26 28 255
0.20386761 -0.038618095 0.94300002 228 26 28 255
0.20500953 -0.038495239 0.94000006 228 26 28 255
0.20680001 -0.038495239 0.94000006 228 26 28 255
0.2092562 -0.038618095 0.94300002 228 26 28 255
0.21105239 -0.038618095 0.94300002 228 26 28 255
0.21284857 -0.038618095 0.94300002 228 26 28 255
0.21464476 -0.038618095 0.94300002 228 26 28 255
0.21644095 -0.038618095 0.94300002 228 26 28 255
0.19088668 -0.037446667 0.95900005 228 26 28 255
0.19211048 -0.037329525 0.95600003 228 26 28 255
0.19352572 -0.037251431 0.95400006 228 26 28 255
0.19472858 -0.037134286 0.95100003 228 26 28 255
0.19654 -0.037134286 0.95100003 228 26 28 255
0.19772573 -0.037017144 0.94800007 228 26 28 255
0.19953144 -0.037017144 0.94800007 228 26 28 255
0.20133716 -0.037017144 0.94800007 228 26 28 255
0.20314287 -0.037017144 0.94800007 228 26 28 255
0.20451619 -0.036939051 0.94600004 228 26 28 255
0.2063181 -0.036939051 0.94600004 228 26 28 255
0.20812002 -0.036939051 0.94600004 228 26 28 255
0.20992191 -0.036939051 0.94600004 228 26 28 255
0.21217144 -0.037017144 0.94800007 228 26 28 255
0.21397714 -0.037017144 0.94800007 228 26 28 255
0.21578288 -0.037017144 0.94800007 228 26 28 255
0.21827716 -0.037134286 0.95100003 228 26 28 255
0.22194001 -0.037446667 0.95900005 228 26 28 255
0.22376668 -0.037446667 0.95900005 228 26 28 255
0.19271335 -0.03562 0.95900005 228 26 28 255
0.19393143 -0.035508573 0.95600003 228 26 28 255
0.19534287 -0.035434287 0.95400006 228 26 28 255
0.19654 -0.035322856 0.95100003 228 26 28 255
0.19835144 -0.035322856 0.95100003 228 26 28 255
0.20016286 -0.035322856 0.95100003 228 26 28 255
0.2019743 -0.035322856 0.95100003 228 26 28 255
0.20314287 -0.035211433 0.94800007 228 26 28 255
0.20494859 -0.035211433 0.94800007 228 26 28 255
0.2063181 -0.035137143 0.94600004 228 26 28 255
0.20812002 -0.035137143 0.94600004 228 26 28 255
0.21036573 -0.035211433 0.94800007 228 26 28 255
0.21217144 -0.035211433 0.94800007 228 26 28 255
0.21397714 -0.035211433 0.94800007 228 26 28 255
0.21646571 -0.035322856 0.95100003 228 26 28 255
