ply
format ascii 1.0
comment PCL generated
element vertex 214
property float x
property float y
property float z
property uchar red
property uchar green
property uchar blue
property uchar alpha
element camera 1
property float view_px
property float view_py
property float view_pz
property float x_axisx
property float x_axisy
property float x_axisz
property float y_axisx
property float y_axisy
property float y_axisz
property float z_axisx
property float z_axisy
property float z_axisz
property float focal
property float scalex
property float scaley
property float centerx
property float centery
property int viewportx
property int viewporty
property float k1
property float k2
end_header
-0.25035998 -0.059609525 1.138 255 255 51 255
-0.24819237 -0.059609525 1.138 255 255 51 255
-0.25934574 -0.057997145 1.149 255 255 51 255
-0.25715715 -0.057997145 1.149 255 255 51 255
-0.25408098 -0.057795241 1.1450001 255 255 51 255
-0.25035998 -0.057441905 1.138 255 255 51 255
-0.24819237 -0.057441905 1.138 255 255 51 255
-0.2475381 -0.057795241 1.1450001 255 255 51 255
-0.26498574 -0.055614289 1.1450001 255 255 51 255
-0.26280481 -0.055614289 1.1450001 255 255 51 255
-0.26062384 -0.055614289 1.1450001 255 255 51 255
-0.25934574 -0.055808574 1.149 255 255 51 255
-0.25715715 -0.055808574 1.149 255 255 51 255
-0.25408098 -0.055614289 1.1450001 255 255 51 255
-0.25102001 -0.05542 1.141 255 255 51 255
-0.24884667 -0.05542 1.141 255 255 51 255
-0.2475381 -0.055614289 1.1450001 255 255 51 255
-0.2462143 -0.055808574 1.149 255 255 51 255
-0.26934764 -0.053433336 1.1450001 255 255 51 255
-0.26716667 -0.053433336 1.1450001 255 255 51 255
-0.26498574 -0.053433336 1.1450001 255 255 51 255
-0.26280481 -0.053433336 1.1450001 255 255 51 255
-0.26062384 -0.053433336 1.1450001 255 255 51 255
-0.25934574 -0.053620003 1.149 255 255 51 255
-0.25715715 -0.053620003 1.149 255 255 51 255
-0.25496858 -0.053620003 1.149 255 255 51 255
-0.25190002 -0.053433336 1.1450001 255 255 51 255
-0.24971907 -0.053433336 1.1450001 255 255 51 255
-0.24840285 -0.053620003 1.149 255 255 51 255
-0.24535717 -0.053433336 1.1450001 255 255 51 255
-0.24317621 -0.053433336 1.1450001 255 255 51 255
-0.26934764 -0.051252387 1.1450001 255 255 51 255
-0.26716667 -0.051252387 1.1450001 255 255 51 255
-0.26591143 -0.051431429 1.149 255 255 51 255
-0.26372284 -0.051431429 1.149 255 255 51 255
-0.2615343 -0.051431429 1.149 255 255 51 255
-0.25934574 -0.051431429 1.149 255 255 51 255
-0.25715715 -0.051431429 1.149 255 255 51 255
-0.25496858 -0.051431429 1.149 255 255 51 255
-0.25277999 -0.051431429 1.149 255 255 51 255
-0.25059143 -0.051431429 1.149 255 255 51 255
-0.24840285 -0.051431429 1.149 255 255 51 255
-0.24535717 -0.051252387 1.1450001 255 255 51 255
-0.24317621 -0.051252387 1.1450001 255 255 51 255
-0.24267904 -0.051610474 1.153 255 255 51 255
-0.27028859 -0.049242858 1.149 255 255 51 255
-0.26809999 -0.049242858 1.149 255 255 51 255
-0.26591143 -0.049242858 1.149 255 255 51 255
-0.26464093 -0.049414285 1.153 255 255 51 255
-0.2615343 -0.049242858 1.149 255 255 51 255
-0.25934574 -0.049242858 1.149 255 255 51 255
-0.25715715 -0.049242858 1.149 255 255 51 255
-0.25496858 -0.049242858 1.149 255 255 51 255
-0.25277999 -0.049242858 1.149 255 255 51 255
-0.25059143 -0.049242858 1.149 255 255 51 255
-0.24840285 -0.049242858 1.149 255 255 51 255
-0.2462143 -0.049242858 1.149 255 255 51 255
-0.24402574 -0.049242858 1.149 255 255 51 255
-0.24267904 -0.049414285 1.153 255 255 51 255
-0.24048285 -0.049414285 1.153 255 255 51 255
-0.27247715 -0.047054287 1.149 255 255 51 255
-0.27028859 -0.047054287 1.149 255 255 51 255
-0.26809999 -0.047054287 1.149 255 255 51 255
-0.26683712 -0.047218092 1.153 255 255 51 255
-0.26464093 -0.047218092 1.153 255 255 51 255
-0.26244473 -0.047218092 1.153 255 255 51 255
-0.25934574 -0.047054287 1.149 255 255 51 255
-0.25715715 -0.047054287 1.149 255 255 51 255
-0.25496858 -0.047054287 1.149 255 255 51 255
-0.25277999 -0.047054287 1.149 255 255 51 255
-0.25059143 -0.047054287 1.149 255 255 51 255
-0.24926761 -0.047218092 1.153 255 255 51 255
-0.24707142 -0.047218092 1.153 255 255 51 255
-0.24487522 -0.047218092 1.153 255 255 51 255
-0.24267904 -0.047218092 1.153 255 255 51 255
-0.24048285 -0.047218092 1.153 255 255 51 255
-0.23828667 -0.047218092 1.153 255 255 51 255
-0.27247715 -0.044865716 1.149 255 255 51 255
-0.27028859 -0.044865716 1.149 255 255 51 255
-0.26903331 -0.045021903 1.153 255 255 51 255
-0.26683712 -0.045021903 1.153 255 255 51 255
-0.26464093 -0.045021903 1.153 255 255 51 255
-0.26244473 -0.045021903 1.153 255 255 51 255
-0.26024854 -0.045021903 1.153 255 255 51 255
-0.25805238 -0.045021903 1.153 255 255 51 255
-0.25496858 -0.044865716 1.149 255 255 51 255
-0.25277999 -0.044865716 1.149 255 255 51 255
-0.2514638 -0.045021903 1.153 255 255 51 255
-0.24926761 -0.045021903 1.153 255 255 51 255
-0.24707142 -0.045021903 1.153 255 255 51 255
-0.24572478 -0.0451781 1.1570001 255 255 51 255
-0.24267904 -0.045021903 1.153 255 255 51 255
-0.24048285 -0.045021903 1.153 255 255 51 255
-0.23828667 -0.045021903 1.153 255 255 51 255
-0.27247715 -0.042677142 1.149 255 255 51 255
-0.27028859 -0.042677142 1.149 255 255 51 255
-0.26903331 -0.042825714 1.153 255 255 51 255
-0.26683712 -0.042825714 1.153 255 255 51 255
-0.26464093 -0.042825714 1.153 255 255 51 255
-0.26244473 -0.042825714 1.153 255 255 51 255
-0.26024854 -0.042825714 1.153 255 255 51 255
-0.25805238 -0.042825714 1.153 255 255 51 255
-0.25496858 -0.042677142 1.149 255 255 51 255
-0.25277999 -0.042677142 1.149 255 255 51 255
-0.2514638 -0.042825714 1.153 255 255 51 255
-0.24926761 -0.042825714 1.153 255 255 51 255
-0.24707142 -0.042825714 1.153 255 255 51 255
-0.24572478 -0.042974286 1.1570001 255 255 51 255
-0.24267904 -0.042825714 1.153 255 255 51 255
-0.24048285 -0.042825714 1.153 255 255 51 255
-0.23828667 -0.042825714 1.153 255 255 51 255
-0.23690954 -0.042974286 1.1570001 255 255 51 255
-0.2734257 -0.040629521 1.153 255 255 51 255
-0.27122951 -0.040629521 1.153 255 255 51 255
-0.26903331 -0.040629521 1.153 255 255 51 255
-0.26776287 -0.040770479 1.1570001 255 255 51 255
-0.26555905 -0.040770479 1.1570001 255 255 51 255
-0.26335526 -0.040770479 1.1570001 255 255 51 255
-0.26024854 -0.040629521 1.153 255 255 51 255
-0.25805238 -0.040629521 1.153 255 255 51 255
-0.25585619 -0.040629521 1.153 255 255 51 255
-0.25365999 -0.040629521 1.153 255 255 51 255
-0.2514638 -0.040629521 1.153 255 255 51 255
-0.24926761 -0.040629521 1.153 255 255 51 255
-0.24792857 -0.040770479 1.1570001 255 255 51 255
-0.24572478 -0.040770479 1.1570001 255 255 51 255
-0.24352098 -0.040770479 1.1570001 255 255 51 255
-0.24131715 -0.040770479 1.1570001 255 255 51 255
-0.23911335 -0.040770479 1.1570001 255 255 51 255
-0.23690954 -0.040770479 1.1570001 255 255 51 255
-0.27090001 -0.038700003 1.161 255 255 51 255
-0.26868859 -0.038700003 1.161 255 255 51 255
-0.26555905 -0.038566668 1.1570001 255 255 51 255
-0.26335526 -0.038566668 1.1570001 255 255 51 255
-0.26115143 -0.038566668 1.1570001 255 255 51 255
-0.25894764 -0.038566668 1.1570001 255 255 51 255
-0.25585619 -0.038433332 1.153 255 255 51 255
-0.25365999 -0.038433332 1.153 255 255 51 255
-0.2523362 -0.038566668 1.1570001 255 255 51 255
-0.25013238 -0.038566668 1.1570001 255 255 51 255
-0.24878572 -0.038700003 1.161 255 255 51 255
-0.24742381 -0.038833335 1.1650001 255 255 51 255
-0.24436285 -0.038700003 1.161 255 255 51 255
-0.24215142 -0.038700003 1.161 255 255 51 255
-0.23993999 -0.038700003 1.161 255 255 51 255
-0.23854764 -0.038833335 1.1650001 255 255 51 255
-0.27090001 -0.03648857 1.161 255 255 51 255
-0.26868859 -0.03648857 1.161 255 255 51 255
-0.26555905 -0.03636286 1.1570001 255 255 51 255
-0.26335526 -0.03636286 1.1570001 255 255 51 255
-0.26115143 -0.03636286 1.1570001 255 255 51 255
-0.25894764 -0.03636286 1.1570001 255 255 51 255
-0.25674382 -0.03636286 1.1570001 255 255 51 255
-0.25454003 -0.03636286 1.1570001 255 255 51 255
-0.2523362 -0.03636286 1.1570001 255 255 51 255
-0.25099713 -0.03648857 1.161 255 255 51 255
-0.24878572 -0.03648857 1.161 255 255 51 255
-0.24742381 -0.036614288 1.1650001 255 255 51 255
-0.24520479 -0.036614288 1.1650001 255 255 51 255
-0.24298574 -0.036614288 1.1650001 255 255 51 255
-0.23828667 -0.036237143 1.153 255 255 51 255
-0.23609048 -0.036237143 1.153 255 255 51 255
-0.26647714 -0.034277145 1.161 255 255 51 255
-0.26426572 -0.034277145 1.161 255 255 51 255
-0.26205429 -0.034277145 1.161 255 255 51 255
-0.25984284 -0.034277145 1.161 255 255 51 255
-0.25763142 -0.034277145 1.161 255 255 51 255
-0.25542 -0.034277145 1.161 255 255 51 255
-0.25408095 -0.03439524 1.1650001 255 255 51 255
-0.25186193 -0.03439524 1.1650001 255 255 51 255
-0.24964288 -0.03439524 1.1650001 255 255 51 255
-0.24827334 -0.034513336 1.169 255 255 51 255
-0.24604666 -0.034513336 1.169 255 255 51 255
-0.24298574 -0.03439524 1.1650001 255 255 51 255
-0.23828667 -0.03404095 1.153 255 255 51 255
-0.23609048 -0.03404095 1.153 255 255 51 255
-0.26517621 -0.032176193 1.1650001 255 255 51 255
-0.26295716 -0.032176193 1.1650001 255 255 51 255
-0.2607381 -0.032176193 1.1650001 255 255 51 255
-0.25851905 -0.032176193 1.1650001 255 255 51 255
-0.25718001 -0.032286666 1.169 255 255 51 255
-0.25495335 -0.032286666 1.169 255 255 51 255
-0.25272667 -0.032286666 1.169 255 255 51 255
-0.25135717 -0.032397144 1.1730001 255 255 51 255
-0.24912286 -0.032397144 1.1730001 255 255 51 255
-0.24688859 -0.032397144 1.1730001 255 255 51 255
-0.24465431 -0.032397144 1.1730001 255 255 51 255
-0.24242002 -0.032397144 1.1730001 255 255 51 255
-0.26386002 -0.030060001 1.169 255 255 51 255
-0.26163334 -0.030060001 1.169 255 255 51 255
-0.25940669 -0.030060001 1.169 255 255 51 255
-0.25718001 -0.030060001 1.169 255 255 51 255
-0.25582576 -0.03016286 1.1730001 255 255 51 255
-0.25359145 -0.03016286 1.1730001 255 255 51 255
-0.25135717 -0.03016286 1.1730001 255 255 51 255
-0.24912286 -0.03016286 1.1730001 255 255 51 255
-0.24688859 -0.03016286 1.1730001 255 255 51 255
-0.24548857 -0.030265715 1.177 255 255 51 255
-0.24324667 -0.030265715 1.177 255 255 51 255
-0.25894001 -0.028023811 1.177 255 255 51 255
-0.2566981 -0.028023811 1.177 255 255 51 255
-0.25445619 -0.028023811 1.177 255 255 51 255
-0.25221428 -0.028023811 1.177 255 255 51 255
-0.24997239 -0.028023811 1.177 255 255 51 255
-0.24773048 -0.028023811 1.177 255 255 51 255
-0.24715716 -0.028214287 1.1850001 255 255 51 255
-0.25757051 -0.025869526 1.1810001 255 255 51 255
-0.255321 -0.025869526 1.1810001 255 255 51 255
-0.25307146 -0.025869526 1.1810001 255 255 51 255
-0.25082195 -0.025869526 1.1810001 255 255 51 255
-0.24857241 -0.025869526 1.1810001 255 255 51 255
-0.25705048 -0.023779999 1.189 255 255 51 255
-0.25478572 -0.023779999 1.189 255 255 51 255
-0.25337049 -0.023860002 1.1930001 255 255 51 255
0 0 0 1 0 0 0 1 0 0 0 1 0 0 0 0 0 214 1 0 0
